7.499019431229608,-21.032311895648675,26
7.104334198006997,-19.92534811166717,27
7.104334198006997,-19.92534811166717,28
6.709648964784385,-18.818384327685656,29
6.709648964784385,-18.818384327685656,30
6.314963731561775,-17.711420543704147,31
5.920278498339164,-16.60445675972264,32
5.525593265116553,-15.49749297574113,33
5.130908031893942,-14.39052919175962,34
4.3415375654487205,-12.176601623796602,35
3.5521670990034986,-9.962674055833585,36
2.7627966325582767,-7.748746487870565,37
0.0,-0.0,38
0.0,0.0,0
6.9183852273601865,4.451074388505106,1
8.89506672089167,5.722809928077994,2
10.87174821442315,6.99454546765088,3
12.848429707954633,8.266281007223768,4
13.836770454720373,8.902148777010211,5
14.825111201486116,9.538016546796657,6
15.813451948251855,10.173884316583099,7
16.801792695017596,10.809752086369542,8
16.801792695017596,10.809752086369542,9
17.79013344178334,11.445619856155988,10
17.79013344178334,11.445619856155988,11
18.77847418854908,12.08148762594243,12
18.77847418854908,12.08148762594243,13
18.77847418854908,12.08148762594243,14
19.76681493531482,12.717355395728875,15
19.76681493531482,12.717355395728875,16
19.76681493531482,12.717355395728875,17
19.76681493531482,12.717355395728875,18
19.76681493531482,12.717355395728875,19
19.76681493531482,12.717355395728875,20
19.76681493531482,12.717355395728875,21
19.76681493531482,12.717355395728875,22
19.76681493531482,12.717355395728875,23
18.77847418854908,12.08148762594243,24
18.77847418854908,12.08148762594243,25
18.77847418854908,12.08148762594243,26
17.79013344178334,11.445619856155988,27
17.79013344178334,11.445619856155988,28
16.801792695017596,10.809752086369542,29
16.801792695017596,10.809752086369542,30
15.813451948251855,10.173884316583099,31
14.825111201486116,9.538016546796657,32
13.836770454720373,8.902148777010211,33
12.848429707954633,8.266281007223768,34
10.87174821442315,6.99454546765088,35
8.89506672089167,5.722809928077994,36
6.9183852273601865,4.451074388505106,37
0.0,0.0,38
-0.0,0.0,0
-5.906539863658154,5.72615963846441,1
-7.5941226818461995,7.3622052494542425,2
-9.281705500034242,8.998250860444074,3
-10.969288318222288,10.634296471433906,4
-11.813079727316309,11.45231927692882,5
-12.656871136410333,12.270342082423738,6
-13.500662545504353,13.088364887918653,7
-14.344453954598375,13.906387693413567,8
-14.344453954598375,13.906387693413567,9
-15.188245363692399,14.724410498908485,10
-15.188245363692399,14.724410498908485,11
-16.03203677278642,15.5424333044034,12
-16.03203677278642,15.5424333044034,13
-16.03203677278642,15.5424333044034,14
-16.875828181880443,16.360456109898315,15
-16.875828181880443,16.360456109898315,16
-16.875828181880443,16.360456109898315,17
-16.875828181880443,16.360456109898315,18
-16.875828181880443,16.360456109898315,19
-16.875828181880443,16.360456109898315,20
-16.875828181880443,16.360456109898315,21
-16.875828181880443,16.360456109898315,22
-16.875828181880443,16.360456109898315,23
-16.03203677278642,15.5424333044034,24
-16.03203677278642,15.5424333044034,25
-16.03203677278642,15.5424333044034,26
-15.188245363692399,14.724410498908485,27
-15.188245363692399,14.724410498908485,28
-14.344453954598375,13.906387693413567,29
-14.344453954598375,13.906387693413567,30
-13.500662545504353,13.088364887918653,31
-12.656871136410333,12.270342082423738,32
-11.813079727316309,11.45231927692882,33
-10.969288318222288,10.634296471433906,34
-9.281705500034242,8.998250860444074,35
-7.5941226818461995,7.3622052494542425,36
-5.906539863658154,5.72615963846441,37
-0.0,0.0,38
-0.0,-0.0,0
-4.234428768537475,-7.053065317317285,1
-5.444265559548183,-9.068226836550796,2
-6.654102350558889,-11.083388355784304,3
-7.863939141569597,-13.098549875017815,4
-8.46885753707495,-14.10613063463457,5
-9.073775932580306,-15.113711394251325,6
-9.678694328085658,-16.12129215386808,7
-10.28361272359101,-17.128872913484834,8
-10.28361272359101,-17.128872913484834,9
-10.888531119096365,-18.13645367310159,10
-10.888531119096365,-18.13645367310159,11
-11.49344951460172,-19.144034432718342,12
-11.49344951460172,-19.144034432718342,13
-11.49344951460172,-19.144034432718342,14
-12.098367910107074,-20.1516151923351,15
-12.098367910107074,-20.1516151923351,16
-12.098367910107074,-20.1516151923351,17
-12.098367910107074,-20.1516151923351,18
-12.098367910107074,-20.1516151923351,19
-12.098367910107074,-20.1516151923351,20
-12.098367910107074,-20.1516151923351,21
-12.098367910107074,-20.1516151923351,22
-12.098367910107074,-20.1516151923351,23
-11.49344951460172,-19.144034432718342,24
-11.49344951460172,-19.144034432718342,25
-11.49344951460172,-19.144034432718342,26
-10.888531119096365,-18.13645367310159,27
-10.888531119096365,-18.13645367310159,28
-10.28361272359101,-17.128872913484834,29
-10.28361272359101,-17.128872913484834,30
-9.678694328085658,-16.12129215386808,31
-9.073775932580306,-15.113711394251325,32
-8.46885753707495,-14.10613063463457,33
-7.863939141569597,-13.098549875017815,34
-6.654102350558889,-11.083388355784304,35
-5.444265559548183,-9.068226836550796,36
-4.234428768537475,-7.053065317317285,37
-0.0,-0.0,38
0.0,-0.0,0
7.830682035738943,-2.5212172102611774,1
10.068019760235785,-3.241564984621514,2
12.305357484732625,-3.96191275898185,3
14.542695209229468,-4.682260533342187,4
15.661364071477886,-5.042434420522355,5
16.780032933726307,-5.402608307702524,6
17.898701795974727,-5.762782194882692,7
19.017370658223147,-6.122956082062859,8
19.017370658223147,-6.122956082062859,9
20.13603952047157,-6.483129969243028,10
20.13603952047157,-6.483129969243028,11
21.25470838271999,-6.843303856423196,12
21.25470838271999,-6.843303856423196,13
21.25470838271999,-6.843303856423196,14
22.373377244968413,-7.203477743603365,15
22.373377244968413,-7.203477743603365,16
22.373377244968413,-7.203477743603365,17
22.373377244968413,-7.203477743603365,18
22.373377244968413,-7.203477743603365,19
22.373377244968413,-7.203477743603365,20
22.373377244968413,-7.203477743603365,21
22.373377244968413,-7.203477743603365,22
22.373377244968413,-7.203477743603365,23
21.25470838271999,-6.843303856423196,24
21.25470838271999,-6.843303856423196,25
21.25470838271999,-6.843303856423196,26
20.13603952047157,-6.483129969243028,27
20.13603952047157,-6.483129969243028,28
19.017370658223147,-6.122956082062859,29
19.017370658223147,-6.122956082062859,30
17.898701795974727,-5.762782194882692,31
16.780032933726307,-5.402608307702524,32
15.661364071477886,-5.042434420522355,33
14.542695209229468,-4.682260533342187,34
12.305357484732625,-3.96191275898185,35
10.068019760235785,-3.241564984621514,36
7.830682035738943,-2.5212172102611774,37
0.0,-0.0,38
0.0,0.0,0
0.6761340457466719,8.19871698001242,1
0.8693152016742925,10.541207545730257,2
1.062496357601913,12.88369811144809,3
1.2556775135295335,15.226188677165926,4
1.3522680914933438,16.39743396002484,5
1.4488586694571541,17.56867924288376,6
1.5454492474209645,18.739924525742676,7
1.6420398253847746,19.911169808601592,8
1.6420398253847746,19.911169808601592,9
1.738630403348585,21.082415091460515,10
1.738630403348585,21.082415091460515,11
1.8352209813123952,22.25366037431943,12
1.8352209813123952,22.25366037431943,13
1.8352209813123952,22.25366037431943,14
1.9318115592762055,23.42490565717835,15
1.9318115592762055,23.42490565717835,16
1.9318115592762055,23.42490565717835,17
1.9318115592762055,23.42490565717835,18
1.9318115592762055,23.42490565717835,19
1.9318115592762055,23.42490565717835,20
1.9318115592762055,23.42490565717835,21
1.9318115592762055,23.42490565717835,22
1.9318115592762055,23.42490565717835,23
1.8352209813123952,22.25366037431943,24
1.8352209813123952,22.25366037431943,25
1.8352209813123952,22.25366037431943,26
1.738630403348585,21.082415091460515,27
1.738630403348585,21.082415091460515,28
1.6420398253847746,19.911169808601592,29
1.6420398253847746,19.911169808601592,30
1.5454492474209645,18.739924525742676,31
1.4488586694571541,17.56867924288376,32
1.3522680914933438,16.39743396002484,33
1.2556775135295335,15.226188677165926,34
1.062496357601913,12.88369811144809,35
0.8693152016742925,10.541207545730257,36
0.6761340457466719,8.19871698001242,37
0.0,0.0,38
-0.0,-0.0,0
-8.13792017871287,-1.2043141330482097,1
-10.46304022977369,-1.5484038853476985,2
-12.788160280834509,-1.8924936376471868,3
-15.113280331895329,-2.2365833899466754,4
-16.27584035742574,-2.4086282660964193,5
-17.43840038295615,-2.580673142246164,6
-18.600960408486557,-2.752718018395908,7
-19.763520434016968,-2.924762894545652,8
-19.763520434016968,-2.924762894545652,9
-20.92608045954738,-3.096807770695397,10
-20.92608045954738,-3.096807770695397,11
-22.08864048507779,-3.268852646845141,12
-22.08864048507779,-3.268852646845141,13
-22.08864048507779,-3.268852646845141,14
-23.2512005106082,-3.4408975229948853,15
-23.2512005106082,-3.4408975229948853,16
-23.2512005106082,-3.4408975229948853,17
-23.2512005106082,-3.4408975229948853,18
-23.2512005106082,-3.4408975229948853,19
-23.2512005106082,-3.4408975229948853,20
-23.2512005106082,-3.4408975229948853,21
-23.2512005106082,-3.4408975229948853,22
-23.2512005106082,-3.4408975229948853,23
-22.08864048507779,-3.268852646845141,24
-22.08864048507779,-3.268852646845141,25
-22.08864048507779,-3.268852646845141,26
-20.92608045954738,-3.096807770695397,27
-20.92608045954738,-3.096807770695397,28
-19.763520434016968,-2.924762894545652,29
-19.763520434016968,-2.924762894545652,30
-18.600960408486557,-2.752718018395908,31
-17.43840038295615,-2.580673142246164,32
-16.27584035742574,-2.4086282660964193,33
-15.113280331895329,-2.2365833899466754,34
-12.788160280834509,-1.8924936376471868,35
-10.46304022977369,-1.5484038853476985,36
-8.13792017871287,-1.2043141330482097,37
-0.0,-0.0,38
0.0,-0.0,0
3.0217709763507012,-7.651471592618396,1
3.885134112450902,-9.83760633336651,2
4.748497248551102,-12.023741074114621,3
5.611860384651303,-14.209875814862736,4
6.0435419527014025,-15.302943185236792,5
6.475223520751503,-16.39601055561085,6
6.9069050888016035,-17.489077925984905,7
7.338586656851703,-18.58214529635896,8
7.338586656851703,-18.58214529635896,9
7.770268224901804,-19.67521266673302,10
7.770268224901804,-19.67521266673302,11
8.201949792951904,-20.768280037107075,12
8.201949792951904,-20.768280037107075,13
8.201949792951904,-20.768280037107075,14
8.633631361002005,-21.861347407481134,15
8.633631361002005,-21.861347407481134,16
8.633631361002005,-21.861347407481134,17
8.633631361002005,-21.861347407481134,18
8.633631361002005,-21.861347407481134,19
8.633631361002005,-21.861347407481134,20
8.633631361002005,-21.861347407481134,21
8.633631361002005,-21.861347407481134,22
8.633631361002005,-21.861347407481134,23
8.201949792951904,-20.768280037107075,24
8.201949792951904,-20.768280037107075,25
8.201949792951904,-20.768280037107075,26
7.770268224901804,-19.67521266673302,27
7.770268224901804,-19.67521266673302,28
7.338586656851703,-18.58214529635896,29
7.338586656851703,-18.58214529635896,30
6.9069050888016035,-17.489077925984905,31
6.475223520751503,-16.39601055561085,32
6.0435419527014025,-15.302943185236792,33
5.611860384651303,-14.209875814862736,34
4.748497248551102,-12.023741074114621,35
3.885134112450902,-9.83760633336651,36
3.0217709763507012,-7.651471592618396,37
0.0,-0.0,38
0.0,0.0,0
6.7648147876935285,4.681174879703248,1
8.697619012748824,6.01865341676132,2
10.630423237804116,7.35613195381939,3
12.56322746285941,8.693610490877461,4
13.529629575387057,9.362349759406497,5
14.496031687914705,10.031089027935533,6
15.462433800442351,10.699828296464569,7
16.428835912969998,11.368567564993603,8
16.428835912969998,11.368567564993603,9
17.395238025497648,12.03730683352264,10
17.395238025497648,12.03730683352264,11
18.36164013802529,12.706046102051674,12
18.36164013802529,12.706046102051674,13
18.36164013802529,12.706046102051674,14
19.32804225055294,13.37478537058071,15
19.32804225055294,13.37478537058071,16
19.32804225055294,13.37478537058071,17
19.32804225055294,13.37478537058071,18
19.32804225055294,13.37478537058071,19
19.32804225055294,13.37478537058071,20
19.32804225055294,13.37478537058071,21
19.32804225055294,13.37478537058071,22
19.32804225055294,13.37478537058071,23
18.36164013802529,12.706046102051674,24
18.36164013802529,12.706046102051674,25
18.36164013802529,12.706046102051674,26
17.395238025497648,12.03730683352264,27
17.395238025497648,12.03730683352264,28
16.428835912969998,11.368567564993603,29
16.428835912969998,11.368567564993603,30
15.462433800442351,10.699828296464569,31
14.496031687914705,10.031089027935533,32
13.529629575387057,9.362349759406497,33
12.56322746285941,8.693610490877461,34
10.630423237804116,7.35613195381939,35
8.697619012748824,6.01865341676132,36
6.7648147876935285,4.681174879703248,37
0.0,0.0,38
-0.0,0.0,0
-6.095731156300176,5.52432611603199,1
-7.8373686295287985,7.102705006326844,2
-9.57900610275742,8.681083896621697,3
-11.320643575986042,10.259462786916552,4
-12.191462312600352,11.04865223206398,5
-13.062281049214665,11.837841677211406,6
-13.933099785828974,12.627031122358833,7
-14.803918522443285,13.41622056750626,8
-14.803918522443285,13.41622056750626,9
-15.674737259057597,14.205410012653688,10
-15.674737259057597,14.205410012653688,11
-16.545555995671908,14.994599457801113,12
-16.545555995671908,14.994599457801113,13
-16.545555995671908,14.994599457801113,14
-17.41637473228622,15.783788902948542,15
-17.41637473228622,15.783788902948542,16
-17.41637473228622,15.783788902948542,17
-17.41637473228622,15.783788902948542,18
-17.41637473228622,15.783788902948542,19
-17.41637473228622,15.783788902948542,20
-17.41637473228622,15.783788902948542,21
-17.41637473228622,15.783788902948542,22
-17.41637473228622,15.783788902948542,23
-16.545555995671908,14.994599457801113,24
-16.545555995671908,14.994599457801113,25
-16.545555995671908,14.994599457801113,26
-15.674737259057597,14.205410012653688,27
-15.674737259057597,14.205410012653688,28
-14.803918522443285,13.41622056750626,29
-14.803918522443285,13.41622056750626,30
-13.933099785828974,12.627031122358833,31
-13.062281049214665,11.837841677211406,32
-12.191462312600352,11.04865223206398,33
-11.320643575986042,10.259462786916552,34
-9.57900610275742,8.681083896621697,35
-7.8373686295287985,7.102705006326844,36
-6.095731156300176,5.52432611603199,37
-0.0,0.0,38
-0.0,-0.0,0
-3.994889012898899,-7.191451810363566,1
-5.136285873727156,-9.2461523276103,2
-6.2776827345554125,-11.300852844857033,3
-7.41907959538367,-13.355553362103768,4
-7.989778025797798,-14.382903620727133,5
-8.560476456211928,-15.4102538793505,6
-9.131174886626056,-16.437604137973867,7
-9.701873317040183,-17.464954396597232,8
-9.701873317040183,-17.464954396597232,9
-10.272571747454313,-18.4923046552206,10
-10.272571747454313,-18.4923046552206,11
-10.84327017786844,-19.519654913843965,12
-10.84327017786844,-19.519654913843965,13
-10.84327017786844,-19.519654913843965,14
-11.41396860828257,-20.547005172467337,15
-11.41396860828257,-20.547005172467337,16
-11.41396860828257,-20.547005172467337,17
-11.41396860828257,-20.547005172467337,18
-11.41396860828257,-20.547005172467337,19
-11.41396860828257,-20.547005172467337,20
-11.41396860828257,-20.547005172467337,21
-11.41396860828257,-20.547005172467337,22
-11.41396860828257,-20.547005172467337,23
-10.84327017786844,-19.519654913843965,24
-10.84327017786844,-19.519654913843965,25
-10.84327017786844,-19.519654913843965,26
-10.272571747454313,-18.4923046552206,27
-10.272571747454313,-18.4923046552206,28
-9.701873317040183,-17.464954396597232,29
-9.701873317040183,-17.464954396597232,30
-9.131174886626056,-16.437604137973867,31
-8.560476456211928,-15.4102538793505,32
-7.989778025797798,-14.382903620727133,33
-7.41907959538367,-13.355553362103768,34
-6.2776827345554125,-11.300852844857033,35
-5.136285873727156,-9.2461523276103,36
-3.994889012898899,-7.191451810363566,37
-0.0,-0.0,38
0.0,-0.0,0
7.911025459894321,-2.2565002856338396,1
10.171318448435557,-2.901214652957794,2
12.431611436976791,-3.545929020281748,3
14.691904425518027,-4.190643387605703,4
15.822050919788643,-4.513000571267679,5
16.952197414059263,-4.835357754929657,6
18.08234390832988,-5.157714938591633,7
19.212490402600494,-5.480072122253611,8
19.212490402600494,-5.480072122253611,9
20.342636896871113,-5.802429305915588,10
20.342636896871113,-5.802429305915588,11
21.47278339114173,-6.1247864895775646,12
21.47278339114173,-6.1247864895775646,13
21.47278339114173,-6.1247864895775646,14
22.602929885412347,-6.447143673239543,15
22.602929885412347,-6.447143673239543,16
22.602929885412347,-6.447143673239543,17
22.602929885412347,-6.447143673239543,18
22.602929885412347,-6.447143673239543,19
22.602929885412347,-6.447143673239543,20
22.602929885412347,-6.447143673239543,21
22.602929885412347,-6.447143673239543,22
22.602929885412347,-6.447143673239543,23
21.47278339114173,-6.1247864895775646,24
21.47278339114173,-6.1247864895775646,25
21.47278339114173,-6.1247864895775646,26
20.342636896871113,-5.802429305915588,27
20.342636896871113,-5.802429305915588,28
19.212490402600494,-5.480072122253611,29
19.212490402600494,-5.480072122253611,30
18.08234390832988,-5.157714938591633,31
16.952197414059263,-4.835357754929657,32
15.822050919788643,-4.513000571267679,33
14.691904425518027,-4.190643387605703,34
12.431611436976791,-3.545929020281748,35
10.171318448435557,-2.901214652957794,36
7.911025459894321,-2.2565002856338396,37
0.0,-0.0,38
0.0,0.0,0
0.4000859015822933,8.21681499350672,1
0.5143961591772342,10.564476420222926,2
0.6287064167721752,12.912137846939132,3
0.7430166743671162,15.259799273655338,4
0.8001718031645866,16.43362998701344,5
0.8573269319620571,17.607460700371544,6
0.9144820607595275,18.781291413729647,7
0.971637189556998,19.955122127087748,8
0.971637189556998,19.955122127087748,9
1.0287923183544685,21.12895284044585,10
1.0287923183544685,21.12895284044585,11
1.085947447151939,22.302783553803955,12
1.085947447151939,22.302783553803955,13
1.085947447151939,22.302783553803955,14
1.1431025759494096,23.47661426716206,15
1.1431025759494096,23.47661426716206,16
1.1431025759494096,23.47661426716206,17
1.1431025759494096,23.47661426716206,18
1.1431025759494096,23.47661426716206,19
1.1431025759494096,23.47661426716206,20
1.1431025759494096,23.47661426716206,21
1.1431025759494096,23.47661426716206,22
1.1431025759494096,23.47661426716206,23
1.085947447151939,22.302783553803955,24
1.085947447151939,22.302783553803955,25
1.085947447151939,22.302783553803955,26
1.0287923183544685,21.12895284044585,27
1.0287923183544685,21.12895284044585,28
0.971637189556998,19.955122127087748,29
0.971637189556998,19.955122127087748,30
0.9144820607595275,18.781291413729647,31
0.8573269319620571,17.607460700371544,32
0.8001718031645866,16.43362998701344,33
0.7430166743671162,15.259799273655338,34
0.6287064167721752,12.912137846939132,35
0.5143961591772342,10.564476420222926,36
0.4000859015822933,8.21681499350672,37
0.0,0.0,38
-0.0,-0.0,0
-8.092826169687605,-1.4772548708267002,1
-10.405062218169778,-1.8993276910629004,2
-12.71729826665195,-2.3214005112991005,3
-15.029534315134125,-2.743473331535301,4
-16.18565233937521,-2.9545097416534003,5
-17.3417703636163,-3.165546151771501,6
-18.497888387857383,-3.3765825618896006,7
-19.654006412098468,-3.5876189720077005,8
-19.654006412098468,-3.5876189720077005,9
-20.810124436339557,-3.798655382125801,10
-20.810124436339557,-3.798655382125801,11
-21.96624246058064,-4.009691792243901,12
-21.96624246058064,-4.009691792243901,13
-21.96624246058064,-4.009691792243901,14
-23.12236048482173,-4.220728202362001,15
-23.12236048482173,-4.220728202362001,16
-23.12236048482173,-4.220728202362001,17
-23.12236048482173,-4.220728202362001,18
-23.12236048482173,-4.220728202362001,19
-23.12236048482173,-4.220728202362001,20
-23.12236048482173,-4.220728202362001,21
-23.12236048482173,-4.220728202362001,22
-23.12236048482173,-4.220728202362001,23
-21.96624246058064,-4.009691792243901,24
-21.96624246058064,-4.009691792243901,25
-21.96624246058064,-4.009691792243901,26
-20.810124436339557,-3.798655382125801,27
-20.810124436339557,-3.798655382125801,28
-19.654006412098468,-3.5876189720077005,29
-19.654006412098468,-3.5876189720077005,30
-18.497888387857383,-3.3765825618896006,31
-17.3417703636163,-3.165546151771501,32
-16.18565233937521,-2.9545097416534003,33
-15.029534315134125,-2.743473331535301,34
-12.71729826665195,-2.3214005112991005,35
-10.405062218169778,-1.8993276910629004,36
-8.092826169687605,-1.4772548708267002,37
-0.0,-0.0,38
0.0,-0.0,0
3.277328213897784,-7.545544191411997,1
4.213707703582865,-9.701413960386853,2
5.150087193267947,-11.85728372936171,3
6.086466682953028,-14.013153498336566,4
6.554656427795568,-15.091088382823994,5
7.0228461726381095,-16.169023267311424,6
7.49103591748065,-17.24695815179885,7
7.959225662323189,-18.324893036286277,8
7.959225662323189,-18.324893036286277,9
8.42741540716573,-19.402827920773706,10
8.42741540716573,-19.402827920773706,11
8.89560515200827,-20.480762805261136,12
8.89560515200827,-20.480762805261136,13
8.89560515200827,-20.480762805261136,14
9.363794896850813,-21.558697689748566,15
9.363794896850813,-21.558697689748566,16
9.363794896850813,-21.558697689748566,17
9.363794896850813,-21.558697689748566,18
9.363794896850813,-21.558697689748566,19
9.363794896850813,-21.558697689748566,20
9.363794896850813,-21.558697689748566,21
9.363794896850813,-21.558697689748566,22
9.363794896850813,-21.558697689748566,23
8.89560515200827,-20.480762805261136,24
8.89560515200827,-20.480762805261136,25
8.89560515200827,-20.480762805261136,26
8.42741540716573,-19.402827920773706,27
8.42741540716573,-19.402827920773706,28
7.959225662323189,-18.324893036286277,29
7.959225662323189,-18.324893036286277,30
7.49103591748065,-17.24695815179885,31
7.0228461726381095,-16.169023267311424,32
6.554656427795568,-15.091088382823994,33
6.086466682953028,-14.013153498336566,34
5.150087193267947,-11.85728372936171,35
4.213707703582865,-9.701413960386853,36
3.277328213897784,-7.545544191411997,37
0.0,-0.0,38
0.0,0.0,0
6.6035944992989135,4.90598176260276,1
8.49033578481289,6.30769083763212,2
10.377077070326864,7.70939991266148,3
12.263818355840842,9.11110898769084,4
13.207188998597827,9.81196352520552,5
14.150559641354818,10.512818062720202,6
15.093930284111805,11.21367260023488,7
16.03730092686879,11.914527137749559,8
16.03730092686879,11.914527137749559,9
16.98067156962578,12.61538167526424,10
16.98067156962578,12.61538167526424,11
17.924042212382766,13.31623621277892,12
17.924042212382766,13.31623621277892,13
17.924042212382766,13.31623621277892,14
18.867412855139758,14.017090750293601,15
18.867412855139758,14.017090750293601,16
18.867412855139758,14.017090750293601,17
18.867412855139758,14.017090750293601,18
18.867412855139758,14.017090750293601,19
18.867412855139758,14.017090750293601,20
18.867412855139758,14.017090750293601,21
18.867412855139758,14.017090750293601,22
18.867412855139758,14.017090750293601,23
17.924042212382766,13.31623621277892,24
17.924042212382766,13.31623621277892,25
17.924042212382766,13.31623621277892,26
16.98067156962578,12.61538167526424,27
16.98067156962578,12.61538167526424,28
16.03730092686879,11.914527137749559,29
16.03730092686879,11.914527137749559,30
15.093930284111805,11.21367260023488,31
14.150559641354818,10.512818062720202,32
13.207188998597827,9.81196352520552,33
12.263818355840842,9.11110898769084,34
10.377077070326864,7.70939991266148,35
8.49033578481289,6.30769083763212,36
6.6035944992989135,4.90598176260276,37
0.0,0.0,38
-0.0,0.0,0
-6.278029219386852,5.316245525433027,1
-8.071751853497382,6.835172818413892,2
-9.86547448760791,8.354100111394757,3
-11.65919712171844,9.873027404375623,4
-12.556058438773704,10.632491050866054,5
-13.45291975582897,11.391954697356487,6
-14.349781072884234,12.15141834384692,7
-15.246642389939497,12.910881990337352,8
-15.246642389939497,12.910881990337352,9
-16.143503706994764,13.670345636827784,10
-16.143503706994764,13.670345636827784,11
-17.040365024050026,14.429809283318217,12
-17.040365024050026,14.429809283318217,13
-17.040365024050026,14.429809283318217,14
-17.937226341105294,15.18927292980865,15
-17.937226341105294,15.18927292980865,16
-17.937226341105294,15.18927292980865,17
-17.937226341105294,15.18927292980865,18
-17.937226341105294,15.18927292980865,19
-17.937226341105294,15.18927292980865,20
-17.937226341105294,15.18927292980865,21
-17.937226341105294,15.18927292980865,22
-17.937226341105294,15.18927292980865,23
-17.040365024050026,14.429809283318217,24
-17.040365024050026,14.429809283318217,25
-17.040365024050026,14.429809283318217,26
-16.143503706994764,13.670345636827784,27
-16.143503706994764,13.670345636827784,28
-15.246642389939497,12.910881990337352,29
-15.246642389939497,12.910881990337352,30
-14.349781072884234,12.15141834384692,31
-13.45291975582897,11.391954697356487,32
-12.556058438773704,10.632491050866054,33
-11.65919712171844,9.873027404375623,34
-9.86547448760791,8.354100111394757,35
-8.071751853497382,6.835172818413892,36
-6.278029219386852,5.316245525433027,37
-0.0,0.0,38
-0.0,-0.0,0
-3.7508317209207855,-7.321706001165041,1
-4.822497926898153,-9.413622001497911,2
-5.89416413287552,-11.505538001830779,3
-6.9658303388528875,-13.597454002163648,4
-7.501663441841571,-14.643412002330082,5
-8.037496544830256,-15.689370002496519,6
-8.57332964781894,-16.73532800266295,7
-9.109162750807622,-17.781286002829386,8
-9.109162750807622,-17.781286002829386,9
-9.644995853796306,-18.827244002995823,10
-9.644995853796306,-18.827244002995823,11
-10.180828956784989,-19.873202003162255,12
-10.180828956784989,-19.873202003162255,13
-10.180828956784989,-19.873202003162255,14
-10.716662059773673,-20.91916000332869,15
-10.716662059773673,-20.91916000332869,16
-10.716662059773673,-20.91916000332869,17
-10.716662059773673,-20.91916000332869,18
-10.716662059773673,-20.91916000332869,19
-10.716662059773673,-20.91916000332869,20
-10.716662059773673,-20.91916000332869,21
-10.716662059773673,-20.91916000332869,22
-10.716662059773673,-20.91916000332869,23
-10.180828956784989,-19.873202003162255,24
-10.180828956784989,-19.873202003162255,25
-10.180828956784989,-19.873202003162255,26
-9.644995853796306,-18.827244002995823,27
-9.644995853796306,-18.827244002995823,28
-9.109162750807622,-17.781286002829386,29
-9.109162750807622,-17.781286002829386,30
-8.57332964781894,-16.73532800266295,31
-8.037496544830256,-15.689370002496519,32
-7.501663441841571,-14.643412002330082,33
-6.9658303388528875,-13.597454002163648,34
-5.89416413287552,-11.505538001830779,35
-4.822497926898153,-9.413622001497911,36
-3.7508317209207855,-7.321706001165041,37
-0.0,-0.0,38
0.0,-0.0,0
7.9824228670557416,-1.9892316450497565,1
10.263115114785954,-2.5575835436354013,2
12.543807362516166,-3.1259354422210457,3
14.824499610246377,-3.694287340806691,4
15.964845734111483,-3.978463290099513,5
17.105191857976592,-4.262639239392335,6
18.245537981841697,-4.546815188685158,7
19.3858841057068,-4.83099113797798,8
19.3858841057068,-4.83099113797798,9
20.526230229571908,-5.115167087270803,10
20.526230229571908,-5.115167087270803,11
21.666576353437012,-5.399343036563625,12
21.666576353437012,-5.399343036563625,13
21.666576353437012,-5.399343036563625,14
22.80692247730212,-5.683518985856447,15
22.80692247730212,-5.683518985856447,16
22.80692247730212,-5.683518985856447,17
22.80692247730212,-5.683518985856447,18
22.80692247730212,-5.683518985856447,19
22.80692247730212,-5.683518985856447,20
22.80692247730212,-5.683518985856447,21
22.80692247730212,-5.683518985856447,22
22.80692247730212,-5.683518985856447,23
21.666576353437012,-5.399343036563625,24
21.666576353437012,-5.399343036563625,25
21.666576353437012,-5.399343036563625,26
20.526230229571908,-5.115167087270803,27
20.526230229571908,-5.115167087270803,28
19.3858841057068,-4.83099113797798,29
19.3858841057068,-4.83099113797798,30
18.245537981841697,-4.546815188685158,31
17.105191857976592,-4.262639239392335,32
15.964845734111483,-3.978463290099513,33
14.824499610246377,-3.694287340806691,34
12.543807362516166,-3.1259354422210457,35
10.263115114785954,-2.5575835436354013,36
7.9824228670557416,-1.9892316450497565,37
0.0,-0.0,38
0.0,0.0,0
0.12358532867871846,8.225621194335242,1
0.15889542258692374,10.575798678431026,2
0.19420551649512902,12.925976162526808,3
0.2295156104033343,15.276153646622594,4
0.24717065735743693,16.451242388670483,5
0.26482570431153957,17.626331130718377,6
0.2824807512656422,18.801419872766267,7
0.30013579821974484,19.976508614814158,8
0.30013579821974484,19.976508614814158,9
0.3177908451738475,21.15159735686205,10
0.3177908451738475,21.15159735686205,11
0.3354458921279501,22.326686098909942,12
0.3354458921279501,22.326686098909942,13
0.3354458921279501,22.326686098909942,14
0.3531009390820528,23.501774840957836,15
0.3531009390820528,23.501774840957836,16
0.3531009390820528,23.501774840957836,17
0.3531009390820528,23.501774840957836,18
0.3531009390820528,23.501774840957836,19
0.3531009390820528,23.501774840957836,20
0.3531009390820528,23.501774840957836,21
0.3531009390820528,23.501774840957836,22
0.3531009390820528,23.501774840957836,23
0.3354458921279501,22.326686098909942,24
0.3354458921279501,22.326686098909942,25
0.3354458921279501,22.326686098909942,26
0.3177908451738475,21.15159735686205,27
0.3177908451738475,21.15159735686205,28
0.30013579821974484,19.976508614814158,29
0.30013579821974484,19.976508614814158,30
0.2824807512656422,18.801419872766267,31
0.26482570431153957,17.626331130718377,32
0.24717065735743693,16.451242388670483,33
0.2295156104033343,15.276153646622594,34
0.19420551649512902,12.925976162526808,35
0.15889542258692374,10.575798678431026,36
0.12358532867871846,8.225621194335242,37
0.0,0.0,38
-0.0,-0.0,0
-8.038580558153964,-1.7485250859598378,1
-10.33531786048367,-2.248103681948363,2
-12.632055162813373,-2.747682277936888,3
-14.928792465143077,-3.247260873925413,4
-16.077161116307927,-3.4970501719196756,5
-17.225529767472782,-3.746839469913939,6
-18.373898418637634,-3.996628767908201,7
-19.522267069802485,-4.246418065902463,8
-19.522267069802485,-4.246418065902463,9
-20.67063572096734,-4.496207363896726,10
-20.67063572096734,-4.496207363896726,11
-21.819004372132188,-4.745996661890989,12
-21.819004372132188,-4.745996661890989,13
-21.819004372132188,-4.745996661890989,14
-22.967373023297043,-4.995785959885252,15
-22.967373023297043,-4.995785959885252,16
-22.967373023297043,-4.995785959885252,17
-22.967373023297043,-4.995785959885252,18
-22.967373023297043,-4.995785959885252,19
-22.967373023297043,-4.995785959885252,20
-22.967373023297043,-4.995785959885252,21
-22.967373023297043,-4.995785959885252,22
-22.967373023297043,-4.995785959885252,23
-21.819004372132188,-4.745996661890989,24
-21.819004372132188,-4.745996661890989,25
-21.819004372132188,-4.745996661890989,26
-20.67063572096734,-4.496207363896726,27
-20.67063572096734,-4.496207363896726,28
-19.522267069802485,-4.246418065902463,29
-19.522267069802485,-4.246418065902463,30
-18.373898418637634,-3.996628767908201,31
-17.225529767472782,-3.746839469913939,32
-16.077161116307927,-3.4970501719196756,33
-14.928792465143077,-3.247260873925413,34
-12.632055162813373,-2.747682277936888,35
-10.33531786048367,-2.248103681948363,36
-8.038580558153964,-1.7485250859598378,37
-0.0,-0.0,38
0.0,-0.0,0
3.5291793536648703,-7.431084070028233,1
4.537516311854834,-9.554250947179158,2
5.5458532700447964,-11.67741782433008,3
6.55419022823476,-13.800584701481005,4
7.058358707329741,-14.862168140056466,5
7.562527186424723,-15.92375157863193,6
8.066695665519704,-16.98533501720739,7
8.570864144614685,-18.04691845578285,8
8.570864144614685,-18.04691845578285,9
9.075032623709667,-19.108501894358316,10
9.075032623709667,-19.108501894358316,11
9.57920110280465,-20.170085332933777,12
9.57920110280465,-20.170085332933777,13
9.57920110280465,-20.170085332933777,14
10.083369581899632,-21.23166877150924,15
10.083369581899632,-21.23166877150924,16
10.083369581899632,-21.23166877150924,17
10.083369581899632,-21.23166877150924,18
10.083369581899632,-21.23166877150924,19
10.083369581899632,-21.23166877150924,20
10.083369581899632,-21.23166877150924,21
10.083369581899632,-21.23166877150924,22
10.083369581899632,-21.23166877150924,23
9.57920110280465,-20.170085332933777,24
9.57920110280465,-20.170085332933777,25
9.57920110280465,-20.170085332933777,26
9.075032623709667,-19.108501894358316,27
9.075032623709667,-19.108501894358316,28
8.570864144614685,-18.04691845578285,29
8.570864144614685,-18.04691845578285,30
8.066695665519704,-16.98533501720739,31
7.562527186424723,-15.92375157863193,32
7.058358707329741,-14.862168140056466,33
6.55419022823476,-13.800584701481005,34
5.5458532700447964,-11.67741782433008,35
4.537516311854834,-9.554250947179158,36
3.5291793536648703,-7.431084070028233,37
0.0,-0.0,38
0.0,0.0,0
6.434906674753524,5.12524081906151,1
8.273451438968818,6.58959533879337,2
10.11199620318411,8.05394985852523,3
11.950540967399403,9.51830437825709,4
12.869813349507048,10.25048163812302,5
13.789085731614698,10.982658897988951,6
14.708358113722342,11.714836157854881,7
15.627630495829987,12.44701341772081,8
15.627630495829987,12.44701341772081,9
16.546902877937637,13.17919067758674,10
16.546902877937637,13.17919067758674,11
17.466175260045283,13.91136793745267,12
17.466175260045283,13.91136793745267,13
17.466175260045283,13.91136793745267,14
18.38544764215293,14.643545197318602,15
18.38544764215293,14.643545197318602,16
18.38544764215293,14.643545197318602,17
18.38544764215293,14.643545197318602,18
18.38544764215293,14.643545197318602,19
18.38544764215293,14.643545197318602,20
18.38544764215293,14.643545197318602,21
18.38544764215293,14.643545197318602,22
18.38544764215293,14.643545197318602,23
17.466175260045283,13.91136793745267,24
17.466175260045283,13.91136793745267,25
17.466175260045283,13.91136793745267,26
16.546902877937637,13.17919067758674,27
16.546902877937637,13.17919067758674,28
15.627630495829987,12.44701341772081,29
15.627630495829987,12.44701341772081,30
14.708358113722342,11.714836157854881,31
13.789085731614698,10.982658897988951,32
12.869813349507048,10.25048163812302,33
11.950540967399403,9.51830437825709,34
10.11199620318411,8.05394985852523,35
8.273451438968818,6.58959533879337,36
6.434906674753524,5.12524081906151,37
0.0,0.0,38
-0.0,0.0,0
-6.453227904981858,5.102153170233643,1
-8.297007306405247,6.559911218871827,2
-10.140786707828635,8.01766926751001,3
-11.984566109252023,9.475427316148195,4
-12.906455809963717,10.204306340467285,5
-13.828345510675414,10.933185364786379,6
-14.750235211387107,11.66206438910547,7
-15.6721249120988,12.390943413424562,8
-15.6721249120988,12.390943413424562,9
-16.594014612810494,13.119822437743654,10
-16.594014612810494,13.119822437743654,11
-17.51590431352219,13.848701462062746,12
-17.51590431352219,13.848701462062746,13
-17.51590431352219,13.848701462062746,14
-18.437794014233884,14.577580486381839,15
-18.437794014233884,14.577580486381839,16
-18.437794014233884,14.577580486381839,17
-18.437794014233884,14.577580486381839,18
-18.437794014233884,14.577580486381839,19
-18.437794014233884,14.577580486381839,20
-18.437794014233884,14.577580486381839,21
-18.437794014233884,14.577580486381839,22
-18.437794014233884,14.577580486381839,23
-17.51590431352219,13.848701462062746,24
-17.51590431352219,13.848701462062746,25
-17.51590431352219,13.848701462062746,26
-16.594014612810494,13.119822437743654,27
-16.594014612810494,13.119822437743654,28
-15.6721249120988,12.390943413424562,29
-15.6721249120988,12.390943413424562,30
-14.750235211387107,11.66206438910547,31
-13.828345510675414,10.933185364786379,32
-12.906455809963717,10.204306340467285,33
-11.984566109252023,9.475427316148195,34
-10.140786707828635,8.01766926751001,35
-8.297007306405247,6.559911218871827,36
-6.453227904981858,5.102153170233643,37
-0.0,0.0,38
-0.0,-0.0,0
-3.5025328796660733,-7.44368059450564,1
-4.503256559570666,-9.57044647865011,2
-5.503980239475258,-11.697212362794577,3
-6.504703919379851,-13.823978246939047,4
-7.005065759332147,-14.88736118901128,5
-7.5054275992844435,-15.950744131083516,6
-8.00578943923674,-17.01412707315575,7
-8.506151279189034,-18.077510015227983,8
-8.506151279189034,-18.077510015227983,9
-9.006513119141331,-19.14089295730022,10
-9.006513119141331,-19.14089295730022,11
-9.506874959093627,-20.20427589937245,12
-9.506874959093627,-20.20427589937245,13
-9.506874959093627,-20.20427589937245,14
-10.007236799045925,-21.26765884144469,15
-10.007236799045925,-21.26765884144469,16
-10.007236799045925,-21.26765884144469,17
-10.007236799045925,-21.26765884144469,18
-10.007236799045925,-21.26765884144469,19
-10.007236799045925,-21.26765884144469,20
-10.007236799045925,-21.26765884144469,21
-10.007236799045925,-21.26765884144469,22
-10.007236799045925,-21.26765884144469,23
-9.506874959093627,-20.20427589937245,24
-9.506874959093627,-20.20427589937245,25
-9.506874959093627,-20.20427589937245,26
-9.006513119141331,-19.14089295730022,27
-9.006513119141331,-19.14089295730022,28
-8.506151279189034,-18.077510015227983,29
-8.506151279189034,-18.077510015227983,30
-8.00578943923674,-17.01412707315575,31
-7.5054275992844435,-15.950744131083516,32
-7.005065759332147,-14.88736118901128,33
-6.504703919379851,-13.823978246939047,34
-5.503980239475258,-11.697212362794577,35
-4.503256559570666,-9.57044647865011,36
-3.5025328796660733,-7.44368059450564,37
-0.0,-0.0,38
0.0,-0.0,0
8.044793518964925,-1.7197135236375027,1
10.343305952954903,-2.2110602446767893,2
12.64181838694488,-2.702406965716076,3
14.94033082093486,-3.1937536867553624,4
16.08958703792985,-3.4394270472750055,5
17.23884325492484,-3.685100407794649,6
18.388099471919826,-3.930773768314292,7
19.537355688914815,-4.176447128833935,8
19.537355688914815,-4.176447128833935,9
20.686611905909807,-4.422120489353579,10
20.686611905909807,-4.422120489353579,11
21.835868122904795,-4.667793849873222,12
21.835868122904795,-4.667793849873222,13
21.835868122904795,-4.667793849873222,14
22.985124339899787,-4.913467210392866,15
22.985124339899787,-4.913467210392866,16
22.985124339899787,-4.913467210392866,17
22.985124339899787,-4.913467210392866,18
22.985124339899787,-4.913467210392866,19
22.985124339899787,-4.913467210392866,20
22.985124339899787,-4.913467210392866,21
22.985124339899787,-4.913467210392866,22
22.985124339899787,-4.913467210392866,23
21.835868122904795,-4.667793849873222,24
21.835868122904795,-4.667793849873222,25
21.835868122904795,-4.667793849873222,26
20.686611905909807,-4.422120489353579,27
20.686611905909807,-4.422120489353579,28
19.537355688914815,-4.176447128833935,29
19.537355688914815,-4.176447128833935,30
18.388099471919826,-3.930773768314292,31
17.23884325492484,-3.685100407794649,32
16.08958703792985,-3.4394270472750055,33
14.94033082093486,-3.1937536867553624,34
12.64181838694488,-2.702406965716076,35
10.343305952954903,-2.2110602446767893,36
8.044793518964925,-1.7197135236375027,37
0.0,-0.0,38
-0.0,0.0,0
-0.1530549980982524,8.225125624190726,1
-0.19678499755489595,10.57516151681665,2
-0.24051499701153947,12.925197409442571,3
-0.284244996468183,15.275233302068495,4
-0.3061099961965048,16.450251248381452,5
-0.3279749959248266,17.625269194694418,6
-0.34983999565314833,18.800287141007377,7
-0.37170499538147006,19.975305087320336,8
-0.37170499538147006,19.975305087320336,9
-0.3935699951097919,21.1503230336333,10
-0.3935699951097919,21.1503230336333,11
-0.41543499483811364,22.325340979946258,12
-0.41543499483811364,22.325340979946258,13
-0.41543499483811364,22.325340979946258,14
-0.4372999945664355,23.500358926259224,15
-0.4372999945664355,23.500358926259224,16
-0.4372999945664355,23.500358926259224,17
-0.4372999945664355,23.500358926259224,18
-0.4372999945664355,23.500358926259224,19
-0.4372999945664355,23.500358926259224,20
-0.4372999945664355,23.500358926259224,21
-0.4372999945664355,23.500358926259224,22
-0.4372999945664355,23.500358926259224,23
-0.41543499483811364,22.325340979946258,24
-0.41543499483811364,22.325340979946258,25
-0.41543499483811364,22.325340979946258,26
-0.3935699951097919,21.1503230336333,27
-0.3935699951097919,21.1503230336333,28
-0.37170499538147006,19.975305087320336,29
-0.37170499538147006,19.975305087320336,30
-0.34983999565314833,18.800287141007377,31
-0.3279749959248266,17.625269194694418,32
-0.3061099961965048,16.450251248381452,33
-0.284244996468183,15.275233302068495,34
-0.24051499701153947,12.925197409442571,35
-0.19678499755489595,10.57516151681665,36
-0.1530549980982524,8.225125624190726,37
-0.0,0.0,38
-0.0,-0.0,0
-7.975244686622483,-2.0178180182220586,1
-10.25388602565748,-2.59433745199979,2
-12.532527364692475,-3.170856885777521,3
-14.811168703727471,-3.747376319555252,4
-15.950489373244967,-4.035636036444117,5
-17.089810042762466,-4.323895753332984,6
-18.229130712279964,-4.612155470221849,7
-19.36845138179746,-4.900415187110714,8
-19.36845138179746,-4.900415187110714,9
-20.50777205131496,-5.18867490399958,10
-20.50777205131496,-5.18867490399958,11
-21.647092720832458,-5.4769346208884455,12
-21.647092720832458,-5.4769346208884455,13
-21.647092720832458,-5.4769346208884455,14
-22.786413390349956,-5.765194337777311,15
-22.786413390349956,-5.765194337777311,16
-22.786413390349956,-5.765194337777311,17
-22.786413390349956,-5.765194337777311,18
-22.786413390349956,-5.765194337777311,19
-22.786413390349956,-5.765194337777311,20
-22.786413390349956,-5.765194337777311,21
-22.786413390349956,-5.765194337777311,22
-22.786413390349956,-5.765194337777311,23
-21.647092720832458,-5.4769346208884455,24
-21.647092720832458,-5.4769346208884455,25
-21.647092720832458,-5.4769346208884455,26
-20.50777205131496,-5.18867490399958,27
-20.50777205131496,-5.18867490399958,28
-19.36845138179746,-4.900415187110714,29
-19.36845138179746,-4.900415187110714,30
-18.229130712279964,-4.612155470221849,31
-17.089810042762466,-4.323895753332984,32
-15.950489373244967,-4.035636036444117,33
-14.811168703727471,-3.747376319555252,34
-12.532527364692475,-3.170856885777521,35
-10.25388602565748,-2.59433745199979,36
-7.975244686622483,-2.0178180182220586,37
-0.0,-0.0,38
0.0,-0.0,0
3.777039595079511,-7.308220663291672,1
4.856193765102229,-9.396283709946436,2
5.935347935124946,-11.484346756601198,3
7.014502105147664,-13.572409803255962,4
7.554079190159022,-14.616441326583343,5
8.093656275170382,-15.660472849910727,6
8.63323336018174,-16.704504373238105,7
9.172810445193099,-17.74853589656549,8
9.172810445193099,-17.74853589656549,9
9.712387530204458,-18.792567419892872,10
9.712387530204458,-18.792567419892872,11
10.251964615215815,-19.836598943220253,12
10.251964615215815,-19.836598943220253,13
10.251964615215815,-19.836598943220253,14
10.791541700227176,-20.880630466547636,15
10.791541700227176,-20.880630466547636,16
10.791541700227176,-20.880630466547636,17
10.791541700227176,-20.880630466547636,18
10.791541700227176,-20.880630466547636,19
10.791541700227176,-20.880630466547636,20
10.791541700227176,-20.880630466547636,21
10.791541700227176,-20.880630466547636,22
10.791541700227176,-20.880630466547636,23
10.251964615215815,-19.836598943220253,24
10.251964615215815,-19.836598943220253,25
10.251964615215815,-19.836598943220253,26
9.712387530204458,-18.792567419892872,27
9.712387530204458,-18.792567419892872,28
9.172810445193099,-17.74853589656549,29
9.172810445193099,-17.74853589656549,30
8.63323336018174,-16.704504373238105,31
8.093656275170382,-15.660472849910727,32
7.554079190159022,-14.616441326583343,33
7.014502105147664,-13.572409803255962,34
5.935347935124946,-11.484346756601198,35
4.856193765102229,-9.396283709946436,36
3.777039595079511,-7.308220663291672,37
0.0,-0.0,38
0.0,0.0,0
6.258942071140812,5.33870410458056,1
8.047211234323902,6.864048134460721,2
9.83548039750699,8.389392164340881,3
11.623749560690081,9.914736194221042,4
12.517884142281623,10.67740820916112,5
13.412018723873171,11.440080224101202,6
14.306153305464713,12.202752239041281,7
15.200287887056257,12.965424253981361,8
15.200287887056257,12.965424253981361,9
16.094422468647803,13.728096268921442,10
16.094422468647803,13.728096268921442,11
16.988557050239347,14.490768283861522,12
16.988557050239347,14.490768283861522,13
16.988557050239347,14.490768283861522,14
17.882691631830895,15.253440298801603,15
17.882691631830895,15.253440298801603,16
17.882691631830895,15.253440298801603,17
17.882691631830895,15.253440298801603,18
17.882691631830895,15.253440298801603,19
17.882691631830895,15.253440298801603,20
17.882691631830895,15.253440298801603,21
17.882691631830895,15.253440298801603,22
17.882691631830895,15.253440298801603,23
16.988557050239347,14.490768283861522,24
16.988557050239347,14.490768283861522,25
16.988557050239347,14.490768283861522,26
16.094422468647803,13.728096268921442,27
16.094422468647803,13.728096268921442,28
15.200287887056257,12.965424253981361,29
15.200287887056257,12.965424253981361,30
14.306153305464713,12.202752239041281,31
13.412018723873171,11.440080224101202,32
12.517884142281623,10.67740820916112,33
11.623749560690081,9.914736194221042,34
9.83548039750699,8.389392164340881,35
8.047211234323902,6.864048134460721,36
6.258942071140812,5.33870410458056,37
0.0,0.0,38
-0.0,0.0,0
-6.621129093331412,4.882291152276983,1
-8.512880262854672,6.277231481498979,2
-10.404631432377933,7.6721718107209735,3
-12.296382601901195,9.067112139942969,4
-13.242258186662824,9.764582304553967,5
-14.188133771424456,10.462052469164965,6
-15.134009356186084,11.159522633775962,7
-16.079884940947714,11.856992798386958,8
-16.079884940947714,11.856992798386958,9
-17.025760525709345,12.554462962997958,10
-17.025760525709345,12.554462962997958,11
-17.971636110470975,13.251933127608954,12
-17.971636110470975,13.251933127608954,13
-17.971636110470975,13.251933127608954,14
-18.91751169523261,13.949403292219953,15
-18.91751169523261,13.949403292219953,16
-18.91751169523261,13.949403292219953,17
-18.91751169523261,13.949403292219953,18
-18.91751169523261,13.949403292219953,19
-18.91751169523261,13.949403292219953,20
-18.91751169523261,13.949403292219953,21
-18.91751169523261,13.949403292219953,22
-18.91751169523261,13.949403292219953,23
-17.971636110470975,13.251933127608954,24
-17.971636110470975,13.251933127608954,25
-17.971636110470975,13.251933127608954,26
-17.025760525709345,12.554462962997958,27
-17.025760525709345,12.554462962997958,28
-16.079884940947714,11.856992798386958,29
-16.079884940947714,11.856992798386958,30
-15.134009356186084,11.159522633775962,31
-14.188133771424456,10.462052469164965,32
-13.242258186662824,9.764582304553967,33
-12.296382601901195,9.067112139942969,34
-10.404631432377933,7.6721718107209735,35
-8.512880262854672,6.277231481498979,36
-6.621129093331412,4.882291152276983,37
-0.0,0.0,38
-0.0,-0.0,0
-3.2502732726646206,-7.557237657978197,1
-4.178922779140227,-9.716448417400539,2
-5.1075722856158325,-11.87565917682288,3
-6.036221792091439,-14.034869936245224,4
-6.500546545329241,-15.114475315956394,5
-6.964871298567045,-16.194080695667566,6
-7.429196051804848,-17.273686075378738,7
-7.89352080504265,-18.353291455089906,8
-7.89352080504265,-18.353291455089906,9
-8.357845558280454,-19.432896834801078,10
-8.357845558280454,-19.432896834801078,11
-8.822170311518256,-20.51250221451225,12
-8.822170311518256,-20.51250221451225,13
-8.822170311518256,-20.51250221451225,14
-9.28649506475606,-21.59210759422342,15
-9.28649506475606,-21.59210759422342,16
-9.28649506475606,-21.59210759422342,17
-9.28649506475606,-21.59210759422342,18
-9.28649506475606,-21.59210759422342,19
-9.28649506475606,-21.59210759422342,20
-9.28649506475606,-21.59210759422342,21
-9.28649506475606,-21.59210759422342,22
-9.28649506475606,-21.59210759422342,23
-8.822170311518256,-20.51250221451225,24
-8.822170311518256,-20.51250221451225,25
-8.822170311518256,-20.51250221451225,26
-8.357845558280454,-19.432896834801078,27
-8.357845558280454,-19.432896834801078,28
-7.89352080504265,-18.353291455089906,29
-7.89352080504265,-18.353291455089906,30
-7.429196051804848,-17.273686075378738,31
-6.964871298567045,-16.194080695667566,32
-6.500546545329241,-15.114475315956394,33
-6.036221792091439,-14.034869936245224,34
-5.1075722856158325,-11.87565917682288,35
-4.178922779140227,-9.716448417400539,36
-3.2502732726646206,-7.557237657978197,37
-0.0,-0.0,38
0.0,-0.0,0
8.09806688507992,-1.4482507003049412,1
