-3.892861, 41.182164, 56.000000
-3.892861, 41.182164, 56.125000
-3.892861, 41.182164, 56.250000
-3.892861, 41.182164, 56.375000
-3.909497, 41.358156, 56.500000
-3.892861, 41.182164, 56.625000
-3.892861, 41.182164, 56.750000
-3.892861, 41.182164, 56.875000
-3.876224, 41.006172, 57.000000
-3.876224, 41.006172, 57.125000
-3.876224, 41.006172, 57.250000
-3.876224, 41.006172, 57.375000
-3.876224, 41.006172, 57.500000
-3.859588, 40.830180, 57.625000
-3.859588, 40.830180, 57.750000
-3.859588, 40.830180, 57.875000
-3.842952, 40.654188, 58.000000
-3.859588, 40.830180, 58.125000
-3.842952, 40.654188, 58.250000
-3.842952, 40.654188, 58.375000
-3.842952, 40.654188, 58.500000
-3.826316, 40.478195, 58.625000
-3.826316, 40.478195, 58.750000
-3.826316, 40.478195, 58.875000
-3.826316, 40.478195, 59.000000
-3.826316, 40.478195, 59.125000
-3.826316, 40.478195, 59.250000
-3.826316, 40.478195, 59.375000
-3.809680, 40.302203, 59.500000
-3.809680, 40.302203, 59.625000
-3.793044, 40.126211, 59.750000
-3.793044, 40.126211, 59.875000
-3.793044, 40.126211, 60.000000
-3.793044, 40.126211, 60.125000
-3.776408, 39.950219, 60.250000
-3.776408, 39.950219, 60.375000
-3.776408, 39.950219, 60.500000
-3.776408, 39.950219, 60.625000
-3.759771, 39.774227, 60.750000
-3.759771, 39.774227, 60.875000
-3.743135, 39.598235, 61.000000
-3.743135, 39.598235, 61.125000
-3.743135, 39.598235, 61.250000
-3.726499, 39.422243, 61.375000
-3.726499, 39.422243, 61.500000
-3.726499, 39.422243, 61.625000
-3.709863, 39.246250, 61.750000
-3.709863, 39.246250, 61.875000
-3.709863, 39.246250, 62.000000
-3.693227, 39.070258, 62.125000
-3.693227, 39.070258, 62.250000
-3.693227, 39.070258, 62.375000
-3.693227, 39.070258, 62.500000
-3.676591, 38.894266, 62.625000
-3.659954, 38.718274, 62.750000
-3.659954, 38.718274, 62.875000
-3.643318, 38.542282, 63.000000
-3.643318, 38.542282, 63.125000
-3.626682, 38.366290, 63.250000
-3.626682, 38.366290, 63.375000
-3.626682, 38.366290, 63.500000
-3.610046, 38.190297, 63.625000
-3.610046, 38.190297, 63.750000
-3.610046, 38.190297, 63.875000
-3.593410, 38.014305, 64.000000
-3.576774, 37.838313, 64.125000
-3.576774, 37.838313, 64.250000
-3.576774, 37.838313, 64.375000
-3.560138, 37.662321, 64.500000
-3.560138, 37.662321, 64.625000
-3.543501, 37.486329, 64.750000
-3.543501, 37.486329, 64.875000
-3.543501, 37.486329, 65.000000
-3.526865, 37.310337, 65.125000
-3.526865, 37.310337, 65.250000
-3.510229, 37.134345, 65.375000
-3.510229, 37.134345, 65.500000
-3.493593, 36.958352, 65.625000
-3.476957, 36.782360, 65.750000
-3.476957, 36.782360, 65.875000
-3.476957, 36.782360, 66.000000
-3.476957, 36.782360, 66.125000
-3.460321, 36.606368, 66.250000
-3.427048, 36.254384, 66.375000
-3.410412, 36.078392, 66.500000
-3.393776, 35.902399, 66.625000
-3.360504, 35.550415, 66.750000
-3.327231, 35.198431, 66.875000
-3.327231, 35.198431, 67.000000
-3.293959, 34.846447, 67.125000
-3.277323, 34.670454, 67.250000
-3.277323, 34.670454, 67.375000
-3.277323, 34.670454, 67.500000
-3.244051, 34.318470, 67.625000
-3.227414, 34.142478, 67.750000
-3.210778, 33.966486, 67.875000
-3.194142, 33.790494, 68.000000
-3.210778, 33.966486, 68.125000
-3.177506, 33.614501, 68.250000
-3.160870, 33.438509, 68.375000
-3.160870, 33.438509, 68.500000
-3.160870, 33.438509, 68.625000
-3.144234, 33.262517, 68.750000
-3.127597, 33.086525, 68.875000
-3.110961, 32.910533, 69.000000
-3.110961, 32.910533, 69.125000
-3.077689, 32.558549, 69.250000
-3.061053, 32.382556, 69.375000
-3.044417, 32.206564, 69.500000
-3.044417, 32.206564, 69.625000
-3.027781, 32.030572, 69.750000
-3.027781, 32.030572, 69.875000
-2.994508, 31.678588, 70.000000
-3.011144, 31.854580, 70.125000
-2.977872, 31.502596, 70.250000
-2.961236, 31.326603, 70.375000
-2.944600, 31.150611, 70.500000
-2.944600, 31.150611, 70.625000
-2.911327, 30.798627, 70.750000
-2.894691, 30.622635, 70.875000
-2.878055, 30.446643, 71.000000
-2.878055, 30.446643, 71.125000
-2.861419, 30.270650, 71.250000
-2.844783, 30.094658, 71.375000
-2.861419, 30.270650, 71.500000
-2.828147, 29.918666, 71.625000
-2.811510, 29.742674, 71.750000
-2.811510, 29.742674, 71.875000
-2.794874, 29.566682, 72.000000
-2.794874, 29.566682, 72.125000
-2.778238, 29.390690, 72.250000
-2.761602, 29.214698, 72.375000
-2.761602, 29.214698, 72.500000
-2.744966, 29.038705, 72.625000
-2.728330, 28.862713, 72.750000
-2.728330, 28.862713, 72.875000
-2.711694, 28.686721, 73.000000
-2.695057, 28.510729, 73.125000
-2.678421, 28.334737, 73.250000
-2.661785, 28.158745, 73.375000
-2.661785, 28.158745, 73.500000
-2.645149, 27.982752, 73.625000
-2.645149, 27.982752, 73.750000
-2.611877, 27.630768, 73.875000
-2.611877, 27.630768, 74.000000
-2.595240, 27.454776, 74.125000
-2.595240, 27.454776, 74.250000
-2.595240, 27.454776, 74.375000
-2.611877, 27.630768, 74.500000
-2.611877, 27.630768, 74.625000
-2.611877, 27.630768, 74.750000
-2.628513, 27.806760, 74.875000
-2.628513, 27.806760, 75.000000
-2.645149, 27.982752, 75.125000
-2.645149, 27.982752, 75.250000
-2.661785, 28.158745, 75.375000
-2.678421, 28.334737, 75.500000
-2.678421, 28.334737, 75.625000
-2.695057, 28.510729, 75.750000
-2.711694, 28.686721, 75.875000
-2.728330, 28.862713, 76.000000
-2.744966, 29.038705, 76.125000
-2.778238, 29.390690, 76.250000
-2.761602, 29.214698, 76.375000
-2.778238, 29.390690, 76.500000
-2.794874, 29.566682, 76.625000
-2.811510, 29.742674, 76.750000
-2.844783, 30.094658, 76.875000
-2.861419, 30.270650, 77.000000
-2.878055, 30.446643, 77.125000
-2.894691, 30.622635, 77.250000
-2.911327, 30.798627, 77.375000
-2.927964, 30.974619, 77.500000
-2.944600, 31.150611, 77.625000
-2.961236, 31.326603, 77.750000
-2.977872, 31.502596, 77.875000
-3.011144, 31.854580, 78.000000
-3.011144, 31.854580, 78.125000
-3.044417, 32.206564, 78.250000
-3.061053, 32.382556, 78.375000
-3.077689, 32.558549, 78.500000
-3.094325, 32.734541, 78.625000
-3.110961, 32.910533, 78.750000
-3.127597, 33.086525, 78.875000
-3.144234, 33.262517, 79.000000
-3.177506, 33.614501, 79.125000
-3.210778, 33.966486, 79.250000
-3.210778, 33.966486, 79.375000
-3.227414, 34.142478, 79.500000
-3.244051, 34.318470, 79.625000
-3.260687, 34.494462, 79.750000
-3.293959, 34.846447, 79.875000
-3.293959, 34.846447, 80.000000
-3.327231, 35.198431, 80.125000
-3.343867, 35.374423, 80.250000
-3.360504, 35.550415, 80.375000
-3.377140, 35.726407, 80.500000
-3.377140, 35.726407, 80.625000
-3.393776, 35.902399, 80.750000
-3.427048, 36.254384, 80.875000
-3.410412, 36.078392, 81.000000
-3.443684, 36.430376, 81.125000
-3.443684, 36.430376, 81.250000
-3.443684, 36.430376, 81.375000
-3.460321, 36.606368, 81.500000
-3.443684, 36.430376, 81.625000
-3.389867, 26.833562, 22.875000
-3.456335, 27.359710, 23.000000
-3.434179, 27.184328, 23.125000
-3.434179, 27.184328, 23.250000
-3.456335, 27.359710, 23.375000
-3.478491, 27.535093, 23.500000
-3.500647, 27.710476, 23.625000
-3.500647, 27.710476, 23.750000
-3.522803, 27.885859, 23.875000
-3.544959, 28.061241, 24.000000
-3.589271, 28.412007, 24.125000
-3.589271, 28.412007, 24.250000
-3.611427, 28.587390, 24.375000
-3.655739, 28.938155, 24.500000
-3.677895, 29.113538, 24.625000
-3.700051, 29.288921, 24.750000
-3.700051, 29.288921, 24.875000
-3.744363, 29.639686, 25.000000
-3.744363, 29.639686, 25.125000
-3.766519, 29.815069, 25.250000
-3.788675, 29.990452, 25.375000
-3.788675, 29.990452, 25.500000
-3.810831, 30.165834, 25.625000
-3.855143, 30.516600, 25.750000
-3.877299, 30.691983, 25.875000
-3.855143, 30.516600, 26.000000
-3.877299, 30.691983, 26.125000
-3.899455, 30.867365, 26.250000
-3.899455, 30.867365, 26.375000
-3.921611, 31.042748, 26.500000
-3.943767, 31.218131, 26.625000
-3.965923, 31.393514, 26.750000
-3.988079, 31.568896, 26.875000
-3.988079, 31.568896, 27.000000
-4.010235, 31.744279, 27.125000
-4.032391, 31.919662, 27.250000
-4.054547, 32.095045, 27.375000
-4.054547, 32.095045, 27.500000
-4.076703, 32.270428, 27.625000
-4.098859, 32.445810, 27.750000
-4.098859, 32.445810, 27.875000
-4.121015, 32.621193, 28.000000
-4.121015, 32.621193, 28.125000
-4.143171, 32.796576, 28.250000
-4.165327, 32.971959, 28.375000
-4.165327, 32.971959, 28.500000
-4.187483, 33.147341, 28.625000
-4.187483, 33.147341, 28.750000
-4.209639, 33.322724, 28.875000
-4.231795, 33.498107, 29.000000
-4.253951, 33.673490, 29.125000
-4.253951, 33.673490, 29.250000
-4.276107, 33.848872, 29.375000
-4.276107, 33.848872, 29.500000
-4.320419, 34.199638, 29.625000
-4.320419, 34.199638, 29.750000
-4.320419, 34.199638, 29.875000
-4.320419, 34.199638, 30.000000
-4.342575, 34.375021, 30.125000
-4.364731, 34.550403, 30.250000
-4.364731, 34.550403, 30.375000
-4.386887, 34.725786, 30.500000
-4.409043, 34.901169, 30.625000
-4.409043, 34.901169, 30.750000
-4.431199, 35.076552, 30.875000
-4.431199, 35.076552, 31.000000
-4.453355, 35.251934, 31.125000
-4.453355, 35.251934, 31.250000
-4.475511, 35.427317, 31.375000
-4.475511, 35.427317, 31.500000
-4.497667, 35.602700, 31.625000
-4.497667, 35.602700, 31.750000
-4.519823, 35.778083, 31.875000
-4.519823, 35.778083, 32.000000
-4.541979, 35.953465, 32.125000
-4.541979, 35.953465, 32.250000
-4.564135, 36.128848, 32.375000
-4.586291, 36.304231, 32.500000
-4.586291, 36.304231, 32.625000
-4.586291, 36.304231, 32.750000
-4.608447, 36.479614, 32.875000
-4.608447, 36.479614, 33.000000
-4.630603, 36.654996, 33.125000
-4.630603, 36.654996, 33.250000
-4.652759, 36.830379, 33.375000
-4.674915, 37.005762, 33.500000
-4.674915, 37.005762, 33.625000
-4.674915, 37.005762, 33.750000
-4.697071, 37.181145, 33.875000
-4.697071, 37.181145, 34.000000
-4.697071, 37.181145, 34.125000
-4.719227, 37.356528, 34.250000
-4.719227, 37.356528, 34.375000
-4.741383, 37.531910, 34.500000
-4.741383, 37.531910, 34.625000
-4.763539, 37.707293, 34.750000
-4.785695, 37.882676, 34.875000
-4.785695, 37.882676, 35.000000
-4.785695, 37.882676, 35.125000
-4.807851, 38.058059, 35.250000
-4.807851, 38.058059, 35.375000
-4.807851, 38.058059, 35.500000
-4.807851, 38.058059, 35.625000
-4.830007, 38.233441, 35.750000
-4.830007, 38.233441, 35.875000
-4.852163, 38.408824, 36.000000
-4.852163, 38.408824, 36.125000
-4.874319, 38.584207, 36.250000
-4.874319, 38.584207, 36.375000
-4.896475, 38.759590, 36.500000
-4.874319, 38.584207, 36.625000
-4.896475, 38.759590, 36.750000
-4.896475, 38.759590, 36.875000
-4.896475, 38.759590, 37.000000
-4.896475, 38.759590, 37.125000
-4.918631, 38.934972, 37.250000
-4.918631, 38.934972, 37.375000
-4.940787, 39.110355, 37.500000
-4.940787, 39.110355, 37.625000
-4.962943, 39.285738, 37.750000
-4.985099, 39.461121, 37.875000
-4.962943, 39.285738, 38.000000
-4.985099, 39.461121, 38.125000
-4.962943, 39.285738, 38.250000
-4.985099, 39.461121, 38.375000
-4.985099, 39.461121, 38.500000
-4.985099, 39.461121, 38.625000
-4.985099, 39.461121, 38.750000
-5.029411, 39.811886, 38.875000
-5.007255, 39.636503, 39.000000
-5.007255, 39.636503, 39.125000
-5.007255, 39.636503, 39.250000
-5.029411, 39.811886, 39.375000
-5.029411, 39.811886, 39.500000
-5.029411, 39.811886, 39.625000
-5.029411, 39.811886, 39.750000
-5.051567, 39.987269, 39.875000
-5.051567, 39.987269, 40.000000
-5.073723, 40.162652, 40.125000
-5.073723, 40.162652, 40.250000
-5.073723, 40.162652, 40.375000
-5.073723, 40.162652, 40.500000
-5.095879, 40.338034, 40.625000
-5.095879, 40.338034, 40.750000
-5.095879, 40.338034, 40.875000
-5.095879, 40.338034, 41.000000
-5.095879, 40.338034, 41.125000
-5.118035, 40.513417, 41.250000
-5.118035, 40.513417, 41.375000
-5.140191, 40.688800, 41.500000
-5.140191, 40.688800, 41.625000
-5.118035, 40.513417, 41.750000
-5.140191, 40.688800, 41.875000
-5.140191, 40.688800, 42.000000
-5.140191, 40.688800, 42.125000
-5.162347, 40.864183, 42.250000
-5.140191, 40.688800, 42.375000
-5.162347, 40.864183, 42.500000
-5.162347, 40.864183, 42.625000
-5.162347, 40.864183, 42.750000
-5.184503, 41.039565, 42.875000
-5.162347, 40.864183, 43.000000
-5.184503, 41.039565, 43.125000
-5.184503, 41.039565, 43.250000
-5.184503, 41.039565, 43.375000
-5.184503, 41.039565, 43.500000
-5.184503, 41.039565, 43.625000
-5.184503, 41.039565, 43.750000
-5.184503, 41.039565, 43.875000
-5.206659, 41.214948, 44.000000
-5.206659, 41.214948, 44.125000
-5.206659, 41.214948, 44.250000
-5.206659, 41.214948, 44.375000
-5.228815, 41.390331, 44.500000
-5.228815, 41.390331, 44.625000
-5.228815, 41.390331, 44.750000
-5.228815, 41.390331, 44.875000
-5.228815, 41.390331, 45.000000
-5.228815, 41.390331, 45.125000
-5.228815, 41.390331, 45.250000
-5.228815, 41.390331, 45.375000
-5.228815, 41.390331, 45.500000
-5.228815, 41.390331, 45.625000
-5.250971, 41.565714, 45.750000
-5.250971, 41.565714, 45.875000
-5.250971, 41.565714, 46.000000
-5.250971, 41.565714, 46.125000
-5.250971, 41.565714, 46.250000
-5.250971, 41.565714, 46.375000
-5.250971, 41.565714, 46.500000
-5.273127, 41.741096, 46.625000
-5.273127, 41.741096, 46.750000
-5.273127, 41.741096, 46.875000
-5.273127, 41.741096, 47.000000
-5.273127, 41.741096, 47.125000
-5.273127, 41.741096, 47.250000
-5.273127, 41.741096, 47.375000
-5.273127, 41.741096, 47.500000
-5.273127, 41.741096, 47.625000
-5.273127, 41.741096, 47.750000
-5.273127, 41.741096, 47.875000
-5.273127, 41.741096, 48.000000
-5.273127, 41.741096, 48.125000
-5.273127, 41.741096, 48.250000
-5.273127, 41.741096, 48.375000
-5.273127, 41.741096, 48.500000
-5.273127, 41.741096, 48.625000
-5.273127, 41.741096, 48.750000
-5.273127, 41.741096, 48.875000
-5.273127, 41.741096, 49.000000
-5.273127, 41.741096, 49.125000
-5.273127, 41.741096, 49.250000
-5.273127, 41.741096, 49.375000
-5.273127, 41.741096, 49.500000
-5.273127, 41.741096, 49.625000
-5.273127, 41.741096, 49.750000
-5.295283, 41.916479, 49.875000
-5.295283, 41.916479, 50.000000
-5.295283, 41.916479, 50.125000
-5.295283, 41.916479, 50.250000
-5.295283, 41.916479, 50.375000
-5.295283, 41.916479, 50.500000
-5.295283, 41.916479, 50.625000
-5.295283, 41.916479, 50.750000
-5.295283, 41.916479, 50.875000
-5.295283, 41.916479, 51.000000
-5.295283, 41.916479, 51.125000
-5.295283, 41.916479, 51.250000
-5.295283, 41.916479, 51.375000
-5.295283, 41.916479, 51.500000
-5.273127, 41.741096, 51.625000
-5.295283, 41.916479, 51.750000
-5.273127, 41.741096, 51.875000
-5.273127, 41.741096, 52.000000
-5.273127, 41.741096, 52.125000
-5.273127, 41.741096, 52.250000
-5.273127, 41.741096, 52.375000
-5.273127, 41.741096, 52.500000
-5.273127, 41.741096, 52.625000
-5.273127, 41.741096, 52.750000
-5.273127, 41.741096, 52.875000
-5.273127, 41.741096, 53.000000
-5.250971, 41.565714, 53.125000
-5.250971, 41.565714, 53.250000
-5.273127, 41.741096, 53.375000
-5.250971, 41.565714, 53.500000
-5.250971, 41.565714, 53.625000
-5.250971, 41.565714, 53.750000
-5.250971, 41.565714, 53.875000
-5.250971, 41.565714, 54.000000
-5.250971, 41.565714, 54.125000
-5.250971, 41.565714, 54.250000
-5.250971, 41.565714, 54.375000
-5.273127, 41.741096, 54.500000
-5.228815, 41.390331, 54.625000
-5.228815, 41.390331, 54.750000
-5.228815, 41.390331, 54.875000
-5.228815, 41.390331, 55.000000
-5.228815, 41.390331, 55.125000
-5.228815, 41.390331, 55.250000
-5.228815, 41.390331, 55.375000
-5.228815, 41.390331, 55.500000
-5.206659, 41.214948, 55.625000
-5.206659, 41.214948, 55.750000
-5.206659, 41.214948, 55.875000
-5.206659, 41.214948, 56.000000
-5.206659, 41.214948, 56.125000
-5.206659, 41.214948, 56.250000
-5.184503, 41.039565, 56.375000
-5.184503, 41.039565, 56.500000
-5.184503, 41.039565, 56.625000
-5.184503, 41.039565, 56.750000
-5.184503, 41.039565, 56.875000
-5.184503, 41.039565, 57.000000
-5.162347, 40.864183, 57.125000
-5.162347, 40.864183, 57.250000
-5.162347, 40.864183, 57.375000
-5.162347, 40.864183, 57.500000
-5.162347, 40.864183, 57.625000
-5.140191, 40.688800, 57.750000
-5.140191, 40.688800, 57.875000
-5.140191, 40.688800, 58.000000
-5.140191, 40.688800, 58.125000
-5.118035, 40.513417, 58.250000
-5.118035, 40.513417, 58.375000
-5.118035, 40.513417, 58.500000
-5.118035, 40.513417, 58.625000
-5.095879, 40.338034, 58.750000
-5.095879, 40.338034, 58.875000
-5.118035, 40.513417, 59.000000
-5.095879, 40.338034, 59.125000
-5.095879, 40.338034, 59.250000
-5.073723, 40.162652, 59.375000
-5.073723, 40.162652, 59.500000
-5.073723, 40.162652, 59.625000
-5.073723, 40.162652, 59.750000
-5.051567, 39.987269, 59.875000
-5.051567, 39.987269, 60.000000
-5.051567, 39.987269, 60.125000
-5.051567, 39.987269, 60.250000
-5.029411, 39.811886, 60.375000
-5.029411, 39.811886, 60.500000
-5.029411, 39.811886, 60.625000
-5.007255, 39.636503, 60.750000
-5.007255, 39.636503, 60.875000
-4.985099, 39.461121, 61.000000
-4.985099, 39.461121, 61.125000
-4.985099, 39.461121, 61.250000
-4.962943, 39.285738, 61.375000
-4.962943, 39.285738, 61.500000
-4.962943, 39.285738, 61.625000
-4.962943, 39.285738, 61.750000
-4.940787, 39.110355, 61.875000
-4.918631, 38.934972, 62.000000
-4.918631, 38.934972, 62.125000
-4.918631, 38.934972, 62.250000
-4.896475, 38.759590, 62.375000
-4.896475, 38.759590, 62.500000
-4.896475, 38.759590, 62.625000
-4.874319, 38.584207, 62.750000
-4.874319, 38.584207, 62.875000
-4.874319, 38.584207, 63.000000
-4.852163, 38.408824, 63.125000
-4.852163, 38.408824, 63.250000
-4.830007, 38.233441, 63.375000
-4.830007, 38.233441, 63.500000
-4.830007, 38.233441, 63.625000
-4.830007, 38.233441, 63.750000
-4.807851, 38.058059, 63.875000
-4.785695, 37.882676, 64.000000
-4.785695, 37.882676, 64.125000
-4.785695, 37.882676, 64.250000
-4.763539, 37.707293, 64.375000
-4.741383, 37.531910, 64.500000
-4.741383, 37.531910, 64.625000
-4.719227, 37.356528, 64.750000
-4.719227, 37.356528, 64.875000
-4.719227, 37.356528, 65.000000
-4.697071, 37.181145, 65.125000
-4.697071, 37.181145, 65.250000
-4.674915, 37.005762, 65.375000
-4.674915, 37.005762, 65.500000
-4.652759, 36.830379, 65.625000
-4.630603, 36.654996, 65.750000
-4.630603, 36.654996, 65.875000
-4.630603, 36.654996, 66.000000
-4.608447, 36.479614, 66.125000
-4.586291, 36.304231, 66.250000
-4.564135, 36.128848, 66.375000
-4.541979, 35.953465, 66.500000
-4.497667, 35.602700, 66.625000
-4.497667, 35.602700, 66.750000
-4.453355, 35.251934, 66.875000
-4.453355, 35.251934, 67.000000
-4.409043, 34.901169, 67.125000
-4.386887, 34.725786, 67.250000
-4.342575, 34.375021, 67.375000
-4.298263, 34.024255, 67.500000
-4.298263, 34.024255, 67.625000
-4.298263, 34.024255, 67.750000
-4.276107, 33.848872, 67.875000
-4.253951, 33.673490, 68.000000
-4.253951, 33.673490, 68.125000
-4.231795, 33.498107, 68.250000
-4.209639, 33.322724, 68.375000
-4.187483, 33.147341, 68.500000
-4.187483, 33.147341, 68.625000
-4.165327, 32.971959, 68.750000
-4.165327, 32.971959, 68.875000
-4.165327, 32.971959, 69.000000
-4.165327, 32.971959, 69.125000
-4.121015, 32.621193, 69.250000
-4.098859, 32.445810, 69.375000
-4.076703, 32.270428, 69.500000
-4.054547, 32.095045, 69.625000
-4.032391, 31.919662, 69.750000
-4.032391, 31.919662, 69.875000
-4.010235, 31.744279, 70.000000
-3.988079, 31.568896, 70.125000
-3.965923, 31.393514, 70.250000
-3.943767, 31.218131, 70.375000
-3.921611, 31.042748, 70.500000
-3.899455, 30.867365, 70.625000
-3.877299, 30.691983, 70.750000
-3.855143, 30.516600, 70.875000
-3.832987, 30.341217, 71.000000
-3.832987, 30.341217, 71.125000
-3.810831, 30.165834, 71.250000
-3.788675, 29.990452, 71.375000
-3.788675, 29.990452, 71.500000
-3.766519, 29.815069, 71.625000
-3.744363, 29.639686, 71.750000
-3.744363, 29.639686, 71.875000
-3.722207, 29.464303, 72.000000
-3.700051, 29.288921, 72.125000
-3.700051, 29.288921, 72.250000
-3.677895, 29.113538, 72.375000
-3.655739, 28.938155, 72.500000
-3.655739, 28.938155, 72.625000
-3.633583, 28.762772, 72.750000
-3.633583, 28.762772, 72.875000
-3.611427, 28.587390, 73.000000
-3.589271, 28.412007, 73.125000
-3.567115, 28.236624, 73.250000
-3.544959, 28.061241, 73.375000
-3.522803, 27.885859, 73.500000
-3.522803, 27.885859, 73.625000
-3.500647, 27.710476, 73.750000
-3.478491, 27.535093, 73.875000
-3.478491, 27.535093, 74.000000
-3.478491, 27.535093, 74.125000
-3.456335, 27.359710, 74.250000
-3.456335, 27.359710, 74.375000
-3.478491, 27.535093, 74.500000
-3.478491, 27.535093, 74.625000
-3.478491, 27.535093, 74.750000
-3.500647, 27.710476, 74.875000
-3.500647, 27.710476, 75.000000
-3.522803, 27.885859, 75.125000
-3.522803, 27.885859, 75.250000
-3.544959, 28.061241, 75.375000
-3.567115, 28.236624, 75.500000
-3.589271, 28.412007, 75.625000
-3.589271, 28.412007, 75.750000
-3.611427, 28.587390, 75.875000
-3.633583, 28.762772, 76.000000
-3.633583, 28.762772, 76.125000
-3.677895, 29.113538, 76.250000
-3.700051, 29.288921, 76.375000
-3.722207, 29.464303, 76.500000
-3.744363, 29.639686, 76.625000
-3.766519, 29.815069, 76.750000
-3.788675, 29.990452, 76.875000
-3.810831, 30.165834, 77.000000
-3.832987, 30.341217, 77.125000
-3.855143, 30.516600, 77.250000
-3.877299, 30.691983, 77.375000
-3.899455, 30.867365, 77.500000
-3.921611, 31.042748, 77.625000
-3.943767, 31.218131, 77.750000
-3.965923, 31.393514, 77.875000
-3.988079, 31.568896, 78.000000
-4.010235, 31.744279, 78.125000
-4.076703, 32.270428, 78.250000
-4.076703, 32.270428, 78.375000
-4.098859, 32.445810, 78.500000
-4.121015, 32.621193, 78.625000
-4.165327, 32.971959, 78.750000
-4.165327, 32.971959, 78.875000
-4.187483, 33.147341, 79.000000
-4.209639, 33.322724, 79.125000
-4.253951, 33.673490, 79.250000
-4.276107, 33.848872, 79.375000
-4.298263, 34.024255, 79.500000
-4.320419, 34.199638, 79.625000
-4.364731, 34.550403, 79.750000
-4.386887, 34.725786, 79.875000
-4.386887, 34.725786, 80.000000
-4.409043, 34.901169, 80.125000
-4.453355, 35.251934, 80.250000
-4.475511, 35.427317, 80.375000
-4.497667, 35.602700, 80.500000
-4.497667, 35.602700, 80.625000
-4.519823, 35.778083, 80.750000
-4.541979, 35.953465, 80.875000
-4.564135, 36.128848, 81.000000
-4.564135, 36.128848, 81.125000
-4.586291, 36.304231, 81.250000
-4.608447, 36.479614, 81.375000
-4.608447, 36.479614, 81.500000
-4.231057, 26.713843, 23.000000
-4.286365, 27.063044, 23.125000
-4.314019, 27.237644, 23.250000
-4.341673, 27.412244, 23.375000
-4.341673, 27.412244, 23.500000
-4.369327, 27.586844, 23.625000
-4.396981, 27.761445, 23.750000
-4.396981, 27.761445, 23.875000
-4.424635, 27.936045, 24.000000
-4.452289, 28.110645, 24.125000
-4.479943, 28.285245, 24.250000
-4.562905, 28.809046, 24.375000
-4.562905, 28.809046, 24.500000
-4.590559, 28.983647, 24.625000
-4.590559, 28.983647, 24.750000
-4.618213, 29.158247, 24.875000
-4.673521, 29.507447, 25.000000
-4.701175, 29.682048, 25.125000
-4.701175, 29.682048, 25.250000
-4.728828, 29.856648, 25.375000
-4.728828, 29.856648, 25.500000
-4.756482, 30.031248, 25.625000
-4.784136, 30.205849, 25.750000
-4.811790, 30.380449, 25.875000
-4.839444, 30.555049, 26.000000
-4.867098, 30.729649, 26.125000
-4.867098, 30.729649, 26.250000
-4.894752, 30.904250, 26.375000
-4.922406, 31.078850, 26.500000
-4.922406, 31.078850, 26.625000
-4.950060, 31.253450, 26.750000
-4.950060, 31.253450, 26.875000
-5.005368, 31.602651, 27.000000
-5.005368, 31.602651, 27.125000
-5.033022, 31.777251, 27.250000
-5.033022, 31.777251, 27.375000
-5.060676, 31.951851, 27.500000
-5.088330, 32.126452, 27.625000
-5.115984, 32.301052, 27.750000
-5.115984, 32.301052, 27.875000
-5.143638, 32.475652, 28.000000
-5.171292, 32.650253, 28.125000
-5.171292, 32.650253, 28.250000
-5.198946, 32.824853, 28.375000
-5.226600, 32.999453, 28.500000
-5.226600, 32.999453, 28.625000
-5.254254, 33.174053, 28.750000
-5.254254, 33.174053, 28.875000
-5.281908, 33.348654, 29.000000
-5.309562, 33.523254, 29.125000
-5.309562, 33.523254, 29.250000
-5.337216, 33.697854, 29.375000
-5.337216, 33.697854, 29.500000
-5.364870, 33.872454, 29.625000
-5.364870, 33.872454, 29.750000
-5.392524, 34.047055, 29.875000
-5.420178, 34.221655, 30.000000
-5.447832, 34.396255, 30.125000
-5.447832, 34.396255, 30.250000
-5.475486, 34.570856, 30.375000
-5.475486, 34.570856, 30.500000
-5.503140, 34.745456, 30.625000
-5.503140, 34.745456, 30.750000
-5.530794, 34.920056, 30.875000
-5.530794, 34.920056, 31.000000
-5.558448, 35.094656, 31.125000
-5.558448, 35.094656, 31.250000
-5.586101, 35.269257, 31.375000
-5.613755, 35.443857, 31.500000
-5.613755, 35.443857, 31.625000
-5.641409, 35.618457, 31.750000
-5.641409, 35.618457, 31.875000
-5.669063, 35.793058, 32.000000
-5.669063, 35.793058, 32.125000
-5.696717, 35.967658, 32.250000
-5.696717, 35.967658, 32.375000
-5.696717, 35.967658, 32.500000
-5.724371, 36.142258, 32.625000
-5.752025, 36.316858, 32.750000
-5.752025, 36.316858, 32.875000
-5.779679, 36.491459, 33.000000
-5.779679, 36.491459, 33.125000
-5.807333, 36.666059, 33.250000
-5.807333, 36.666059, 33.375000
-5.834987, 36.840659, 33.500000
-5.834987, 36.840659, 33.625000
-5.862641, 37.015260, 33.750000
-5.862641, 37.015260, 33.875000
-5.862641, 37.015260, 34.000000
-5.890295, 37.189860, 34.125000
-5.890295, 37.189860, 34.250000
-5.890295, 37.189860, 34.375000
-5.917949, 37.364460, 34.500000
-5.945603, 37.539060, 34.625000
-5.945603, 37.539060, 34.750000
-5.945603, 37.539060, 34.875000
-5.973257, 37.713661, 35.000000
-5.973257, 37.713661, 35.125000
-6.000911, 37.888261, 35.250000
-6.000911, 37.888261, 35.375000
-6.000911, 37.888261, 35.500000
-6.028565, 38.062861, 35.625000
-6.028565, 38.062861, 35.750000
-6.028565, 38.062861, 35.875000
-6.056219, 38.237462, 36.000000
-6.056219, 38.237462, 36.125000
-6.083873, 38.412062, 36.250000
-6.083873, 38.412062, 36.375000
-6.083873, 38.412062, 36.500000
-6.111527, 38.586662, 36.625000
-6.111527, 38.586662, 36.750000
-6.111527, 38.586662, 36.875000
-6.111527, 38.586662, 37.000000
-6.139181, 38.761262, 37.125000
-6.166835, 38.935863, 37.250000
-6.139181, 38.761262, 37.375000
-6.166835, 38.935863, 37.500000
-6.166835, 38.935863, 37.625000
-6.166835, 38.935863, 37.750000
-6.194489, 39.110463, 37.875000
-6.194489, 39.110463, 38.000000
-6.194489, 39.110463, 38.125000
-6.194489, 39.110463, 38.250000
-6.249797, 39.459663, 38.375000
-6.222143, 39.285063, 38.500000
-6.222143, 39.285063, 38.625000
-6.222143, 39.285063, 38.750000
-6.249797, 39.459663, 38.875000
-6.249797, 39.459663, 39.000000
-6.249797, 39.459663, 39.125000
-6.277451, 39.634264, 39.250000
-6.277451, 39.634264, 39.375000
-6.277451, 39.634264, 39.500000
-6.277451, 39.634264, 39.625000
-6.305105, 39.808864, 39.750000
-6.305105, 39.808864, 39.875000
-6.305105, 39.808864, 40.000000
-6.332759, 39.983464, 40.125000
-6.332759, 39.983464, 40.250000
-6.332759, 39.983464, 40.375000
-6.332759, 39.983464, 40.500000
-6.360413, 40.158065, 40.625000
-6.360413, 40.158065, 40.750000
-6.360413, 40.158065, 40.875000
-6.388067, 40.332665, 41.000000
-6.388067, 40.332665, 41.125000
-6.388067, 40.332665, 41.250000
-6.388067, 40.332665, 41.375000
-6.388067, 40.332665, 41.500000
-6.415721, 40.507265, 41.625000
-6.415721, 40.507265, 41.750000
-6.415721, 40.507265, 41.875000
-6.415721, 40.507265, 42.000000
-6.415721, 40.507265, 42.125000
-6.415721, 40.507265, 42.250000
-6.443374, 40.681865, 42.375000
-6.443374, 40.681865, 42.500000
-6.443374, 40.681865, 42.625000
-6.443374, 40.681865, 42.750000
-6.443374, 40.681865, 42.875000
-6.471028, 40.856466, 43.000000
-6.471028, 40.856466, 43.125000
-6.471028, 40.856466, 43.250000
-6.471028, 40.856466, 43.375000
-6.498682, 41.031066, 43.500000
-6.498682, 41.031066, 43.625000
-6.498682, 41.031066, 43.750000
-6.498682, 41.031066, 43.875000
-6.498682, 41.031066, 44.000000
-6.526336, 41.205666, 44.125000
-6.498682, 41.031066, 44.250000
-6.498682, 41.031066, 44.375000
-6.498682, 41.031066, 44.500000
-6.526336, 41.205666, 44.625000
-6.526336, 41.205666, 44.750000
-6.526336, 41.205666, 44.875000
-6.526336, 41.205666, 45.000000
-6.526336, 41.205666, 45.125000
-6.553990, 41.380267, 45.250000
-6.526336, 41.205666, 45.375000
-6.553990, 41.380267, 45.500000
-6.553990, 41.380267, 45.625000
-6.553990, 41.380267, 45.750000
-6.553990, 41.380267, 45.875000
-6.553990, 41.380267, 46.000000
-6.581644, 41.554867, 46.125000
-6.581644, 41.554867, 46.250000
-6.581644, 41.554867, 46.375000
-6.553990, 41.380267, 46.500000
-6.581644, 41.554867, 46.625000
-6.581644, 41.554867, 46.750000
-6.581644, 41.554867, 46.875000
-6.581644, 41.554867, 47.000000
-6.581644, 41.554867, 47.125000
-6.581644, 41.554867, 47.250000
-6.581644, 41.554867, 47.375000
-6.581644, 41.554867, 47.500000
-6.581644, 41.554867, 47.625000
-6.581644, 41.554867, 47.750000
-6.581644, 41.554867, 47.875000
-6.581644, 41.554867, 48.000000
-6.581644, 41.554867, 48.125000
-6.581644, 41.554867, 48.250000
-6.581644, 41.554867, 48.375000
-6.581644, 41.554867, 48.500000
-6.581644, 41.554867, 48.625000
-6.581644, 41.554867, 48.750000
-6.581644, 41.554867, 48.875000
-6.581644, 41.554867, 49.000000
-6.581644, 41.554867, 49.125000
-6.581644, 41.554867, 49.250000
-6.581644, 41.554867, 49.375000
-6.609298, 41.729467, 49.500000
-6.609298, 41.729467, 49.625000
-6.581644, 41.554867, 49.750000
-6.581644, 41.554867, 49.875000
-6.609298, 41.729467, 50.000000
-6.609298, 41.729467, 50.125000
-6.609298, 41.729467, 50.250000
-6.609298, 41.729467, 50.375000
-6.609298, 41.729467, 50.500000
-6.609298, 41.729467, 50.625000
-6.609298, 41.729467, 50.750000
-6.609298, 41.729467, 50.875000
-6.609298, 41.729467, 51.000000
-6.609298, 41.729467, 51.125000
-6.609298, 41.729467, 51.250000
-6.609298, 41.729467, 51.375000
-6.609298, 41.729467, 51.500000
-6.609298, 41.729467, 51.625000
-6.581644, 41.554867, 51.750000
-6.581644, 41.554867, 51.875000
-6.581644, 41.554867, 52.000000
-6.581644, 41.554867, 52.125000
-6.581644, 41.554867, 52.250000
-6.581644, 41.554867, 52.375000
-6.581644, 41.554867, 52.500000
-6.581644, 41.554867, 52.625000
-6.581644, 41.554867, 52.750000
-6.581644, 41.554867, 52.875000
-6.581644, 41.554867, 53.000000
-6.581644, 41.554867, 53.125000
-6.609298, 41.729467, 53.250000
-6.581644, 41.554867, 53.375000
-6.553990, 41.380267, 53.500000
-6.553990, 41.380267, 53.625000
-6.553990, 41.380267, 53.750000
-6.553990, 41.380267, 53.875000
-6.553990, 41.380267, 54.000000
-6.553990, 41.380267, 54.125000
-6.553990, 41.380267, 54.250000
-6.526336, 41.205666, 54.375000
-6.526336, 41.205666, 54.500000
-6.526336, 41.205666, 54.625000
-6.526336, 41.205666, 54.750000
-6.526336, 41.205666, 54.875000
-6.526336, 41.205666, 55.000000
-6.526336, 41.205666, 55.125000
-6.526336, 41.205666, 55.250000
-6.526336, 41.205666, 55.375000
-6.526336, 41.205666, 55.500000
-6.498682, 41.031066, 55.625000
-6.498682, 41.031066, 55.750000
-6.498682, 41.031066, 55.875000
-6.498682, 41.031066, 56.000000
-6.498682, 41.031066, 56.125000
-6.498682, 41.031066, 56.250000
-6.498682, 41.031066, 56.375000
-6.471028, 40.856466, 56.500000
-6.471028, 40.856466, 56.625000
-6.471028, 40.856466, 56.750000
-6.471028, 40.856466, 56.875000
-6.471028, 40.856466, 57.000000
-6.443374, 40.681865, 57.125000
-6.443374, 40.681865, 57.250000
-6.443374, 40.681865, 57.375000
-6.443374, 40.681865, 57.500000
-6.443374, 40.681865, 57.625000
-6.415721, 40.507265, 57.750000
-6.415721, 40.507265, 57.875000
-6.415721, 40.507265, 58.000000
-6.443374, 40.681865, 58.125000
-6.388067, 40.332665, 58.250000
-6.388067, 40.332665, 58.375000
-6.388067, 40.332665, 58.500000
-6.388067, 40.332665, 58.625000
-6.388067, 40.332665, 58.750000
-6.360413, 40.158065, 58.875000
-6.360413, 40.158065, 59.000000
-6.360413, 40.158065, 59.125000
-6.360413, 40.158065, 59.250000
-6.360413, 40.158065, 59.375000
-6.332759, 39.983464, 59.500000
-6.332759, 39.983464, 59.625000
-6.305105, 39.808864, 59.750000
-6.305105, 39.808864, 59.875000
-6.305105, 39.808864, 60.000000
-6.305105, 39.808864, 60.125000
-6.277451, 39.634264, 60.250000
-6.277451, 39.634264, 60.375000
-6.277451, 39.634264, 60.500000
-6.277451, 39.634264, 60.625000
-6.249797, 39.459663, 60.750000
-6.249797, 39.459663, 60.875000
-6.249797, 39.459663, 61.000000
-6.222143, 39.285063, 61.125000
-6.222143, 39.285063, 61.250000
-6.222143, 39.285063, 61.375000
-6.194489, 39.110463, 61.500000
-6.194489, 39.110463, 61.625000
-6.166835, 38.935863, 61.750000
-6.166835, 38.935863, 61.875000
-6.166835, 38.935863, 62.000000
-6.139181, 38.761262, 62.125000
-6.139181, 38.761262, 62.250000
-6.139181, 38.761262, 62.375000
-6.111527, 38.586662, 62.500000
-6.111527, 38.586662, 62.625000
-6.083873, 38.412062, 62.750000
-6.083873, 38.412062, 62.875000
-6.111527, 38.586662, 63.000000
-6.056219, 38.237462, 63.125000
-6.056219, 38.237462, 63.250000
-6.028565, 38.062861, 63.375000
-6.028565, 38.062861, 63.500000
-6.028565, 38.062861, 63.625000
-6.000911, 37.888261, 63.750000
-6.000911, 37.888261, 63.875000
-6.000911, 37.888261, 64.000000
-5.973257, 37.713661, 64.125000
-5.945603, 37.539060, 64.250000
-5.945603, 37.539060, 64.375000
-5.917949, 37.364460, 64.500000
-5.917949, 37.364460, 64.625000
-5.917949, 37.364460, 64.750000
-5.890295, 37.189860, 64.875000
-5.862641, 37.015260, 65.000000
-5.862641, 37.015260, 65.125000
-5.862641, 37.015260, 65.250000
-5.834987, 36.840659, 65.375000
-5.807333, 36.666059, 65.500000
-5.834987, 36.840659, 65.625000
-5.779679, 36.491459, 65.750000
-5.779679, 36.491459, 65.875000
-5.752025, 36.316858, 66.000000
-5.752025, 36.316858, 66.125000
-5.724371, 36.142258, 66.250000
-5.696717, 35.967658, 66.375000
-5.696717, 35.967658, 66.500000
-5.641409, 35.618457, 66.625000
-5.613755, 35.443857, 66.750000
-5.558448, 35.094656, 66.875000
-5.530794, 34.920056, 67.000000
-5.530794, 34.920056, 67.125000
-5.503140, 34.745456, 67.250000
-5.447832, 34.396255, 67.375000
-5.447832, 34.396255, 67.500000
-5.392524, 34.047055, 67.625000
-5.392524, 34.047055, 67.750000
-5.364870, 33.872454, 67.875000
-5.309562, 33.523254, 68.000000
-5.309562, 33.523254, 68.125000
-5.281908, 33.348654, 68.250000
-5.254254, 33.174053, 68.375000
-5.226600, 32.999453, 68.500000
-5.198946, 32.824853, 68.625000
-5.198946, 32.824853, 68.750000
-5.198946, 32.824853, 68.875000
-5.171292, 32.650253, 69.000000
-5.171292, 32.650253, 69.125000
-5.143638, 32.475652, 69.250000
-5.115984, 32.301052, 69.375000
-5.115984, 32.301052, 69.500000
-5.088330, 32.126452, 69.625000
-5.033022, 31.777251, 69.750000
-5.033022, 31.777251, 69.875000
-4.977714, 31.428051, 70.000000
-4.950060, 31.253450, 70.125000
-4.950060, 31.253450, 70.250000
-4.922406, 31.078850, 70.375000
-4.867098, 30.729649, 70.500000
-4.867098, 30.729649, 70.625000
-4.839444, 30.555049, 70.750000
-4.811790, 30.380449, 70.875000
-4.811790, 30.380449, 71.000000
-4.784136, 30.205849, 71.125000
-4.756482, 30.031248, 71.250000
-4.756482, 30.031248, 71.375000
-4.728828, 29.856648, 71.500000
-4.701175, 29.682048, 71.625000
-4.701175, 29.682048, 71.750000
-4.673521, 29.507447, 71.875000
-4.645867, 29.332847, 72.000000
-4.645867, 29.332847, 72.125000
-4.618213, 29.158247, 72.250000
-4.590559, 28.983647, 72.375000
-4.562905, 28.809046, 72.500000
-4.562905, 28.809046, 72.625000
-4.535251, 28.634446, 72.750000
-4.507597, 28.459846, 72.875000
-4.479943, 28.285245, 73.000000
-4.479943, 28.285245, 73.125000
-4.452289, 28.110645, 73.250000
-4.424635, 27.936045, 73.375000
-4.424635, 27.936045, 73.500000
-4.396981, 27.761445, 73.625000
-4.369327, 27.586844, 73.750000
-4.369327, 27.586844, 73.875000
-4.341673, 27.412244, 74.000000
-4.341673, 27.412244, 74.125000
-4.341673, 27.412244, 74.250000
-4.341673, 27.412244, 74.375000
-4.341673, 27.412244, 74.500000
-4.341673, 27.412244, 74.625000
-4.369327, 27.586844, 74.750000
-4.369327, 27.586844, 74.875000
-4.369327, 27.586844, 75.000000
-4.396981, 27.761445, 75.125000
-4.424635, 27.936045, 75.250000
-4.452289, 28.110645, 75.375000
-4.424635, 27.936045, 75.500000
-4.452289, 28.110645, 75.625000
-4.479943, 28.285245, 75.750000
-4.507597, 28.459846, 75.875000
-4.535251, 28.634446, 76.000000
-4.562905, 28.809046, 76.125000
-4.562905, 28.809046, 76.250000
-4.618213, 29.158247, 76.375000
-4.645867, 29.332847, 76.500000
-4.673521, 29.507447, 76.625000
-4.701175, 29.682048, 76.750000
-4.728828, 29.856648, 76.875000
-4.756482, 30.031248, 77.000000
-4.784136, 30.205849, 77.125000
-4.811790, 30.380449, 77.250000
-4.839444, 30.555049, 77.375000
-4.867098, 30.729649, 77.500000
-4.894752, 30.904250, 77.625000
-4.922406, 31.078850, 77.750000
-4.950060, 31.253450, 77.875000
-4.977714, 31.428051, 78.000000
-5.005368, 31.602651, 78.125000
-5.088330, 32.126452, 78.250000
-5.088330, 32.126452, 78.375000
-5.088330, 32.126452, 78.500000
-5.143638, 32.475652, 78.625000
-5.171292, 32.650253, 78.750000
-5.198946, 32.824853, 78.875000
-5.226600, 32.999453, 79.000000
-5.254254, 33.174053, 79.125000
-5.309562, 33.523254, 79.250000
-5.337216, 33.697854, 79.375000
-5.364870, 33.872454, 79.500000
-5.392524, 34.047055, 79.625000
-5.420178, 34.221655, 79.750000
-5.447832, 34.396255, 79.875000
-5.503140, 34.745456, 80.000000
-5.530794, 34.920056, 80.125000
-5.558448, 35.094656, 80.250000
-5.586101, 35.269257, 80.375000
-5.613755, 35.443857, 80.500000
-5.613755, 35.443857, 80.625000
-5.669063, 35.793058, 80.750000
-5.669063, 35.793058, 80.875000
-5.696717, 35.967658, 81.000000
-5.669063, 35.793058, 81.125000
-5.724371, 36.142258, 81.250000
-5.724371, 36.142258, 81.375000
-5.779679, 36.491459, 81.500000
-5.752025, 36.316858, 81.625000
-5.134321, 26.915052, 23.000000
-5.167445, 27.088697, 23.125000
-5.134321, 26.915052, 23.250000
-5.200570, 27.262343, 23.375000
-5.266819, 27.609634, 23.500000
-5.266819, 27.609634, 23.625000
-5.266819, 27.609634, 23.750000
-5.299944, 27.783279, 23.875000
-5.366193, 28.130570, 24.000000
-5.399318, 28.304216, 24.125000
-5.399318, 28.304216, 24.250000
-5.432443, 28.477861, 24.375000
-5.465567, 28.651507, 24.500000
-5.498692, 28.825152, 24.625000
-5.564941, 29.172443, 24.750000
-5.531816, 28.998798, 24.875000
-5.598066, 29.346088, 25.000000
-5.598066, 29.346088, 25.125000
-5.631190, 29.519734, 25.250000
-5.664315, 29.693379, 25.375000
-5.697440, 29.867025, 25.500000
-5.730564, 30.040670, 25.625000
-5.730564, 30.040670, 25.750000
-5.763689, 30.214316, 25.875000
-5.796814, 30.387961, 26.000000
-5.829938, 30.561607, 26.125000
-5.829938, 30.561607, 26.250000
-5.863063, 30.735252, 26.375000
-5.896188, 30.908898, 26.500000
-5.929312, 31.082543, 26.625000
-5.929312, 31.082543, 26.750000
-5.929312, 31.082543, 26.875000
-5.962437, 31.256189, 27.000000
-5.995562, 31.429834, 27.125000
-6.028686, 31.603480, 27.250000
-6.061811, 31.777125, 27.375000
-6.061811, 31.777125, 27.500000
-6.128060, 32.124416, 27.625000
-6.128060, 32.124416, 27.750000
-6.161185, 32.298062, 27.875000
-6.161185, 32.298062, 28.000000
-6.194309, 32.471707, 28.125000
-6.194309, 32.471707, 28.250000
-6.227434, 32.645353, 28.375000
-6.260559, 32.818998, 28.500000
-6.293683, 32.992644, 28.625000
-6.293683, 32.992644, 28.750000
-6.326808, 33.166289, 28.875000
-6.326808, 33.166289, 29.000000
-6.359933, 33.339935, 29.125000
-6.359933, 33.339935, 29.250000
-6.426182, 33.687226, 29.375000
-6.426182, 33.687226, 29.500000
-6.426182, 33.687226, 29.625000
-6.459307, 33.860871, 29.750000
-6.459307, 33.860871, 29.875000
-6.492431, 34.034517, 30.000000
-6.492431, 34.034517, 30.125000
-6.525556, 34.208162, 30.250000
-6.558681, 34.381808, 30.375000
-6.558681, 34.381808, 30.500000
-6.591805, 34.555453, 30.625000
-6.624930, 34.729099, 30.750000
-6.624930, 34.729099, 30.875000
-6.624930, 34.729099, 31.000000
-6.658055, 34.902744, 31.125000
-6.658055, 34.902744, 31.250000
-6.691179, 35.076390, 31.375000
-6.724304, 35.250035, 31.500000
-6.724304, 35.250035, 31.625000
-6.724304, 35.250035, 31.750000
-6.757429, 35.423681, 31.875000
-6.790553, 35.597326, 32.000000
-6.790553, 35.597326, 32.125000
-6.823678, 35.770972, 32.250000
-6.823678, 35.770972, 32.375000
-6.856802, 35.944617, 32.500000
-6.856802, 35.944617, 32.625000
-6.889927, 36.118263, 32.750000
-6.889927, 36.118263, 32.875000
-6.923052, 36.291908, 33.000000
-6.923052, 36.291908, 33.125000
-6.956176, 36.465554, 33.250000
-6.956176, 36.465554, 33.375000
-6.989301, 36.639199, 33.500000
-6.989301, 36.639199, 33.625000
-7.022426, 36.812845, 33.750000
-7.022426, 36.812845, 33.875000
-7.022426, 36.812845, 34.000000
-7.055550, 36.986490, 34.125000
-7.055550, 36.986490, 34.250000
-7.088675, 37.160136, 34.375000
-7.088675, 37.160136, 34.500000
-7.121800, 37.333781, 34.625000
-7.121800, 37.333781, 34.750000
-7.121800, 37.333781, 34.875000
-7.154924, 37.507427, 35.000000
-7.154924, 37.507427, 35.125000
-7.188049, 37.681072, 35.250000
-7.188049, 37.681072, 35.375000
-7.188049, 37.681072, 35.500000
-7.221174, 37.854718, 35.625000
-7.221174, 37.854718, 35.750000
-7.254298, 38.028363, 35.875000
-7.254298, 38.028363, 36.000000
-7.254298, 38.028363, 36.125000
-7.287423, 38.202009, 36.250000
-7.287423, 38.202009, 36.375000
-7.287423, 38.202009, 36.500000
-7.287423, 38.202009, 36.625000
-7.320548, 38.375654, 36.750000
-7.320548, 38.375654, 36.875000
-7.353672, 38.549300, 37.000000
-7.386797, 38.722945, 37.125000
-7.353672, 38.549300, 37.250000
-7.386797, 38.722945, 37.375000
-7.386797, 38.722945, 37.500000
-7.386797, 38.722945, 37.625000
-7.419921, 38.896591, 37.750000
-7.453046, 39.070236, 37.875000
-7.419921, 38.896591, 38.000000
-7.419921, 38.896591, 38.125000
-7.453046, 39.070236, 38.250000
-7.453046, 39.070236, 38.375000
-7.453046, 39.070236, 38.500000
-7.453046, 39.070236, 38.625000
-7.486171, 39.243882, 38.750000
-7.519295, 39.417527, 38.875000
-7.486171, 39.243882, 39.000000
-7.519295, 39.417527, 39.125000
-7.519295, 39.417527, 39.250000
-7.519295, 39.417527, 39.375000
-7.519295, 39.417527, 39.500000
-7.519295, 39.417527, 39.625000
-7.552420, 39.591173, 39.750000
-7.552420, 39.591173, 39.875000
-7.552420, 39.591173, 40.000000
-7.585545, 39.764818, 40.125000
-7.585545, 39.764818, 40.250000
-7.585545, 39.764818, 40.375000
-7.585545, 39.764818, 40.500000
-7.618669, 39.938464, 40.625000
-7.618669, 39.938464, 40.750000
-7.618669, 39.938464, 40.875000
-7.618669, 39.938464, 41.000000
-7.651794, 40.112109, 41.125000
-7.651794, 40.112109, 41.250000
-7.651794, 40.112109, 41.375000
-7.684919, 40.285755, 41.500000
-7.651794, 40.112109, 41.625000
-7.684919, 40.285755, 41.750000
-7.684919, 40.285755, 41.875000
-7.684919, 40.285755, 42.000000
-7.684919, 40.285755, 42.125000
-7.718043, 40.459400, 42.250000
-7.718043, 40.459400, 42.375000
-7.718043, 40.459400, 42.500000
-7.718043, 40.459400, 42.625000
-7.718043, 40.459400, 42.750000
-7.751168, 40.633046, 42.875000
-7.751168, 40.633046, 43.000000
-7.751168, 40.633046, 43.125000
-7.751168, 40.633046, 43.250000
-7.751168, 40.633046, 43.375000
-7.751168, 40.633046, 43.500000
-7.784293, 40.806691, 43.625000
-7.784293, 40.806691, 43.750000
-7.784293, 40.806691, 43.875000
-7.784293, 40.806691, 44.000000
-7.784293, 40.806691, 44.125000
-7.784293, 40.806691, 44.250000
-7.817417, 40.980337, 44.375000
-7.817417, 40.980337, 44.500000
-7.817417, 40.980337, 44.625000
-7.817417, 40.980337, 44.750000
-7.817417, 40.980337, 44.875000
-7.850542, 41.153982, 45.000000
-7.850542, 41.153982, 45.125000
-7.850542, 41.153982, 45.250000
-7.850542, 41.153982, 45.375000
-7.850542, 41.153982, 45.500000
-7.850542, 41.153982, 45.625000
-7.850542, 41.153982, 45.750000
-7.850542, 41.153982, 45.875000
-7.850542, 41.153982, 46.000000
-7.850542, 41.153982, 46.125000
-7.883667, 41.327628, 46.250000
-7.883667, 41.327628, 46.375000
-7.850542, 41.153982, 46.500000
-7.883667, 41.327628, 46.625000
-7.883667, 41.327628, 46.750000
-7.883667, 41.327628, 46.875000
-7.883667, 41.327628, 47.000000
-7.883667, 41.327628, 47.125000
-7.883667, 41.327628, 47.250000
-7.883667, 41.327628, 47.375000
-7.883667, 41.327628, 47.500000
-7.883667, 41.327628, 47.625000
-7.883667, 41.327628, 47.750000
-7.883667, 41.327628, 47.875000
-7.883667, 41.327628, 48.000000
-7.883667, 41.327628, 48.125000
-7.883667, 41.327628, 48.250000
-7.883667, 41.327628, 48.375000
-7.883667, 41.327628, 48.500000
-7.883667, 41.327628, 48.625000
-7.883667, 41.327628, 48.750000
-7.883667, 41.327628, 48.875000
-7.916791, 41.501273, 49.000000
-7.883667, 41.327628, 49.125000
-7.916791, 41.501273, 49.250000
-7.949916, 41.674919, 49.375000
-7.916791, 41.501273, 49.500000
-7.949916, 41.674919, 49.625000
-7.916791, 41.501273, 49.750000
-7.916791, 41.501273, 49.875000
-7.916791, 41.501273, 50.000000
-7.916791, 41.501273, 50.125000
-7.916791, 41.501273, 50.250000
-7.916791, 41.501273, 50.375000
-7.916791, 41.501273, 50.500000
-7.916791, 41.501273, 50.625000
-7.916791, 41.501273, 50.750000
-7.916791, 41.501273, 50.875000
-7.916791, 41.501273, 51.000000
-7.916791, 41.501273, 51.125000
-7.916791, 41.501273, 51.250000
-7.916791, 41.501273, 51.375000
-7.916791, 41.501273, 51.500000
-7.883667, 41.327628, 51.625000
-7.883667, 41.327628, 51.750000
-7.916791, 41.501273, 51.875000
-7.916791, 41.501273, 52.000000
-7.916791, 41.501273, 52.125000
-7.883667, 41.327628, 52.250000
-7.883667, 41.327628, 52.375000
-7.883667, 41.327628, 52.500000
-7.883667, 41.327628, 52.625000
-7.883667, 41.327628, 52.750000
-7.883667, 41.327628, 52.875000
-7.883667, 41.327628, 53.000000
-7.883667, 41.327628, 53.125000
-7.916791, 41.501273, 53.250000
-7.883667, 41.327628, 53.375000
-7.883667, 41.327628, 53.500000
-7.883667, 41.327628, 53.625000
-7.850542, 41.153982, 53.750000
-7.850542, 41.153982, 53.875000
-7.850542, 41.153982, 54.000000
-7.850542, 41.153982, 54.125000
-7.850542, 41.153982, 54.250000
-7.817417, 40.980337, 54.375000
-7.817417, 40.980337, 54.500000
-7.817417, 40.980337, 54.625000
-7.817417, 40.980337, 54.750000
-7.817417, 40.980337, 54.875000
-7.817417, 40.980337, 55.000000
-7.817417, 40.980337, 55.125000
-7.850542, 41.153982, 55.250000
-7.817417, 40.980337, 55.375000
-7.817417, 40.980337, 55.500000
-7.817417, 40.980337, 55.625000
-7.784293, 40.806691, 55.750000
-7.784293, 40.806691, 55.875000
-7.784293, 40.806691, 56.000000
-7.784293, 40.806691, 56.125000
-7.784293, 40.806691, 56.250000
-7.751168, 40.633046, 56.375000
-7.751168, 40.633046, 56.500000
-7.751168, 40.633046, 56.625000
-7.751168, 40.633046, 56.750000
-7.751168, 40.633046, 56.875000
-7.751168, 40.633046, 57.000000
-7.751168, 40.633046, 57.125000
-7.718043, 40.459400, 57.250000
-7.718043, 40.459400, 57.375000
-7.718043, 40.459400, 57.500000
-7.718043, 40.459400, 57.625000
-7.684919, 40.285755, 57.750000
-7.684919, 40.285755, 57.875000
-7.684919, 40.285755, 58.000000
-7.684919, 40.285755, 58.125000
-7.651794, 40.112109, 58.250000
-7.651794, 40.112109, 58.375000
-7.651794, 40.112109, 58.500000
-7.651794, 40.112109, 58.625000
-7.651794, 40.112109, 58.750000
-7.651794, 40.112109, 58.875000
-7.618669, 39.938464, 59.000000
-7.618669, 39.938464, 59.125000
-7.618669, 39.938464, 59.250000
-7.618669, 39.938464, 59.375000
-7.585545, 39.764818, 59.500000
-7.585545, 39.764818, 59.625000
-7.585545, 39.764818, 59.750000
-7.552420, 39.591173, 59.875000
-7.552420, 39.591173, 60.000000
-7.552420, 39.591173, 60.125000
-7.552420, 39.591173, 60.250000
-7.519295, 39.417527, 60.375000
-7.519295, 39.417527, 60.500000
-7.519295, 39.417527, 60.625000
-7.486171, 39.243882, 60.750000
-7.486171, 39.243882, 60.875000
-7.453046, 39.070236, 61.000000
-7.453046, 39.070236, 61.125000
-7.453046, 39.070236, 61.250000
-7.453046, 39.070236, 61.375000
-7.419921, 38.896591, 61.500000
-7.419921, 38.896591, 61.625000
-7.386797, 38.722945, 61.750000
-7.386797, 38.722945, 61.875000
-7.386797, 38.722945, 62.000000
-7.353672, 38.549300, 62.125000
-7.353672, 38.549300, 62.250000
-7.353672, 38.549300, 62.375000
-7.353672, 38.549300, 62.500000
-7.320548, 38.375654, 62.625000
-7.287423, 38.202009, 62.750000
-7.287423, 38.202009, 62.875000
-7.287423, 38.202009, 63.000000
-7.287423, 38.202009, 63.125000
-7.254298, 38.028363, 63.250000
-7.221174, 37.854718, 63.375000
-7.221174, 37.854718, 63.500000
-7.221174, 37.854718, 63.625000
-7.221174, 37.854718, 63.750000
-7.188049, 37.681072, 63.875000
-7.154924, 37.507427, 64.000000
-7.154924, 37.507427, 64.125000
-7.154924, 37.507427, 64.250000
-7.121800, 37.333781, 64.375000
-7.088675, 37.160136, 64.500000
-7.088675, 37.160136, 64.625000
-7.088675, 37.160136, 64.750000
-7.055550, 36.986490, 64.875000
-7.055550, 36.986490, 65.000000
-7.022426, 36.812845, 65.125000
-7.022426, 36.812845, 65.250000
-6.989301, 36.639199, 65.375000
-6.989301, 36.639199, 65.500000
-6.956176, 36.465554, 65.625000
-6.956176, 36.465554, 65.750000
-6.923052, 36.291908, 65.875000
-6.923052, 36.291908, 66.000000
-6.889927, 36.118263, 66.125000
-6.856802, 35.944617, 66.250000
-6.823678, 35.770972, 66.375000
-6.757429, 35.423681, 66.500000
-6.757429, 35.423681, 66.625000
-6.724304, 35.250035, 66.750000
-6.658055, 34.902744, 66.875000
-6.624930, 34.729099, 67.000000
-6.624930, 34.729099, 67.125000
