-34.623951, -13.708592, 52.875000
-34.495714, -13.657819, 53.000000
-34.495714, -13.657819, 53.125000
-34.495714, -13.657819, 53.250000
-34.495714, -13.657819, 53.375000
-34.495714, -13.657819, 53.500000
-34.495714, -13.657819, 53.625000
-34.367477, -13.607047, 53.750000
-34.367477, -13.607047, 53.875000
-34.495714, -13.657819, 54.000000
-34.367477, -13.607047, 54.125000
-34.367477, -13.607047, 54.250000
-34.239240, -13.556274, 54.375000
-34.239240, -13.556274, 54.500000
-34.367477, -13.607047, 54.625000
-34.239240, -13.556274, 54.750000
-34.239240, -13.556274, 54.875000
-34.111004, -13.505502, 55.000000
-34.111004, -13.505502, 55.125000
-34.239240, -13.556274, 55.250000
-34.111004, -13.505502, 55.375000
-33.982767, -13.454729, 55.500000
-34.111004, -13.505502, 55.625000
-33.854530, -13.403957, 55.750000
-33.854530, -13.403957, 55.875000
-33.854530, -13.403957, 56.000000
-33.726293, -13.353184, 56.125000
-33.726293, -13.353184, 56.250000
-33.854530, -13.403957, 56.375000
-33.726293, -13.353184, 56.500000
-33.598056, -13.302411, 56.625000
-33.469819, -13.251639, 56.750000
-33.341582, -13.200866, 56.875000
-33.469819, -13.251639, 57.000000
-33.341582, -13.200866, 57.125000
-33.341582, -13.200866, 57.250000
-33.469819, -13.251639, 57.375000
-21.800265, -8.631336, 72.875000
-21.928502, -8.682108, 73.000000
-21.928502, -8.682108, 73.125000
-21.928502, -8.682108, 73.250000
-22.056739, -8.732881, 73.375000
-22.056739, -8.732881, 73.500000
-22.056739, -8.732881, 73.625000
-22.184976, -8.783653, 73.750000
-22.313213, -8.834426, 73.875000
-22.313213, -8.834426, 74.000000
-22.441450, -8.885199, 74.125000
-22.569687, -8.935971, 74.250000
-22.697923, -8.986744, 74.375000
-22.826160, -9.037516, 74.500000
-23.082634, -9.139061, 74.625000
-23.210871, -9.189834, 74.750000
-23.210871, -9.189834, 74.875000
-23.339108, -9.240606, 75.000000
-23.467345, -9.291379, 75.125000
-23.595581, -9.342152, 75.250000
-23.852055, -9.443697, 75.375000
-23.980292, -9.494469, 75.500000
-24.236766, -9.596014, 75.625000
-24.365003, -9.646787, 75.750000
-24.493239, -9.697560, 75.875000
-24.749713, -9.799105, 76.000000
-24.877950, -9.849877, 76.125000
-25.006187, -9.900650, 76.250000
-25.262661, -10.002195, 76.375000
-25.390897, -10.052967, 76.500000
-25.519134, -10.103740, 76.625000
-25.775608, -10.205285, 76.750000
-25.903845, -10.256058, 76.875000
-26.160319, -10.357603, 77.000000
-26.288555, -10.408375, 77.125000
-26.416792, -10.459148, 77.250000
-26.801503, -10.611466, 77.375000
-26.929740, -10.662238, 77.500000
-27.057977, -10.713011, 77.625000
-27.314450, -10.814556, 77.750000
-27.314450, -10.814556, 77.875000
-27.570924, -10.916101, 78.000000
-27.827398, -11.017646, 78.125000
-27.955635, -11.068419, 78.250000
-28.212108, -11.169964, 78.375000
-28.340345, -11.220736, 78.500000
-28.468582, -11.271509, 78.625000
-28.468582, -11.271509, 78.750000
-28.596819, -11.322282, 78.875000
-28.725056, -11.373054, 79.000000
-28.725056, -11.373054, 79.125000
-28.853292, -11.423827, 79.250000
-28.853292, -11.423827, 79.375000
-28.353645, -12.269718, 30.125000
-28.353645, -12.269718, 30.250000
-28.480224, -12.324493, 30.375000
-28.606803, -12.379269, 30.500000
-28.859960, -12.488820, 30.625000
-28.859960, -12.488820, 30.750000
-29.366275, -12.707922, 30.875000
-29.239697, -12.653147, 31.000000
-29.239697, -12.653147, 31.125000
-29.492854, -12.762698, 31.250000
-29.492854, -12.762698, 31.375000
-29.619433, -12.817473, 31.500000
-29.746012, -12.872249, 31.625000
-29.746012, -12.872249, 31.750000
-29.746012, -12.872249, 31.875000
-29.872591, -12.927024, 32.000000
-29.999169, -12.981800, 32.125000
-30.125748, -13.036575, 32.250000
-30.125748, -13.036575, 32.375000
-30.125748, -13.036575, 32.500000
-30.252327, -13.091351, 32.625000
-30.252327, -13.091351, 32.750000
-30.378906, -13.146126, 32.875000
-30.378906, -13.146126, 33.000000
-30.505484, -13.200902, 33.125000
-30.632063, -13.255677, 33.250000
-30.632063, -13.255677, 33.375000
-30.632063, -13.255677, 33.500000
-30.758642, -13.310453, 33.625000
-30.885221, -13.365228, 33.750000
-30.885221, -13.365228, 33.875000
-30.885221, -13.365228, 34.000000
-31.011800, -13.420004, 34.125000
-31.011800, -13.420004, 34.250000
-31.138378, -13.474780, 34.375000
-31.138378, -13.474780, 34.500000
-31.264957, -13.529555, 34.625000
-31.264957, -13.529555, 34.750000
-31.391536, -13.584331, 34.875000
-31.391536, -13.584331, 35.000000
-31.518115, -13.639106, 35.125000
-31.518115, -13.639106, 35.250000
-31.518115, -13.639106, 35.375000
-31.771272, -13.748657, 35.500000
-31.771272, -13.748657, 35.625000
-31.771272, -13.748657, 35.750000
-31.897851, -13.803433, 35.875000
-31.897851, -13.803433, 36.000000
-31.897851, -13.803433, 36.125000
-31.897851, -13.803433, 36.250000
-32.024430, -13.858208, 36.375000
-32.024430, -13.858208, 36.500000
-32.151009, -13.912984, 36.625000
-32.151009, -13.912984, 36.750000
-32.277587, -13.967759, 36.875000
-32.277587, -13.967759, 37.000000
-32.277587, -13.967759, 37.125000
-32.404166, -14.022535, 37.250000
-32.404166, -14.022535, 37.375000
-32.404166, -14.022535, 37.500000
-32.530745, -14.077310, 37.625000
-32.530745, -14.077310, 37.750000
-32.530745, -14.077310, 37.875000
-32.657324, -14.132086, 38.000000
-32.657324, -14.132086, 38.125000
-32.657324, -14.132086, 38.250000
-32.783902, -14.186861, 38.375000
-32.783902, -14.186861, 38.500000
-32.783902, -14.186861, 38.625000
-32.910481, -14.241637, 38.750000
-32.910481, -14.241637, 38.875000
-33.037060, -14.296412, 39.000000
-33.037060, -14.296412, 39.125000
-33.037060, -14.296412, 39.250000
-33.037060, -14.296412, 39.375000
-33.163639, -14.351188, 39.500000
-33.163639, -14.351188, 39.625000
-33.163639, -14.351188, 39.750000
-33.290217, -14.405964, 39.875000
-33.290217, -14.405964, 40.000000
-33.290217, -14.405964, 40.125000
-33.290217, -14.405964, 40.250000
-33.416796, -14.460739, 40.375000
-33.416796, -14.460739, 40.500000
-33.416796, -14.460739, 40.625000
-33.416796, -14.460739, 40.750000
-33.543375, -14.515515, 40.875000
-33.543375, -14.515515, 41.000000
-33.543375, -14.515515, 41.125000
-33.669954, -14.570290, 41.250000
-33.669954, -14.570290, 41.375000
-33.669954, -14.570290, 41.500000
-33.669954, -14.570290, 41.625000
-33.669954, -14.570290, 41.750000
-33.796533, -14.625066, 41.875000
-33.796533, -14.625066, 42.000000
-33.796533, -14.625066, 42.125000
-33.796533, -14.625066, 42.250000
-33.796533, -14.625066, 42.375000
-33.796533, -14.625066, 42.500000
-33.796533, -14.625066, 42.625000
-33.923111, -14.679841, 42.750000
-33.923111, -14.679841, 42.875000
-33.923111, -14.679841, 43.000000
-33.923111, -14.679841, 43.125000
-34.049690, -14.734617, 43.250000
-34.049690, -14.734617, 43.375000
-34.049690, -14.734617, 43.500000
-34.049690, -14.734617, 43.625000
-34.049690, -14.734617, 43.750000
-34.049690, -14.734617, 43.875000
-34.049690, -14.734617, 44.000000
-34.049690, -14.734617, 44.125000
-34.049690, -14.734617, 44.250000
-34.176269, -14.789392, 44.375000
-34.176269, -14.789392, 44.500000
-34.176269, -14.789392, 44.625000
-34.176269, -14.789392, 44.750000
-34.176269, -14.789392, 44.875000
-34.302848, -14.844168, 45.000000
-34.302848, -14.844168, 45.125000
-34.302848, -14.844168, 45.250000
-34.302848, -14.844168, 45.375000
-34.302848, -14.844168, 45.500000
-34.302848, -14.844168, 45.625000
-34.302848, -14.844168, 45.750000
-34.302848, -14.844168, 45.875000
-34.302848, -14.844168, 46.000000
-34.302848, -14.844168, 46.125000
-34.302848, -14.844168, 46.250000
-34.302848, -14.844168, 46.375000
-34.302848, -14.844168, 46.500000
-34.302848, -14.844168, 46.625000
-34.302848, -14.844168, 46.750000
-34.302848, -14.844168, 46.875000
-34.302848, -14.844168, 47.000000
-34.302848, -14.844168, 47.125000
-34.302848, -14.844168, 47.250000
-34.302848, -14.844168, 47.375000
-34.302848, -14.844168, 47.500000
-34.302848, -14.844168, 47.625000
-34.302848, -14.844168, 47.750000
-34.302848, -14.844168, 47.875000
-34.302848, -14.844168, 48.000000
-34.302848, -14.844168, 48.125000
-34.302848, -14.844168, 48.250000
-34.302848, -14.844168, 48.375000
-34.302848, -14.844168, 48.500000
-34.302848, -14.844168, 48.625000
-34.302848, -14.844168, 48.750000
-34.302848, -14.844168, 48.875000
-34.429426, -14.898943, 49.000000
-34.429426, -14.898943, 49.125000
-34.302848, -14.844168, 49.250000
-34.302848, -14.844168, 49.375000
-34.429426, -14.898943, 49.500000
-34.302848, -14.844168, 49.625000
-34.429426, -14.898943, 49.750000
-34.302848, -14.844168, 49.875000
-34.302848, -14.844168, 50.000000
-34.302848, -14.844168, 50.125000
-34.302848, -14.844168, 50.250000
-34.302848, -14.844168, 50.375000
-34.302848, -14.844168, 50.500000
-34.302848, -14.844168, 50.625000
-34.302848, -14.844168, 50.750000
-34.302848, -14.844168, 50.875000
-34.302848, -14.844168, 51.000000
-34.302848, -14.844168, 51.125000
-34.302848, -14.844168, 51.250000
-34.302848, -14.844168, 51.375000
-34.302848, -14.844168, 51.500000
-34.176269, -14.789392, 51.625000
-34.176269, -14.789392, 51.750000
-34.176269, -14.789392, 51.875000
-34.049690, -14.734617, 52.000000
-34.176269, -14.789392, 52.125000
-34.176269, -14.789392, 52.250000
-34.176269, -14.789392, 52.375000
-34.049690, -14.734617, 52.500000
-34.049690, -14.734617, 52.625000
-34.176269, -14.789392, 52.750000
-34.049690, -14.734617, 52.875000
-34.049690, -14.734617, 53.000000
-33.923111, -14.679841, 53.125000
-33.923111, -14.679841, 53.250000
-33.923111, -14.679841, 53.375000
-34.049690, -14.734617, 53.500000
-33.923111, -14.679841, 53.625000
-33.923111, -14.679841, 53.750000
-34.049690, -14.734617, 53.875000
-33.923111, -14.679841, 54.000000
-33.923111, -14.679841, 54.125000
-33.796533, -14.625066, 54.250000
-33.796533, -14.625066, 54.375000
-33.923111, -14.679841, 54.500000
-33.669954, -14.570290, 54.625000
-33.796533, -14.625066, 54.750000
-33.669954, -14.570290, 54.875000
-33.669954, -14.570290, 55.000000
-33.669954, -14.570290, 55.125000
-33.669954, -14.570290, 55.250000
-33.669954, -14.570290, 55.375000
-33.543375, -14.515515, 55.500000
-33.543375, -14.515515, 55.625000
-33.416796, -14.460739, 55.750000
-33.290217, -14.405964, 55.875000
-33.290217, -14.405964, 56.000000
-33.416796, -14.460739, 56.125000
-33.163639, -14.351188, 56.250000
-33.290217, -14.405964, 56.375000
-33.290217, -14.405964, 56.500000
-33.290217, -14.405964, 56.625000
-33.037060, -14.296412, 56.750000
-33.037060, -14.296412, 56.875000
-32.910481, -14.241637, 57.000000
-21.644970, -9.366615, 73.000000
-21.518392, -9.311840, 73.125000
-21.644970, -9.366615, 73.250000
-21.644970, -9.366615, 73.375000
-21.771549, -9.421391, 73.500000
-21.771549, -9.421391, 73.625000
-21.898128, -9.476166, 73.750000
-22.024707, -9.530942, 73.875000
-22.024707, -9.530942, 74.000000
-22.151285, -9.585717, 74.125000
-22.151285, -9.585717, 74.250000
-22.404443, -9.695268, 74.375000
-22.531022, -9.750044, 74.500000
-22.531022, -9.750044, 74.625000
-22.910758, -9.914370, 74.750000
-22.910758, -9.914370, 74.875000
-23.037337, -9.969146, 75.000000
-23.163916, -10.023921, 75.125000
-23.290494, -10.078697, 75.250000
-23.543652, -10.188248, 75.375000
-23.670231, -10.243023, 75.500000
-23.796809, -10.297799, 75.625000
-24.049967, -10.407350, 75.750000
-24.303125, -10.516901, 75.875000
-24.303125, -10.516901, 76.000000
-24.429703, -10.571677, 76.125000
-24.682861, -10.681228, 76.250000
-24.809440, -10.736003, 76.375000
-25.062597, -10.845554, 76.500000
-25.189176, -10.900330, 76.625000
-25.315755, -10.955105, 76.750000
-25.568912, -11.064656, 76.875000
-25.695491, -11.119432, 77.000000
-25.948649, -11.228983, 77.125000
-26.075227, -11.283758, 77.250000
-26.328385, -11.393310, 77.375000
-26.454964, -11.448085, 77.500000
-26.581542, -11.502861, 77.625000
-26.961279, -11.667187, 77.750000
-26.961279, -11.667187, 77.875000
-27.214436, -11.776738, 78.000000
-27.341015, -11.831514, 78.125000
-27.594173, -11.941065, 78.250000
-27.847330, -12.050616, 78.375000
-27.847330, -12.050616, 78.500000
-27.973909, -12.105391, 78.625000
-28.100488, -12.160167, 78.750000
-28.100488, -12.160167, 78.875000
-28.227067, -12.214942, 79.000000
-28.353645, -12.269718, 79.125000
-28.480224, -12.324493, 79.250000
-28.480224, -12.324493, 79.375000
-27.954253, -13.154273, 30.125000
-27.954253, -13.154273, 30.250000
-28.203845, -13.271722, 30.375000
-28.453436, -13.389171, 30.500000
-28.203845, -13.271722, 30.625000
-28.578232, -13.447895, 30.750000
-28.827824, -13.565344, 30.875000
-28.952620, -13.624069, 31.000000
-28.827824, -13.565344, 31.125000
-29.077415, -13.682793, 31.250000
-29.077415, -13.682793, 31.375000
-28.952620, -13.624069, 31.500000
-29.202211, -13.741517, 31.625000
-29.202211, -13.741517, 31.750000
-29.327007, -13.800242, 31.875000
-29.576598, -13.917691, 32.000000
-29.451803, -13.858966, 32.125000
-29.576598, -13.917691, 32.250000
-29.576598, -13.917691, 32.375000
-29.701394, -13.976415, 32.500000
-29.826190, -14.035140, 32.625000
-29.826190, -14.035140, 32.750000
-29.950986, -14.093864, 32.875000
-29.950986, -14.093864, 33.000000
-29.950986, -14.093864, 33.125000
-30.075781, -14.152588, 33.250000
-30.200577, -14.211313, 33.375000
-30.200577, -14.211313, 33.500000
-30.325373, -14.270037, 33.625000
-30.325373, -14.270037, 33.750000
-30.325373, -14.270037, 33.875000
-30.450169, -14.328762, 34.000000
-30.450169, -14.328762, 34.125000
-30.574965, -14.387486, 34.250000
-30.699760, -14.446211, 34.375000
-30.699760, -14.446211, 34.500000
-30.699760, -14.446211, 34.625000
-30.824556, -14.504935, 34.750000
-30.824556, -14.504935, 34.875000
-30.949352, -14.563660, 35.000000
-30.949352, -14.563660, 35.125000
-31.074148, -14.622384, 35.250000
-31.074148, -14.622384, 35.375000
-31.198943, -14.681108, 35.500000
-31.198943, -14.681108, 35.625000
-31.323739, -14.739833, 35.750000
-31.323739, -14.739833, 35.875000
-31.323739, -14.739833, 36.000000
-31.448535, -14.798557, 36.125000
-31.448535, -14.798557, 36.250000
-31.573331, -14.857282, 36.375000
-31.573331, -14.857282, 36.500000
-31.698127, -14.916006, 36.625000
-31.698127, -14.916006, 36.750000
-31.698127, -14.916006, 36.875000
-31.822922, -14.974731, 37.000000
-31.822922, -14.974731, 37.125000
-31.822922, -14.974731, 37.250000
-31.822922, -14.974731, 37.375000
-31.947718, -15.033455, 37.500000
-31.947718, -15.033455, 37.625000
-32.072514, -15.092179, 37.750000
-32.072514, -15.092179, 37.875000
-32.072514, -15.092179, 38.000000
-32.197310, -15.150904, 38.125000
-32.197310, -15.150904, 38.250000
-32.322105, -15.209628, 38.375000
-32.322105, -15.209628, 38.500000
-32.322105, -15.209628, 38.625000
-32.322105, -15.209628, 38.750000
-32.322105, -15.209628, 38.875000
-32.446901, -15.268353, 39.000000
-32.446901, -15.268353, 39.125000
-32.571697, -15.327077, 39.250000
-32.571697, -15.327077, 39.375000
-32.571697, -15.327077, 39.500000
-32.571697, -15.327077, 39.625000
-32.696493, -15.385802, 39.750000
-32.696493, -15.385802, 39.875000
-32.821289, -15.444526, 40.000000
-32.821289, -15.444526, 40.125000
-32.821289, -15.444526, 40.250000
-32.821289, -15.444526, 40.375000
-32.821289, -15.444526, 40.500000
-32.946084, -15.503250, 40.625000
-32.946084, -15.503250, 40.750000
-32.946084, -15.503250, 40.875000
-33.070880, -15.561975, 41.000000
-33.070880, -15.561975, 41.125000
-33.070880, -15.561975, 41.250000
-33.070880, -15.561975, 41.375000
-33.070880, -15.561975, 41.500000
-33.195676, -15.620699, 41.625000
-33.195676, -15.620699, 41.750000
-33.195676, -15.620699, 41.875000
-33.445267, -15.738148, 42.000000
-33.070880, -15.561975, 42.125000
-33.320472, -15.679424, 42.250000
-33.320472, -15.679424, 42.375000
-33.320472, -15.679424, 42.500000
-33.320472, -15.679424, 42.625000
-33.320472, -15.679424, 42.750000
-33.320472, -15.679424, 42.875000
-33.445267, -15.738148, 43.000000
-33.445267, -15.738148, 43.125000
-33.445267, -15.738148, 43.250000
-33.445267, -15.738148, 43.375000
-33.445267, -15.738148, 43.500000
-33.570063, -15.796873, 43.625000
-33.570063, -15.796873, 43.750000
-33.570063, -15.796873, 43.875000
-33.570063, -15.796873, 44.000000
-33.570063, -15.796873, 44.125000
-33.570063, -15.796873, 44.250000
-33.570063, -15.796873, 44.375000
-33.570063, -15.796873, 44.500000
-33.694859, -15.855597, 44.625000
-33.694859, -15.855597, 44.750000
-33.694859, -15.855597, 44.875000
-33.694859, -15.855597, 45.000000
-33.694859, -15.855597, 45.125000
-33.694859, -15.855597, 45.250000
-33.694859, -15.855597, 45.375000
-33.694859, -15.855597, 45.500000
-33.819655, -15.914322, 45.625000
-33.819655, -15.914322, 45.750000
-33.819655, -15.914322, 45.875000
-33.819655, -15.914322, 46.000000
-33.819655, -15.914322, 46.125000
-33.819655, -15.914322, 46.250000
-33.819655, -15.914322, 46.375000
-33.819655, -15.914322, 46.500000
-33.819655, -15.914322, 46.625000
-33.819655, -15.914322, 46.750000
-33.819655, -15.914322, 46.875000
-33.819655, -15.914322, 47.000000
-33.819655, -15.914322, 47.125000
-33.819655, -15.914322, 47.250000
-33.819655, -15.914322, 47.375000
-33.819655, -15.914322, 47.500000
-33.819655, -15.914322, 47.625000
-33.819655, -15.914322, 47.750000
-33.819655, -15.914322, 47.875000
-33.819655, -15.914322, 48.000000
-33.819655, -15.914322, 48.125000
-33.819655, -15.914322, 48.250000
-33.819655, -15.914322, 48.375000
-33.819655, -15.914322, 48.500000
-33.819655, -15.914322, 48.625000
-33.819655, -15.914322, 48.750000
-33.819655, -15.914322, 48.875000
-33.819655, -15.914322, 49.000000
-33.819655, -15.914322, 49.125000
-33.944450, -15.973046, 49.250000
-33.819655, -15.914322, 49.375000
-33.944450, -15.973046, 49.500000
-33.944450, -15.973046, 49.625000
-33.944450, -15.973046, 49.750000
-33.819655, -15.914322, 49.875000
-33.944450, -15.973046, 50.000000
-33.819655, -15.914322, 50.125000
-33.819655, -15.914322, 50.250000
-33.819655, -15.914322, 50.375000
-33.819655, -15.914322, 50.500000
-33.819655, -15.914322, 50.625000
-33.819655, -15.914322, 50.750000
-33.819655, -15.914322, 50.875000
-33.819655, -15.914322, 51.000000
-33.694859, -15.855597, 51.125000
-33.694859, -15.855597, 51.250000
-33.694859, -15.855597, 51.375000
-33.694859, -15.855597, 51.500000
-33.694859, -15.855597, 51.625000
-33.694859, -15.855597, 51.750000
-33.694859, -15.855597, 51.875000
-33.694859, -15.855597, 52.000000
-33.570063, -15.796873, 52.125000
-33.694859, -15.855597, 52.250000
-33.570063, -15.796873, 52.375000
-33.570063, -15.796873, 52.500000
-33.570063, -15.796873, 52.625000
-33.570063, -15.796873, 52.750000
-33.570063, -15.796873, 52.875000
-33.570063, -15.796873, 53.000000
-33.445267, -15.738148, 53.125000
-33.445267, -15.738148, 53.250000
-33.445267, -15.738148, 53.375000
-33.445267, -15.738148, 53.500000
-33.320472, -15.679424, 53.625000
-33.445267, -15.738148, 53.750000
-33.320472, -15.679424, 53.875000
-33.445267, -15.738148, 54.000000
-33.195676, -15.620699, 54.125000
-33.195676, -15.620699, 54.250000
-33.070880, -15.561975, 54.375000
-33.195676, -15.620699, 54.500000
-33.195676, -15.620699, 54.625000
-33.070880, -15.561975, 54.750000
-33.070880, -15.561975, 54.875000
-32.946084, -15.503250, 55.000000
-33.070880, -15.561975, 55.125000
-33.070880, -15.561975, 55.250000
-33.070880, -15.561975, 55.375000
-33.070880, -15.561975, 55.500000
-32.946084, -15.503250, 55.625000
-32.946084, -15.503250, 55.750000
-32.946084, -15.503250, 55.875000
-32.946084, -15.503250, 56.000000
-32.946084, -15.503250, 56.125000
-32.821289, -15.444526, 56.250000
-32.821289, -15.444526, 56.375000
-32.821289, -15.444526, 56.500000
-32.696493, -15.385802, 56.625000
-32.696493, -15.385802, 56.750000
-32.571697, -15.327077, 56.875000
-32.696493, -15.385802, 57.000000
-32.446901, -15.268353, 57.250000
-21.340077, -10.041878, 72.875000
-21.215282, -9.983154, 73.000000
-21.215282, -9.983154, 73.125000
-21.215282, -9.983154, 73.250000
-21.340077, -10.041878, 73.375000
-21.340077, -10.041878, 73.500000
-21.464873, -10.100603, 73.625000
-21.589669, -10.159327, 73.750000
-21.589669, -10.159327, 73.875000
-21.714465, -10.218051, 74.000000
-21.839260, -10.276776, 74.125000
-21.839260, -10.276776, 74.250000
-21.964056, -10.335500, 74.375000
-22.088852, -10.394225, 74.500000
-22.213648, -10.452949, 74.625000
-22.338444, -10.511674, 74.750000
-22.463239, -10.570398, 74.875000
-22.712831, -10.687847, 75.000000
-22.837627, -10.746571, 75.125000
-22.962422, -10.805296, 75.250000
-23.087218, -10.864020, 75.375000
-23.336810, -10.981469, 75.500000
-23.336810, -10.981469, 75.625000
-23.586401, -11.098918, 75.750000
-23.711197, -11.157642, 75.875000
-23.835993, -11.216367, 76.000000
-24.085584, -11.333816, 76.125000
-24.210380, -11.392540, 76.250000
-24.459972, -11.509989, 76.375000
-24.584767, -11.568713, 76.500000
-24.834359, -11.686162, 76.625000
-24.959155, -11.744887, 76.750000
-25.083951, -11.803611, 76.875000
-25.333542, -11.921060, 77.000000
-25.583134, -12.038509, 77.125000
-25.707929, -12.097233, 77.250000
-25.832725, -12.155958, 77.375000
-26.082317, -12.273407, 77.500000
-26.331908, -12.390855, 77.625000
-26.456704, -12.449580, 77.750000
-26.706296, -12.567029, 77.875000
-26.831091, -12.625753, 78.000000
-26.955887, -12.684478, 78.125000
-27.205479, -12.801927, 78.250000
-27.330274, -12.860651, 78.375000
-27.455070, -12.919375, 78.500000
-27.704662, -13.036824, 78.625000
-27.704662, -13.036824, 78.750000
-27.704662, -13.036824, 78.875000
-27.954253, -13.154273, 79.000000
-27.954253, -13.154273, 79.125000
-28.079049, -13.212998, 79.250000
-28.079049, -13.212998, 79.375000
-27.281495, -13.900616, 30.000000
-27.404384, -13.963231, 30.125000
-27.527274, -14.025847, 30.250000
-27.650163, -14.088462, 30.375000
-27.650163, -14.088462, 30.500000
-28.018832, -14.276308, 30.625000
-28.141722, -14.338924, 30.750000
-28.264612, -14.401539, 30.875000
-28.387501, -14.464154, 31.000000
-28.387501, -14.464154, 31.125000
-28.387501, -14.464154, 31.250000
-28.633280, -14.589385, 31.375000
-28.633280, -14.589385, 31.500000
-28.756170, -14.652000, 31.625000
-28.756170, -14.652000, 31.750000
-28.756170, -14.652000, 31.875000
-29.001949, -14.777231, 32.000000
-29.001949, -14.777231, 32.125000
-29.001949, -14.777231, 32.250000
-29.124839, -14.839847, 32.375000
-29.247729, -14.902462, 32.500000
-29.247729, -14.902462, 32.625000
-29.370618, -14.965077, 32.750000
-29.370618, -14.965077, 32.875000
-29.493508, -15.027693, 33.000000
-29.493508, -15.027693, 33.125000
-29.616397, -15.090308, 33.250000
-29.739287, -15.152924, 33.375000
-29.739287, -15.152924, 33.500000
-29.739287, -15.152924, 33.625000
-29.862177, -15.215539, 33.750000
-29.862177, -15.215539, 33.875000
-29.862177, -15.215539, 34.000000
-29.985066, -15.278154, 34.125000
-29.985066, -15.278154, 34.250000
-30.107956, -15.340770, 34.375000
-30.230845, -15.403385, 34.500000
-30.230845, -15.403385, 34.625000
-30.353735, -15.466000, 34.750000
-30.353735, -15.466000, 34.875000
-30.476625, -15.528616, 35.000000
-30.599514, -15.591231, 35.125000
-30.353735, -15.466000, 35.250000
-30.599514, -15.591231, 35.375000
-30.599514, -15.591231, 35.500000
-30.722404, -15.653847, 35.625000
-30.845294, -15.716462, 35.750000
-30.845294, -15.716462, 35.875000
-30.845294, -15.716462, 36.000000
-30.968183, -15.779077, 36.125000
-30.968183, -15.779077, 36.250000
-30.968183, -15.779077, 36.375000
-31.091073, -15.841693, 36.500000
-31.091073, -15.841693, 36.625000
-31.091073, -15.841693, 36.750000
-31.213962, -15.904308, 36.875000
-31.213962, -15.904308, 37.000000
-31.336852, -15.966924, 37.125000
-31.336852, -15.966924, 37.250000
-31.336852, -15.966924, 37.375000
-31.459742, -16.029539, 37.500000
-31.459742, -16.029539, 37.625000
-31.582631, -16.092154, 37.750000
-31.582631, -16.092154, 37.875000
-31.582631, -16.092154, 38.000000
-31.705521, -16.154770, 38.125000
-31.705521, -16.154770, 38.250000
-31.705521, -16.154770, 38.375000
-31.828410, -16.217385, 38.500000
-31.828410, -16.217385, 38.625000
-31.828410, -16.217385, 38.750000
-31.828410, -16.217385, 38.875000
-31.951300, -16.280001, 39.000000
-31.951300, -16.280001, 39.125000
-31.951300, -16.280001, 39.250000
-32.074190, -16.342616, 39.375000
-32.074190, -16.342616, 39.500000
-32.074190, -16.342616, 39.625000
-32.197079, -16.405231, 39.750000
-32.197079, -16.405231, 39.875000
-32.197079, -16.405231, 40.000000
-32.197079, -16.405231, 40.125000
-32.319969, -16.467847, 40.250000
-32.319969, -16.467847, 40.375000
-32.319969, -16.467847, 40.500000
-32.442859, -16.530462, 40.625000
-32.442859, -16.530462, 40.750000
-32.442859, -16.530462, 40.875000
-32.442859, -16.530462, 41.000000
-32.565748, -16.593077, 41.125000
-32.565748, -16.593077, 41.250000
-32.565748, -16.593077, 41.375000
-32.565748, -16.593077, 41.500000
-32.565748, -16.593077, 41.625000
-32.688638, -16.655693, 41.750000
-32.688638, -16.655693, 41.875000
-32.688638, -16.655693, 42.000000
-32.688638, -16.655693, 42.125000
-32.688638, -16.655693, 42.250000
-32.688638, -16.655693, 42.375000
-32.811527, -16.718308, 42.500000
-32.811527, -16.718308, 42.625000
-32.811527, -16.718308, 42.750000
-32.811527, -16.718308, 42.875000
-32.811527, -16.718308, 43.000000
-32.934417, -16.780924, 43.125000
-32.934417, -16.780924, 43.250000
-32.934417, -16.780924, 43.375000
-32.934417, -16.780924, 43.500000
-32.934417, -16.780924, 43.625000
-32.934417, -16.780924, 43.750000
-33.057307, -16.843539, 43.875000
-33.057307, -16.843539, 44.000000
-33.057307, -16.843539, 44.125000
-33.057307, -16.843539, 44.250000
-33.057307, -16.843539, 44.375000
-33.057307, -16.843539, 44.500000
-33.057307, -16.843539, 44.625000
-33.057307, -16.843539, 44.750000
-33.057307, -16.843539, 44.875000
-33.180196, -16.906154, 45.000000
-33.180196, -16.906154, 45.125000
-33.180196, -16.906154, 45.250000
-33.180196, -16.906154, 45.375000
-33.180196, -16.906154, 45.500000
-33.180196, -16.906154, 45.625000
-33.180196, -16.906154, 45.750000
-33.180196, -16.906154, 45.875000
-33.303086, -16.968770, 46.000000
-33.303086, -16.968770, 46.125000
-33.303086, -16.968770, 46.250000
-33.303086, -16.968770, 46.375000
-33.303086, -16.968770, 46.500000
-33.303086, -16.968770, 46.625000
-33.303086, -16.968770, 46.750000
-33.303086, -16.968770, 46.875000
-33.303086, -16.968770, 47.000000
-33.303086, -16.968770, 47.125000
-33.303086, -16.968770, 47.250000
-33.303086, -16.968770, 47.375000
-33.303086, -16.968770, 47.500000
-33.303086, -16.968770, 47.625000
-33.303086, -16.968770, 47.750000
-33.303086, -16.968770, 47.875000
-33.303086, -16.968770, 48.000000
-33.303086, -16.968770, 48.125000
-33.303086, -16.968770, 48.250000
-33.303086, -16.968770, 48.375000
-33.303086, -16.968770, 48.500000
-33.303086, -16.968770, 48.625000
-33.303086, -16.968770, 48.750000
-33.303086, -16.968770, 48.875000
-33.303086, -16.968770, 49.000000
-33.303086, -16.968770, 49.125000
-33.303086, -16.968770, 49.250000
-33.303086, -16.968770, 49.375000
-33.303086, -16.968770, 49.500000
-33.303086, -16.968770, 49.625000
-33.303086, -16.968770, 49.750000
-33.303086, -16.968770, 49.875000
-33.303086, -16.968770, 50.000000
-33.303086, -16.968770, 50.125000
-33.303086, -16.968770, 50.250000
-33.303086, -16.968770, 50.375000
-33.180196, -16.906154, 50.500000
-33.303086, -16.968770, 50.625000
-33.180196, -16.906154, 50.750000
-33.180196, -16.906154, 50.875000
-33.180196, -16.906154, 51.000000
-33.303086, -16.968770, 51.125000
-33.180196, -16.906154, 51.250000
-33.180196, -16.906154, 51.375000
-33.180196, -16.906154, 51.500000
-33.180196, -16.906154, 51.625000
-33.180196, -16.906154, 51.750000
-33.180196, -16.906154, 51.875000
-33.180196, -16.906154, 52.000000
-33.057307, -16.843539, 52.125000
-33.057307, -16.843539, 52.250000
-33.057307, -16.843539, 52.375000
-33.057307, -16.843539, 52.500000
-33.057307, -16.843539, 52.625000
-33.057307, -16.843539, 52.750000
-32.934417, -16.780924, 52.875000
-32.934417, -16.780924, 53.000000
-32.934417, -16.780924, 53.125000
-32.934417, -16.780924, 53.250000
-32.934417, -16.780924, 53.375000
-32.811527, -16.718308, 53.500000
-32.934417, -16.780924, 53.625000
-32.934417, -16.780924, 53.750000
-32.811527, -16.718308, 53.875000
-32.811527, -16.718308, 54.000000
-32.688638, -16.655693, 54.125000
-32.688638, -16.655693, 54.250000
-32.688638, -16.655693, 54.375000
-32.811527, -16.718308, 54.500000
-32.688638, -16.655693, 54.625000
-32.688638, -16.655693, 54.750000
-32.565748, -16.593077, 54.875000
-32.565748, -16.593077, 55.000000
-32.565748, -16.593077, 55.125000
-32.565748, -16.593077, 55.250000
-32.565748, -16.593077, 55.375000
-32.442859, -16.530462, 55.500000
-32.442859, -16.530462, 55.625000
-32.442859, -16.530462, 55.750000
-32.319969, -16.467847, 55.875000
-32.197079, -16.405231, 56.000000
-32.197079, -16.405231, 56.125000
-32.197079, -16.405231, 56.250000
-32.074190, -16.342616, 56.375000
-32.074190, -16.342616, 56.500000
-32.074190, -16.342616, 56.625000
-31.951300, -16.280001, 56.750000
-31.828410, -16.217385, 56.875000
-20.891235, -10.644616, 72.875000
-20.768345, -10.582000, 73.000000
-20.891235, -10.644616, 73.125000
-20.891235, -10.644616, 73.250000
-21.014124, -10.707231, 73.375000
-21.014124, -10.707231, 73.500000
-21.014124, -10.707231, 73.625000
-21.137014, -10.769846, 73.750000
-21.259903, -10.832462, 73.875000
-21.259903, -10.832462, 74.000000
-21.382793, -10.895077, 74.125000
-21.505683, -10.957693, 74.250000
-21.628572, -11.020308, 74.375000
-21.751462, -11.082923, 74.500000
-21.874352, -11.145539, 74.625000
-21.997241, -11.208154, 74.750000
-22.120131, -11.270770, 74.875000
-22.243020, -11.333385, 75.000000
-22.365910, -11.396000, 75.125000
-22.611689, -11.521231, 75.250000
-22.734579, -11.583847, 75.375000
-22.857468, -11.646462, 75.500000
-22.980358, -11.709077, 75.625000
-23.226137, -11.834308, 75.750000
-23.349027, -11.896923, 75.875000
-23.471917, -11.959539, 76.000000
-23.717696, -12.084770, 76.125000
-23.840585, -12.147385, 76.250000
-23.963475, -12.210000, 76.375000
-24.209254, -12.335231, 76.500000
-24.332144, -12.397847, 76.625000
-24.577923, -12.523077, 76.750000
-24.700813, -12.585693, 76.875000
-24.946592, -12.710923, 77.000000
-25.192371, -12.836154, 77.125000
-25.315261, -12.898770, 77.250000
-25.438150, -12.961385, 77.375000
-25.683930, -13.086616, 77.500000
-25.929709, -13.211847, 77.625000
-26.052598, -13.274462, 77.750000
-26.175488, -13.337077, 77.875000
-26.298378, -13.399693, 78.000000
-26.667047, -13.587539, 78.125000
-26.667047, -13.587539, 78.250000
-26.912826, -13.712770, 78.375000
-27.035715, -13.775385, 78.500000
-27.158605, -13.838000, 78.625000
-27.158605, -13.838000, 78.750000
-27.158605, -13.838000, 78.875000
-27.404384, -13.963231, 79.000000
-27.527274, -14.025847, 79.125000
-27.404384, -13.963231, 79.250000
-27.527274, -14.025847, 79.375000
-26.831404, -14.750689, 30.000000
-26.831404, -14.750689, 30.125000
-26.952266, -14.817134, 30.250000
-27.073128, -14.883578, 30.375000
-27.073128, -14.883578, 30.500000
-27.073128, -14.883578, 30.625000
-27.677439, -15.215801, 30.750000
-27.677439, -15.215801, 30.875000
-27.798301, -15.282246, 31.000000
-27.919164, -15.348690, 31.125000
-27.919164, -15.348690, 31.250000
-28.160888, -15.481579, 31.375000
-28.160888, -15.481579, 31.500000
-28.160888, -15.481579, 31.625000
-28.040026, -15.415135, 31.750000
-28.281750, -15.548024, 31.875000
-28.402612, -15.614468, 32.000000
-28.402612, -15.614468, 32.125000
-28.523475, -15.680913, 32.250000
-28.765199, -15.813802, 32.375000
-28.644337, -15.747357, 32.500000
-28.765199, -15.813802, 32.625000
-28.765199, -15.813802, 32.750000
-28.886061, -15.880246, 32.875000
-28.886061, -15.880246, 33.000000
-29.006923, -15.946691, 33.125000
-29.006923, -15.946691, 33.250000
-29.127785, -16.013136, 33.375000
-29.127785, -16.013136, 33.500000
-29.248648, -16.079580, 33.625000
-29.248648, -16.079580, 33.750000
-29.369510, -16.146025, 33.875000
-29.369510, -16.146025, 34.000000
-29.369510, -16.146025, 34.125000
-29.490372, -16.212469, 34.250000
-29.611234, -16.278914, 34.375000
-29.611234, -16.278914, 34.500000
-29.611234, -16.278914, 34.625000
-29.732096, -16.345358, 34.750000
-29.732096, -16.345358, 34.875000
-29.852958, -16.411803, 35.000000
-29.852958, -16.411803, 35.125000
-29.973821, -16.478247, 35.250000
-29.852958, -16.411803, 35.375000
-30.094683, -16.544692, 35.500000
-30.094683, -16.544692, 35.625000
-30.215545, -16.611136, 35.750000
-30.215545, -16.611136, 35.875000
-30.215545, -16.611136, 36.000000
-30.336407, -16.677581, 36.125000
-30.336407, -16.677581, 36.250000
-30.457269, -16.744026, 36.375000
-30.457269, -16.744026, 36.500000
-30.578132, -16.810470, 36.625000
-30.578132, -16.810470, 36.750000
-30.578132, -16.810470, 36.875000
-30.698994, -16.876915, 37.000000
-30.698994, -16.876915, 37.125000
-30.819856, -16.943359, 37.250000
-30.819856, -16.943359, 37.375000
-30.819856, -16.943359, 37.500000
-30.940718, -17.009804, 37.625000
-30.940718, -17.009804, 37.750000
-30.940718, -17.009804, 37.875000
-31.061580, -17.076248, 38.000000
-31.061580, -17.076248, 38.125000
-31.061580, -17.076248, 38.250000
-31.182442, -17.142693, 38.375000
-31.182442, -17.142693, 38.500000
-31.182442, -17.142693, 38.625000
-31.303305, -17.209137, 38.750000
-31.303305, -17.209137, 38.875000
-31.303305, -17.209137, 39.000000
-31.303305, -17.209137, 39.125000
-31.303305, -17.209137, 39.250000
-31.424167, -17.275582, 39.375000
-31.424167, -17.275582, 39.500000
-31.424167, -17.275582, 39.625000
-31.545029, -17.342026, 39.750000
-31.545029, -17.342026, 39.875000
-31.665891, -17.408471, 40.000000
-31.665891, -17.408471, 40.125000
-31.665891, -17.408471, 40.250000
-31.786753, -17.474916, 40.375000
-31.786753, -17.474916, 40.500000
-31.786753, -17.474916, 40.625000
-31.786753, -17.474916, 40.750000
-31.786753, -17.474916, 40.875000
-31.907616, -17.541360, 41.000000
-31.907616, -17.541360, 41.125000
-31.907616, -17.541360, 41.250000
-31.907616, -17.541360, 41.375000
-31.907616, -17.541360, 41.500000
-32.028478, -17.607805, 41.625000
-32.028478, -17.607805, 41.750000
-32.028478, -17.607805, 41.875000
-32.028478, -17.607805, 42.000000
-32.028478, -17.607805, 42.125000
-32.149340, -17.674249, 42.250000
-32.149340, -17.674249, 42.375000
-32.149340, -17.674249, 42.500000
-32.149340, -17.674249, 42.625000
-32.149340, -17.674249, 42.750000
-32.270202, -17.740694, 42.875000
-32.270202, -17.740694, 43.000000
-32.270202, -17.740694, 43.125000
-32.270202, -17.740694, 43.250000
-32.270202, -17.740694, 43.375000
-32.270202, -17.740694, 43.500000
-32.391064, -17.807138, 43.625000
-32.391064, -17.807138, 43.750000
-32.391064, -17.807138, 43.875000
-32.391064, -17.807138, 44.000000
-32.391064, -17.807138, 44.125000
-32.391064, -17.807138, 44.250000
-32.391064, -17.807138, 44.375000
-32.511926, -17.873583, 44.500000
-32.511926, -17.873583, 44.625000
-32.511926, -17.873583, 44.750000
-32.511926, -17.873583, 44.875000
-32.511926, -17.873583, 45.000000
-32.511926, -17.873583, 45.125000
-32.511926, -17.873583, 45.250000
-32.511926, -17.873583, 45.375000
-32.511926, -17.873583, 45.500000
-32.632789, -17.940027, 45.625000
-32.632789, -17.940027, 45.750000
-32.632789, -17.940027, 45.875000
-32.632789, -17.940027, 46.000000
-32.632789, -17.940027, 46.125000
-32.632789, -17.940027, 46.250000
-32.632789, -17.940027, 46.375000
-32.632789, -17.940027, 46.500000
-32.632789, -17.940027, 46.625000
-32.632789, -17.940027, 46.750000
-32.632789, -17.940027, 46.875000
-32.632789, -17.940027, 47.000000
-32.632789, -17.940027, 47.125000
-32.632789, -17.940027, 47.250000
-32.632789, -17.940027, 47.375000
-32.632789, -17.940027, 47.500000
-32.632789, -17.940027, 47.625000
-32.632789, -17.940027, 47.750000
-32.632789, -17.940027, 47.875000
-32.632789, -17.940027, 48.000000
-32.632789, -17.940027, 48.125000
-32.632789, -17.940027, 48.250000
-32.632789, -17.940027, 48.375000
-32.632789, -17.940027, 48.500000
-32.632789, -17.940027, 48.625000
-32.632789, -17.940027, 48.750000
-32.632789, -17.940027, 48.875000
-32.632789, -17.940027, 49.000000
-32.632789, -17.940027, 49.125000
-32.632789, -17.940027, 49.250000
-32.632789, -17.940027, 49.375000
-32.753651, -18.006472, 49.500000
-32.753651, -18.006472, 49.625000
-32.632789, -17.940027, 49.750000
-32.632789, -17.940027, 49.875000
-32.632789, -17.940027, 50.000000
-32.632789, -17.940027, 50.125000
-32.632789, -17.940027, 50.250000
-32.632789, -17.940027, 50.375000
-32.632789, -17.940027, 50.500000
-32.632789, -17.940027, 50.625000
-32.632789, -17.940027, 50.750000
-32.632789, -17.940027, 50.875000
-32.632789, -17.940027, 51.000000
-32.632789, -17.940027, 51.125000
-32.632789, -17.940027, 51.250000
-32.632789, -17.940027, 51.375000
-32.632789, -17.940027, 51.500000
-32.632789, -17.940027, 51.625000
-32.511926, -17.873583, 51.750000
-32.511926, -17.873583, 51.875000
-32.511926, -17.873583, 52.000000
-32.511926, -17.873583, 52.125000
-32.511926, -17.873583, 52.250000
-32.511926, -17.873583, 52.375000
-32.511926, -17.873583, 52.500000
-32.391064, -17.807138, 52.625000
-32.391064, -17.807138, 52.750000
-32.391064, -17.807138, 52.875000
-32.391064, -17.807138, 53.000000
-32.391064, -17.807138, 53.125000
-32.391064, -17.807138, 53.250000
-32.391064, -17.807138, 53.375000
-32.270202, -17.740694, 53.500000
-32.270202, -17.740694, 53.625000
-32.270202, -17.740694, 53.750000
-32.149340, -17.674249, 53.875000
-32.149340, -17.674249, 54.000000
-32.270202, -17.740694, 54.125000
-32.270202, -17.740694, 54.250000
-32.149340, -17.674249, 54.375000
-32.149340, -17.674249, 54.500000
-32.149340, -17.674249, 54.625000
-32.028478, -17.607805, 54.750000
-32.028478, -17.607805, 54.875000
-32.149340, -17.674249, 55.000000
-32.028478, -17.607805, 55.125000
-31.907616, -17.541360, 55.250000
-31.907616, -17.541360, 55.375000
-31.907616, -17.541360, 55.500000
-32.028478, -17.607805, 55.625000
-31.786753, -17.474916, 55.750000
-31.665891, -17.408471, 55.875000
-31.665891, -17.408471, 56.000000
-31.545029, -17.342026, 56.125000
-31.545029, -17.342026, 56.250000
-31.545029, -17.342026, 56.375000
-31.545029, -17.342026, 56.500000
-31.665891, -17.408471, 56.625000
-31.424167, -17.275582, 56.750000
-31.424167, -17.275582, 56.875000
-20.546571, -11.295573, 72.875000
-20.425708, -11.229128, 73.000000
-20.425708, -11.229128, 73.125000
-20.546571, -11.295573, 73.250000
-20.667433, -11.362017, 73.375000
-20.667433, -11.362017, 73.500000
-20.667433, -11.362017, 73.625000
-20.788295, -11.428462, 73.750000
-20.909157, -11.494906, 73.875000
-20.909157, -11.494906, 74.000000
-21.030019, -11.561351, 74.125000
-21.030019, -11.561351, 74.250000
-21.150882, -11.627796, 74.375000
-21.271744, -11.694240, 74.500000
-21.392606, -11.760685, 74.625000
-21.513468, -11.827129, 74.750000
-21.634330, -11.893574, 74.875000
-21.876055, -12.026463, 75.000000
-21.996917, -12.092907, 75.125000
-22.238641, -12.225796, 75.250000
-22.359503, -12.292241, 75.375000
-22.480366, -12.358686, 75.500000
-22.601228, -12.425130, 75.625000
-22.842952, -12.558019, 75.750000
-22.963814, -12.624464, 75.875000
-23.084676, -12.690908, 76.000000
-23.326401, -12.823797, 76.125000
-23.447263, -12.890242, 76.250000
-23.568125, -12.956686, 76.375000
-23.809849, -13.089576, 76.500000
-23.930712, -13.156020, 76.625000
-24.172436, -13.288909, 76.750000
-24.293298, -13.355354, 76.875000
-24.414160, -13.421798, 77.000000
-24.535023, -13.488243, 77.125000
-24.897609, -13.687576, 77.250000
-25.018471, -13.754021, 77.375000
-25.260196, -13.886910, 77.500000
-25.381058, -13.953355, 77.625000
-25.622782, -14.086244, 77.750000
-25.743644, -14.152688, 77.875000
-25.864507, -14.219133, 78.000000
-25.985369, -14.285577, 78.125000
-26.227093, -14.418466, 78.250000
-26.347955, -14.484911, 78.375000
-26.468817, -14.551356, 78.500000
-26.589680, -14.617800, 78.625000
-26.831404, -14.750689, 78.750000
-26.831404, -14.750689, 78.875000
-26.952266, -14.817134, 79.000000
-27.073128, -14.883578, 79.125000
-27.073128, -14.883578, 79.250000
-27.073128, -14.883578, 79.375000
-26.117403, -15.445789, 29.750000
-26.236118, -15.515997, 29.875000
-26.236118, -15.515997, 30.000000
-26.473549, -15.656413, 30.125000
-26.710980, -15.796830, 30.250000
-26.592265, -15.726622, 30.375000
-26.710980, -15.796830, 30.500000
-26.710980, -15.796830, 30.625000
-26.829696, -15.867038, 30.750000
-26.948411, -15.937246, 30.875000
-27.185842, -16.077662, 31.000000
-27.423273, -16.218079, 31.125000
-27.423273, -16.218079, 31.250000
-27.541989, -16.288287, 31.375000
-27.541989, -16.288287, 31.500000
-27.660704, -16.358495, 31.625000
-27.660704, -16.358495, 31.750000
-27.779420, -16.428703, 31.875000
-27.898135, -16.498911, 32.000000
-27.898135, -16.498911, 32.125000
-28.016851, -16.569119, 32.250000
-28.016851, -16.569119, 32.375000
-28.254281, -16.709535, 32.500000
-28.135566, -16.639327, 32.625000
-28.254281, -16.709535, 32.750000
-28.254281, -16.709535, 32.875000
-28.372997, -16.779744, 33.000000
-28.491712, -16.849952, 33.125000
-28.491712, -16.849952, 33.250000
-28.491712, -16.849952, 33.375000
-28.610428, -16.920160, 33.500000
-28.729143, -16.990368, 33.625000
-28.729143, -16.990368, 33.750000
-28.729143, -16.990368, 33.875000
-28.847859, -17.060576, 34.000000
-28.847859, -17.060576, 34.125000
-28.966574, -17.130784, 34.250000
-29.085290, -17.200992, 34.375000
-29.085290, -17.200992, 34.500000
-29.085290, -17.200992, 34.625000
-29.204005, -17.271201, 34.750000
-29.322721, -17.341409, 34.875000
-29.322721, -17.341409, 35.000000
-29.322721, -17.341409, 35.125000
-29.441436, -17.411617, 35.250000
-29.560152, -17.481825, 35.375000
-29.560152, -17.481825, 35.500000
-29.560152, -17.481825, 35.625000
-29.560152, -17.481825, 35.750000
-29.678867, -17.552033, 35.875000
-29.797583, -17.622241, 36.000000
-29.797583, -17.622241, 36.125000
-29.797583, -17.622241, 36.250000
-29.797583, -17.622241, 36.375000
-29.916298, -17.692449, 36.500000
-29.916298, -17.692449, 36.625000
-30.035013, -17.762657, 36.750000
-30.035013, -17.762657, 36.875000
-30.153729, -17.832866, 37.000000
-30.153729, -17.832866, 37.125000
-30.153729, -17.832866, 37.250000
-30.272444, -17.903074, 37.375000
-30.272444, -17.903074, 37.500000
-30.272444, -17.903074, 37.625000
-30.391160, -17.973282, 37.750000
-30.391160, -17.973282, 37.875000
-30.509875, -18.043490, 38.000000
-30.509875, -18.043490, 38.125000
-30.509875, -18.043490, 38.250000
-30.509875, -18.043490, 38.375000
-30.628591, -18.113698, 38.500000
-30.628591, -18.113698, 38.625000
-30.747306, -18.183906, 38.750000
-30.747306, -18.183906, 38.875000
-30.747306, -18.183906, 39.000000
-30.747306, -18.183906, 39.125000
-30.747306, -18.183906, 39.250000
-30.866022, -18.254114, 39.375000
-30.866022, -18.254114, 39.500000
-30.866022, -18.254114, 39.625000
-30.984737, -18.324323, 39.750000
-30.984737, -18.324323, 39.875000
-30.984737, -18.324323, 40.000000
-31.103453, -18.394531, 40.125000
-31.103453, -18.394531, 40.250000
-31.103453, -18.394531, 40.375000
-31.222168, -18.464739, 40.500000
-31.222168, -18.464739, 40.625000
-31.222168, -18.464739, 40.750000
-31.222168, -18.464739, 40.875000
-31.222168, -18.464739, 41.000000
-31.340884, -18.534947, 41.125000
-31.340884, -18.534947, 41.250000
-31.340884, -18.534947, 41.375000
-31.222168, -18.464739, 41.500000
-31.459599, -18.605155, 41.625000
-31.459599, -18.605155, 41.750000
-31.459599, -18.605155, 41.875000
-31.459599, -18.605155, 42.000000
-31.459599, -18.605155, 42.125000
-31.459599, -18.605155, 42.250000
-31.578315, -18.675363, 42.375000
-31.578315, -18.675363, 42.500000
-31.578315, -18.675363, 42.625000
-31.578315, -18.675363, 42.750000
-31.697030, -18.745571, 42.875000
-31.697030, -18.745571, 43.000000
-31.697030, -18.745571, 43.125000
-31.697030, -18.745571, 43.250000
-31.697030, -18.745571, 43.375000
-31.697030, -18.745571, 43.500000
-31.697030, -18.745571, 43.625000
-31.815746, -18.815779, 43.750000
-31.815746, -18.815779, 43.875000
-31.815746, -18.815779, 44.000000
-31.815746, -18.815779, 44.125000
-31.815746, -18.815779, 44.250000
-31.815746, -18.815779, 44.375000
-31.934461, -18.885988, 44.500000
-31.934461, -18.885988, 44.625000
-31.934461, -18.885988, 44.750000
-31.934461, -18.885988, 44.875000
-31.934461, -18.885988, 45.000000
-31.934461, -18.885988, 45.125000
-31.934461, -18.885988, 45.250000
-31.934461, -18.885988, 45.375000
-31.934461, -18.885988, 45.500000
-31.934461, -18.885988, 45.625000
-32.053176, -18.956196, 45.750000
-32.053176, -18.956196, 45.875000
-32.053176, -18.956196, 46.000000
-32.053176, -18.956196, 46.125000
-32.053176, -18.956196, 46.250000
-32.053176, -18.956196, 46.375000
-32.053176, -18.956196, 46.500000
-32.053176, -18.956196, 46.625000
-32.053176, -18.956196, 46.750000
-32.053176, -18.956196, 46.875000
-32.053176, -18.956196, 47.000000
-32.053176, -18.956196, 47.125000
-32.053176, -18.956196, 47.250000
-32.053176, -18.956196, 47.375000
-32.053176, -18.956196, 47.500000
-32.053176, -18.956196, 47.625000
-32.053176, -18.956196, 47.750000
-32.053176, -18.956196, 47.875000
-32.053176, -18.956196, 48.000000
-32.053176, -18.956196, 48.125000
-32.053176, -18.956196, 48.250000
-32.053176, -18.956196, 48.375000
-32.053176, -18.956196, 48.500000
-32.053176, -18.956196, 48.625000
-32.053176, -18.956196, 48.750000
-32.053176, -18.956196, 48.875000
-32.053176, -18.956196, 49.000000
-32.053176, -18.956196, 49.125000
-32.053176, -18.956196, 49.250000
-32.053176, -18.956196, 49.375000
-32.053176, -18.956196, 49.500000
-32.053176, -18.956196, 49.625000
-32.053176, -18.956196, 49.750000
-32.053176, -18.956196, 49.875000
-32.053176, -18.956196, 50.000000
-32.053176, -18.956196, 50.125000
-32.053176, -18.956196, 50.250000
-32.053176, -18.956196, 50.375000
-32.053176, -18.956196, 50.500000
-32.053176, -18.956196, 50.625000
-32.053176, -18.956196, 50.750000
-32.053176, -18.956196, 50.875000
-32.053176, -18.956196, 51.000000
-32.053176, -18.956196, 51.125000
-32.053176, -18.956196, 51.250000
-31.934461, -18.885988, 51.375000
-31.934461, -18.885988, 51.500000
-31.934461, -18.885988, 51.625000
-31.934461, -18.885988, 51.750000
-31.934461, -18.885988, 51.875000
-31.934461, -18.885988, 52.000000
-31.934461, -18.885988, 52.125000
-31.934461, -18.885988, 52.250000
-31.934461, -18.885988, 52.375000
-31.815746, -18.815779, 52.500000
-31.815746, -18.815779, 52.625000
-31.815746, -18.815779, 52.750000
-31.815746, -18.815779, 52.875000
-31.815746, -18.815779, 53.000000
-31.815746, -18.815779, 53.125000
-31.815746, -18.815779, 53.250000
-31.697030, -18.745571, 53.375000
-31.697030, -18.745571, 53.500000
-31.697030, -18.745571, 53.625000
-31.578315, -18.675363, 53.750000
-31.578315, -18.675363, 53.875000
-31.578315, -18.675363, 54.000000
-31.578315, -18.675363, 54.125000
-31.578315, -18.675363, 54.250000
-31.578315, -18.675363, 54.375000
-31.578315, -18.675363, 54.500000
-31.578315, -18.675363, 54.625000
-31.340884, -18.534947, 54.750000
-31.340884, -18.534947, 54.875000
-31.340884, -18.534947, 55.000000
-31.340884, -18.534947, 55.125000
-31.340884, -18.534947, 55.250000
-31.340884, -18.534947, 55.375000
-31.340884, -18.534947, 55.500000
-31.222168, -18.464739, 55.625000
-31.103453, -18.394531, 55.750000
-31.103453, -18.394531, 55.875000
-31.103453, -18.394531, 56.000000
-31.103453, -18.394531, 56.125000
-30.984737, -18.324323, 56.250000
-30.984737, -18.324323, 56.375000
-30.866022, -18.254114, 56.500000
-30.984737, -18.324323, 56.625000
-30.747306, -18.183906, 56.750000
-30.747306, -18.183906, 56.875000
-20.062914, -11.865174, 72.875000
-20.062914, -11.865174, 73.000000
-20.062914, -11.865174, 73.125000
-20.181630, -11.935382, 73.250000
-20.181630, -11.935382, 73.375000
-20.181630, -11.935382, 73.500000
-20.300345, -12.005591, 73.625000
-20.419061, -12.075799, 73.750000
-20.419061, -12.075799, 73.875000
-20.537776, -12.146007, 74.000000
-20.656491, -12.216215, 74.125000
-20.656491, -12.216215, 74.250000
-20.893922, -12.356631, 74.375000
-20.893922, -12.356631, 74.500000
-21.012638, -12.426839, 74.625000
-21.131353, -12.497048, 74.750000
-21.250069, -12.567256, 74.875000
-21.487500, -12.707672, 75.000000
-21.606215, -12.777880, 75.125000
-21.724931, -12.848088, 75.250000
-21.962362, -12.988504, 75.375000
-22.081077, -13.058713, 75.500000
-22.199793, -13.128921, 75.625000
-22.318508, -13.199129, 75.750000
-22.437224, -13.269337, 75.875000
-22.674654, -13.409753, 76.000000
-22.793370, -13.479961, 76.125000
-22.912085, -13.550170, 76.250000
-23.149516, -13.690586, 76.375000
