-39.589726, -20.171973, 40.875000
-39.589726, -20.171973, 41.000000
-39.589726, -20.171973, 41.125000
-39.589726, -20.171973, 41.250000
-39.589726, -20.171973, 41.375000
-39.589726, -20.171973, 41.500000
-39.589726, -20.171973, 41.625000
-39.589726, -20.171973, 41.750000
-40.020049, -20.391233, 41.875000
-40.020049, -20.391233, 42.000000
-40.450372, -20.610494, 42.125000
-40.020049, -20.391233, 42.250000
-40.450372, -20.610494, 42.375000
-40.450372, -20.610494, 42.500000
-40.450372, -20.610494, 42.625000
-40.450372, -20.610494, 42.750000
-40.450372, -20.610494, 42.875000
-40.450372, -20.610494, 43.000000
-40.880695, -20.829755, 43.125000
-40.450372, -20.610494, 43.250000
-40.450372, -20.610494, 43.375000
-40.880695, -20.829755, 43.500000
-41.311018, -21.049015, 43.625000
-41.311018, -21.049015, 43.750000
-40.880695, -20.829755, 43.875000
-40.880695, -20.829755, 44.000000
-40.880695, -20.829755, 44.125000
-40.880695, -20.829755, 44.250000
-40.880695, -20.829755, 44.375000
-40.880695, -20.829755, 44.500000
-41.311018, -21.049015, 44.625000
-41.311018, -21.049015, 44.750000
-41.311018, -21.049015, 44.875000
-41.311018, -21.049015, 45.000000
-41.311018, -21.049015, 45.125000
-41.311018, -21.049015, 45.250000
-41.311018, -21.049015, 45.375000
-41.311018, -21.049015, 45.500000
-41.311018, -21.049015, 45.625000
-41.311018, -21.049015, 45.750000
-41.741341, -21.268276, 45.875000
-41.741341, -21.268276, 46.000000
-41.741341, -21.268276, 46.125000
-42.171664, -21.487536, 46.250000
-41.741341, -21.268276, 46.375000
-41.741341, -21.268276, 46.500000
-41.741341, -21.268276, 46.625000
-41.741341, -21.268276, 46.750000
-41.741341, -21.268276, 46.875000
-41.741341, -21.268276, 47.000000
-41.741341, -21.268276, 47.125000
-42.171664, -21.487536, 47.250000
-42.601988, -21.706797, 47.375000
-42.601988, -21.706797, 47.500000
-42.601988, -21.706797, 47.625000
-42.601988, -21.706797, 47.750000
-42.171664, -21.487536, 47.875000
-42.171664, -21.487536, 48.000000
-42.171664, -21.487536, 48.125000
-42.601988, -21.706797, 48.250000
-42.171664, -21.487536, 48.375000
-42.171664, -21.487536, 48.500000
-42.171664, -21.487536, 48.625000
-42.601988, -21.706797, 48.750000
-42.601988, -21.706797, 48.875000
-42.601988, -21.706797, 49.000000
-42.601988, -21.706797, 49.125000
-42.601988, -21.706797, 49.250000
-42.601988, -21.706797, 49.375000
-43.032311, -21.926057, 49.500000
-42.601988, -21.706797, 49.625000
-42.601988, -21.706797, 49.750000
-43.032311, -21.926057, 49.875000
-43.032311, -21.926057, 50.000000
-43.032311, -21.926057, 50.125000
-43.032311, -21.926057, 50.250000
-43.032311, -21.926057, 50.375000
-43.032311, -21.926057, 50.500000
-43.032311, -21.926057, 50.625000
-43.462634, -22.145318, 50.750000
-43.032311, -21.926057, 50.875000
-43.032311, -21.926057, 51.000000
-43.032311, -21.926057, 51.125000
-43.462634, -22.145318, 51.250000
-43.462634, -22.145318, 51.375000
-43.462634, -22.145318, 51.500000
-43.462634, -22.145318, 51.625000
-43.462634, -22.145318, 51.750000
-43.462634, -22.145318, 51.875000
-43.462634, -22.145318, 52.000000
-43.462634, -22.145318, 52.125000
-43.462634, -22.145318, 52.250000
-43.462634, -22.145318, 52.375000
-43.462634, -22.145318, 52.500000
-43.462634, -22.145318, 52.625000
-43.462634, -22.145318, 52.750000
-43.462634, -22.145318, 52.875000
-43.462634, -22.145318, 53.000000
-43.462634, -22.145318, 53.125000
-43.462634, -22.145318, 53.250000
-43.462634, -22.145318, 53.375000
-43.462634, -22.145318, 53.500000
-43.462634, -22.145318, 53.625000
-43.892957, -22.364579, 53.750000
-43.892957, -22.364579, 53.875000
-43.892957, -22.364579, 54.000000
-43.892957, -22.364579, 54.125000
-43.892957, -22.364579, 54.250000
-44.323280, -22.583839, 54.375000
-44.323280, -22.583839, 54.500000
-44.323280, -22.583839, 54.625000
-44.323280, -22.583839, 54.750000
-43.892957, -22.364579, 54.875000
-43.892957, -22.364579, 55.000000
-44.323280, -22.583839, 55.125000
-43.892957, -22.364579, 55.250000
-43.892957, -22.364579, 55.375000
-43.892957, -22.364579, 55.500000
-43.892957, -22.364579, 55.625000
-43.892957, -22.364579, 55.750000
-44.323280, -22.583839, 55.875000
-43.892957, -22.364579, 56.000000
-44.323280, -22.583839, 56.125000
-43.892957, -22.364579, 56.250000
-43.892957, -22.364579, 56.375000
-43.892957, -22.364579, 56.500000
-43.892957, -22.364579, 56.625000
-43.892957, -22.364579, 56.750000
-43.892957, -22.364579, 56.875000
-44.323280, -22.583839, 57.000000
-43.892957, -22.364579, 57.125000
-43.892957, -22.364579, 57.250000
-43.892957, -22.364579, 57.375000
-43.892957, -22.364579, 57.500000
-44.323280, -22.583839, 57.625000
-43.892957, -22.364579, 57.750000
-43.892957, -22.364579, 57.875000
-43.892957, -22.364579, 58.000000
-43.892957, -22.364579, 58.125000
-43.892957, -22.364579, 58.250000
-43.892957, -22.364579, 58.375000
-43.892957, -22.364579, 58.500000
-43.892957, -22.364579, 58.625000
-43.892957, -22.364579, 58.750000
-43.892957, -22.364579, 58.875000
-43.892957, -22.364579, 59.000000
-44.323280, -22.583839, 59.125000
-43.892957, -22.364579, 59.250000
-43.892957, -22.364579, 59.375000
-43.892957, -22.364579, 59.500000
-43.892957, -22.364579, 59.625000
-44.323280, -22.583839, 59.750000
-43.892957, -22.364579, 59.875000
-43.892957, -22.364579, 60.000000
-43.892957, -22.364579, 60.125000
-43.892957, -22.364579, 60.250000
-43.892957, -22.364579, 60.375000
-43.892957, -22.364579, 60.500000
-43.892957, -22.364579, 60.625000
-43.892957, -22.364579, 60.750000
-43.892957, -22.364579, 60.875000
-44.323280, -22.583839, 61.000000
-43.892957, -22.364579, 61.125000
-44.323280, -22.583839, 61.250000
-44.323280, -22.583839, 61.375000
-43.892957, -22.364579, 61.500000
-43.892957, -22.364579, 61.625000
-43.892957, -22.364579, 61.750000
-44.323280, -22.583839, 61.875000
-44.323280, -22.583839, 62.000000
-43.892957, -22.364579, 62.125000
-43.892957, -22.364579, 62.250000
-43.892957, -22.364579, 62.375000
-43.892957, -22.364579, 62.500000
-43.892957, -22.364579, 62.625000
-43.892957, -22.364579, 62.750000
-43.462634, -22.145318, 62.875000
-43.462634, -22.145318, 63.000000
-43.462634, -22.145318, 63.125000
-43.462634, -22.145318, 63.250000
-43.462634, -22.145318, 63.375000
-43.462634, -22.145318, 63.500000
-43.462634, -22.145318, 63.625000
-43.462634, -22.145318, 63.750000
-43.462634, -22.145318, 63.875000
-43.462634, -22.145318, 64.000000
-43.462634, -22.145318, 64.125000
-43.462634, -22.145318, 64.250000
-43.462634, -22.145318, 64.375000
-43.032311, -21.926057, 64.500000
-43.462634, -22.145318, 64.625000
-43.462634, -22.145318, 64.750000
-43.462634, -22.145318, 64.875000
-43.032311, -21.926057, 65.000000
-43.032311, -21.926057, 65.125000
-43.032311, -21.926057, 65.250000
-43.032311, -21.926057, 65.375000
-43.032311, -21.926057, 65.500000
-43.032311, -21.926057, 65.625000
-43.032311, -21.926057, 65.750000
-43.032311, -21.926057, 65.875000
-42.601988, -21.706797, 66.000000
-43.032311, -21.926057, 66.125000
-42.601988, -21.706797, 66.250000
-43.032311, -21.926057, 66.375000
-42.601988, -21.706797, 66.500000
-42.171664, -21.487536, 66.625000
-42.171664, -21.487536, 66.750000
-42.171664, -21.487536, 66.875000
-42.171664, -21.487536, 67.000000
-42.171664, -21.487536, 67.125000
-42.171664, -21.487536, 67.250000
-41.741341, -21.268276, 67.375000
-41.741341, -21.268276, 67.500000
-41.741341, -21.268276, 67.625000
-41.741341, -21.268276, 67.750000
-41.741341, -21.268276, 67.875000
-41.311018, -21.049015, 68.000000
-41.311018, -21.049015, 68.125000
-41.311018, -21.049015, 68.250000
-40.880695, -20.829755, 68.375000
-40.880695, -20.829755, 68.500000
-41.311018, -21.049015, 68.625000
-41.311018, -21.049015, 68.750000
-40.880695, -20.829755, 68.875000
-41.311018, -21.049015, 69.000000
-40.880695, -20.829755, 69.125000
-40.880695, -20.829755, 69.250000
-40.450372, -20.610494, 69.375000
-40.450372, -20.610494, 69.500000
-40.450372, -20.610494, 69.625000
-40.450372, -20.610494, 69.750000
-40.020049, -20.391233, 69.875000
-40.020049, -20.391233, 70.000000
-40.020049, -20.391233, 70.125000
-40.450372, -20.610494, 70.250000
-40.020049, -20.391233, 70.375000
-40.020049, -20.391233, 70.500000
-40.020049, -20.391233, 70.625000
-40.020049, -20.391233, 70.750000
-40.020049, -20.391233, 70.875000
-40.020049, -20.391233, 71.000000
-39.589726, -20.171973, 71.125000
-40.020049, -20.391233, 71.250000
-39.159403, -19.952712, 71.375000
-39.589726, -20.171973, 71.500000
-39.159403, -19.952712, 71.625000
-38.729080, -19.733452, 71.750000
-38.729080, -19.733452, 71.875000
-38.298756, -19.514191, 72.000000
-38.298756, -19.514191, 72.125000
-37.868433, -19.294931, 72.250000
-37.868433, -19.294931, 72.375000
-37.868433, -19.294931, 72.500000
-37.868433, -19.294931, 72.625000
-37.868433, -19.294931, 72.750000
-37.438110, -19.075670, 72.875000
-37.438110, -19.075670, 73.000000
-37.868433, -19.294931, 73.125000
-37.868433, -19.294931, 73.250000
-37.438110, -19.075670, 73.375000
-37.438110, -19.075670, 73.500000
-37.438110, -19.075670, 73.625000
-37.438110, -19.075670, 73.750000
-37.438110, -19.075670, 73.875000
-37.007787, -18.856409, 74.000000
-37.007787, -18.856409, 74.125000
-37.007787, -18.856409, 74.250000
-36.577464, -18.637149, 74.375000
-37.007787, -18.856409, 74.500000
-36.577464, -18.637149, 74.625000
-36.577464, -18.637149, 74.750000
-36.147141, -18.417888, 74.875000
-36.147141, -18.417888, 75.000000
-36.147141, -18.417888, 75.125000
-36.147141, -18.417888, 75.250000
-36.147141, -18.417888, 75.375000
-36.147141, -18.417888, 75.500000
-36.147141, -18.417888, 75.625000
-35.716818, -18.198628, 75.750000
-35.716818, -18.198628, 75.875000
-35.716818, -18.198628, 76.000000
-35.716818, -18.198628, 76.125000
-35.716818, -18.198628, 76.250000
-35.716818, -18.198628, 76.375000
-35.716818, -18.198628, 76.500000
-35.716818, -18.198628, 76.625000
-35.716818, -18.198628, 76.750000
-36.147141, -18.417888, 76.875000
-36.147141, -18.417888, 77.000000
-36.577464, -18.637149, 77.125000
-36.577464, -18.637149, 77.250000
-36.577464, -18.637149, 77.375000
-36.577464, -18.637149, 77.500000
-37.007787, -18.856409, 77.625000
-37.438110, -19.075670, 77.750000
-37.438110, -19.075670, 77.875000
-37.438110, -19.075670, 78.000000
-37.438110, -19.075670, 78.125000
-37.438110, -19.075670, 78.250000
-37.868433, -19.294931, 78.375000
-37.868433, -19.294931, 78.500000
-37.868433, -19.294931, 78.625000
-38.298756, -19.514191, 78.750000
-38.298756, -19.514191, 78.875000
-38.298756, -19.514191, 79.000000
-38.729080, -19.733452, 79.125000
-38.729080, -19.733452, 79.250000
-39.159403, -19.952712, 79.375000
-39.159403, -19.952712, 79.500000
-39.589726, -20.171973, 79.625000
-39.589726, -20.171973, 79.750000
-39.589726, -20.171973, 79.875000
-40.020049, -20.391233, 80.000000
-40.020049, -20.391233, 80.125000
-40.020049, -20.391233, 80.250000
-40.450372, -20.610494, 80.375000
-40.450372, -20.610494, 80.500000
-41.311018, -21.049015, 80.625000
-40.880695, -20.829755, 80.750000
-41.311018, -21.049015, 80.875000
-41.311018, -21.049015, 81.000000
-41.311018, -21.049015, 81.125000
-41.741341, -21.268276, 81.250000
-41.741341, -21.268276, 81.375000
-42.171664, -21.487536, 81.500000
-42.171664, -21.487536, 81.625000
-42.171664, -21.487536, 81.750000
-42.601988, -21.706797, 81.875000
-42.601988, -21.706797, 82.000000
-43.032311, -21.926057, 82.125000
-43.032311, -21.926057, 82.250000
-43.032311, -21.926057, 82.375000
-43.892957, -22.364579, 82.500000
-43.462634, -22.145318, 82.625000
-43.892957, -22.364579, 82.750000
-43.892957, -22.364579, 82.875000
-44.753603, -22.803100, 83.000000
-44.323280, -22.583839, 83.125000
-44.323280, -22.583839, 83.250000
-44.323280, -22.583839, 83.375000
-44.753603, -22.803100, 83.500000
-44.753603, -22.803100, 83.625000
-44.753603, -22.803100, 83.750000
-44.753603, -22.803100, 83.875000
-45.614249, -23.241621, 84.000000
-45.183926, -23.022360, 84.125000
-45.183926, -23.022360, 84.250000
-45.183926, -23.022360, 84.375000
-45.183926, -23.022360, 84.500000
-45.614249, -23.241621, 84.625000
-59.814912, -30.477220, 103.250000
-58.523942, -29.819438, 103.375000
-57.232973, -29.161656, 103.500000
-57.232973, -29.161656, 103.625000
-58.954266, -30.038699, 103.750000
-58.093619, -29.600178, 103.875000
-58.523942, -29.819438, 104.000000
-58.954266, -30.038699, 104.125000
-58.954266, -30.038699, 104.250000
-56.802650, -28.942396, 104.375000
-59.384589, -30.257959, 104.500000
-56.372327, -28.723135, 104.625000
-60.245235, -30.696480, 104.750000
-61.105881, -31.135002, 104.875000
-61.536204, -31.354262, 105.000000
-61.966527, -31.573523, 105.125000
-61.536204, -31.354262, 105.250000
-61.966527, -31.573523, 105.375000
-62.827174, -32.012044, 105.500000
-62.827174, -32.012044, 105.625000
-19.468287, -10.702781, 20.375000
-19.468287, -10.702781, 20.500000
-20.737958, -11.400789, 20.625000
-20.737958, -11.400789, 20.750000
-20.737958, -11.400789, 20.875000
-21.161181, -11.633458, 21.000000
-21.161181, -11.633458, 21.125000
-21.161181, -11.633458, 21.250000
-21.584405, -11.866127, 21.375000
-21.584405, -11.866127, 21.500000
-21.584405, -11.866127, 21.625000
-22.007629, -12.098796, 21.750000
-22.007629, -12.098796, 21.875000
-22.854076, -12.564135, 22.000000
-22.430852, -12.331465, 22.125000
-22.854076, -12.564135, 22.250000
-23.277299, -12.796804, 22.375000
-23.700523, -13.029473, 22.500000
-23.700523, -13.029473, 22.625000
-24.123747, -13.262142, 22.750000
-24.123747, -13.262142, 22.875000
-24.123747, -13.262142, 23.000000
-24.546970, -13.494811, 23.125000
-24.546970, -13.494811, 23.250000
-24.546970, -13.494811, 23.375000
-24.546970, -13.494811, 23.500000
-24.970194, -13.727480, 23.625000
-25.393418, -13.960149, 23.750000
-24.970194, -13.727480, 23.875000
-25.393418, -13.960149, 24.000000
-25.393418, -13.960149, 24.125000
-25.816641, -14.192819, 24.250000
-26.239865, -14.425488, 24.375000
-26.239865, -14.425488, 24.500000
-26.239865, -14.425488, 24.625000
-26.663089, -14.658157, 24.750000
-26.239865, -14.425488, 24.875000
-26.663089, -14.658157, 25.000000
-26.663089, -14.658157, 25.125000
-26.663089, -14.658157, 25.250000
-26.663089, -14.658157, 25.375000
-26.663089, -14.658157, 25.500000
-27.086312, -14.890826, 25.625000
-27.509536, -15.123495, 25.750000
-27.086312, -14.890826, 25.875000
-27.509536, -15.123495, 26.000000
-27.509536, -15.123495, 26.125000
-27.932759, -15.356164, 26.250000
-27.932759, -15.356164, 26.375000
-27.932759, -15.356164, 26.500000
-27.932759, -15.356164, 26.625000
-28.355983, -15.588834, 26.750000
-28.355983, -15.588834, 26.875000
-28.355983, -15.588834, 27.000000
-28.779207, -15.821503, 27.125000
-28.779207, -15.821503, 27.250000
-28.779207, -15.821503, 27.375000
-29.202430, -16.054172, 27.500000
-29.202430, -16.054172, 27.625000
-29.625654, -16.286841, 27.750000
-29.625654, -16.286841, 27.875000
-29.625654, -16.286841, 28.000000
-29.625654, -16.286841, 28.125000
-29.625654, -16.286841, 28.250000
-29.625654, -16.286841, 28.375000
-30.048878, -16.519510, 28.500000
-30.472101, -16.752179, 28.625000
-30.472101, -16.752179, 28.750000
-30.048878, -16.519510, 28.875000
-30.048878, -16.519510, 29.000000
-30.472101, -16.752179, 29.125000
-30.472101, -16.752179, 29.250000
-30.472101, -16.752179, 29.375000
-30.895325, -16.984849, 29.500000
-30.895325, -16.984849, 29.625000
-30.895325, -16.984849, 29.750000
-30.895325, -16.984849, 29.875000
-30.895325, -16.984849, 30.000000
-30.895325, -16.984849, 30.125000
-31.741772, -17.450187, 30.250000
-31.741772, -17.450187, 30.375000
-31.741772, -17.450187, 30.500000
-32.164996, -17.682856, 30.625000
-31.741772, -17.450187, 30.750000
-32.164996, -17.682856, 30.875000
-32.164996, -17.682856, 31.000000
-32.164996, -17.682856, 31.125000
-32.164996, -17.682856, 31.250000
-32.588219, -17.915525, 31.375000
-32.588219, -17.915525, 31.500000
-33.011443, -18.148194, 31.625000
-33.011443, -18.148194, 31.750000
-33.011443, -18.148194, 31.875000
-33.011443, -18.148194, 32.000000
-33.011443, -18.148194, 32.125000
-33.434667, -18.380863, 32.250000
-33.434667, -18.380863, 32.375000
-33.011443, -18.148194, 32.500000
-33.434667, -18.380863, 32.625000
-33.434667, -18.380863, 32.750000
-33.434667, -18.380863, 32.875000
-33.857890, -18.613533, 33.000000
-33.857890, -18.613533, 33.125000
-33.857890, -18.613533, 33.250000
-33.857890, -18.613533, 33.375000
-33.857890, -18.613533, 33.500000
-34.704337, -19.078871, 33.625000
-34.281114, -18.846202, 33.750000
-34.704337, -19.078871, 33.875000
-34.281114, -18.846202, 34.000000
-34.281114, -18.846202, 34.125000
-34.281114, -18.846202, 34.250000
-35.127561, -19.311540, 34.375000
-35.127561, -19.311540, 34.500000
-34.704337, -19.078871, 34.625000
-35.127561, -19.311540, 34.750000
-35.127561, -19.311540, 34.875000
-35.127561, -19.311540, 35.000000
-35.127561, -19.311540, 35.125000
-35.550785, -19.544209, 35.250000
-35.550785, -19.544209, 35.375000
-35.550785, -19.544209, 35.500000
-35.550785, -19.544209, 35.625000
-35.974008, -19.776878, 35.750000
-35.550785, -19.544209, 35.875000
-35.974008, -19.776878, 36.000000
-35.974008, -19.776878, 36.125000
-36.397232, -20.009548, 36.250000
-36.397232, -20.009548, 36.375000
-36.397232, -20.009548, 36.500000
-36.820456, -20.242217, 36.625000
-36.397232, -20.009548, 36.750000
-36.820456, -20.242217, 36.875000
-36.397232, -20.009548, 37.000000
-36.397232, -20.009548, 37.125000
-36.820456, -20.242217, 37.250000
-36.820456, -20.242217, 37.375000
-36.820456, -20.242217, 37.500000
-36.820456, -20.242217, 37.625000
-36.820456, -20.242217, 37.750000
-36.820456, -20.242217, 37.875000
-36.820456, -20.242217, 38.000000
-37.243679, -20.474886, 38.125000
-37.243679, -20.474886, 38.250000
-37.243679, -20.474886, 38.375000
-37.243679, -20.474886, 38.500000
-37.666903, -20.707555, 38.625000
-37.666903, -20.707555, 38.750000
-38.090126, -20.940224, 38.875000
-37.666903, -20.707555, 39.000000
-37.666903, -20.707555, 39.125000
-37.666903, -20.707555, 39.250000
-38.090126, -20.940224, 39.375000
-38.090126, -20.940224, 39.500000
-38.090126, -20.940224, 39.625000
-38.090126, -20.940224, 39.750000
-38.090126, -20.940224, 39.875000
-38.090126, -20.940224, 40.000000
-38.513350, -21.172893, 40.125000
-38.513350, -21.172893, 40.250000
-38.513350, -21.172893, 40.375000
-38.513350, -21.172893, 40.500000
-38.513350, -21.172893, 40.625000
-38.513350, -21.172893, 40.750000
-38.513350, -21.172893, 40.875000
-38.936574, -21.405563, 41.000000
-38.513350, -21.172893, 41.125000
-38.936574, -21.405563, 41.250000
-38.936574, -21.405563, 41.375000
-38.936574, -21.405563, 41.500000
-38.936574, -21.405563, 41.625000
-38.936574, -21.405563, 41.750000
-38.936574, -21.405563, 41.875000
-38.936574, -21.405563, 42.000000
-38.936574, -21.405563, 42.125000
-39.359797, -21.638232, 42.250000
-39.359797, -21.638232, 42.375000
-39.359797, -21.638232, 42.500000
-39.359797, -21.638232, 42.625000
-39.359797, -21.638232, 42.750000
-39.359797, -21.638232, 42.875000
-39.783021, -21.870901, 43.000000
-39.783021, -21.870901, 43.125000
-39.783021, -21.870901, 43.250000
-39.783021, -21.870901, 43.375000
-39.783021, -21.870901, 43.500000
-40.206245, -22.103570, 43.625000
-39.783021, -21.870901, 43.750000
-40.206245, -22.103570, 43.875000
-40.206245, -22.103570, 44.000000
-40.206245, -22.103570, 44.125000
-40.206245, -22.103570, 44.250000
-40.206245, -22.103570, 44.375000
-40.206245, -22.103570, 44.500000
-40.629468, -22.336239, 44.625000
-40.206245, -22.103570, 44.750000
-40.206245, -22.103570, 44.875000
-40.629468, -22.336239, 45.000000
-40.629468, -22.336239, 45.125000
-40.629468, -22.336239, 45.250000
-41.052692, -22.568908, 45.375000
-41.052692, -22.568908, 45.500000
-40.629468, -22.336239, 45.625000
-40.629468, -22.336239, 45.750000
-41.052692, -22.568908, 45.875000
-41.052692, -22.568908, 46.000000
-41.052692, -22.568908, 46.125000
-41.052692, -22.568908, 46.250000
-41.475915, -22.801577, 46.375000
-41.052692, -22.568908, 46.500000
-41.052692, -22.568908, 46.625000
-41.052692, -22.568908, 46.750000
-41.475915, -22.801577, 46.875000
-41.475915, -22.801577, 47.000000
-41.475915, -22.801577, 47.125000
-41.475915, -22.801577, 47.250000
-41.475915, -22.801577, 47.375000
-41.899139, -23.034247, 47.500000
-41.475915, -22.801577, 47.625000
-41.475915, -22.801577, 47.750000
-41.899139, -23.034247, 47.875000
-41.475915, -22.801577, 48.000000
-41.475915, -22.801577, 48.125000
-41.899139, -23.034247, 48.250000
-41.899139, -23.034247, 48.375000
-41.475915, -22.801577, 48.500000
-41.899139, -23.034247, 48.625000
-41.899139, -23.034247, 48.750000
-41.899139, -23.034247, 48.875000
-41.899139, -23.034247, 49.000000
-41.899139, -23.034247, 49.125000
-41.899139, -23.034247, 49.250000
-41.899139, -23.034247, 49.375000
-42.322363, -23.266916, 49.500000
-41.899139, -23.034247, 49.625000
-41.899139, -23.034247, 49.750000
-41.899139, -23.034247, 49.875000
-42.322363, -23.266916, 50.000000
-42.322363, -23.266916, 50.125000
-42.745586, -23.499585, 50.250000
-42.322363, -23.266916, 50.375000
-42.322363, -23.266916, 50.500000
-42.322363, -23.266916, 50.625000
-42.322363, -23.266916, 50.750000
-42.322363, -23.266916, 50.875000
-42.322363, -23.266916, 51.000000
-42.322363, -23.266916, 51.125000
-42.745586, -23.499585, 51.250000
-42.745586, -23.499585, 51.375000
-42.745586, -23.499585, 51.500000
-42.745586, -23.499585, 51.625000
-42.745586, -23.499585, 51.750000
-42.745586, -23.499585, 51.875000
-42.745586, -23.499585, 52.000000
-42.745586, -23.499585, 52.125000
-42.745586, -23.499585, 52.250000
-42.745586, -23.499585, 52.375000
-42.745586, -23.499585, 52.500000
-43.168810, -23.732254, 52.625000
-42.745586, -23.499585, 52.750000
-42.745586, -23.499585, 52.875000
-42.745586, -23.499585, 53.000000
-42.745586, -23.499585, 53.125000
-42.745586, -23.499585, 53.250000
-42.745586, -23.499585, 53.375000
-42.745586, -23.499585, 53.500000
-42.745586, -23.499585, 53.625000
-43.168810, -23.732254, 53.750000
-43.168810, -23.732254, 53.875000
-43.168810, -23.732254, 54.000000
-43.168810, -23.732254, 54.125000
-42.745586, -23.499585, 54.250000
-43.592034, -23.964923, 54.375000
-43.168810, -23.732254, 54.500000
-43.168810, -23.732254, 54.625000
-43.168810, -23.732254, 54.750000
-43.168810, -23.732254, 54.875000
-43.168810, -23.732254, 55.000000
-43.168810, -23.732254, 55.125000
-43.168810, -23.732254, 55.250000
-43.168810, -23.732254, 55.375000
-43.168810, -23.732254, 55.500000
-43.168810, -23.732254, 55.625000
-43.168810, -23.732254, 55.750000
-43.168810, -23.732254, 55.875000
-43.168810, -23.732254, 56.000000
-43.168810, -23.732254, 56.125000
-43.168810, -23.732254, 56.250000
-43.592034, -23.964923, 56.375000
-43.168810, -23.732254, 56.500000
-43.168810, -23.732254, 56.625000
-43.168810, -23.732254, 56.750000
-43.168810, -23.732254, 56.875000
-43.168810, -23.732254, 57.000000
-43.168810, -23.732254, 57.125000
-43.168810, -23.732254, 57.250000
-43.168810, -23.732254, 57.375000
-43.168810, -23.732254, 57.500000
-43.168810, -23.732254, 57.625000
-43.168810, -23.732254, 57.750000
-43.168810, -23.732254, 57.875000
-43.168810, -23.732254, 58.000000
-43.168810, -23.732254, 58.125000
-43.168810, -23.732254, 58.250000
-43.592034, -23.964923, 58.375000
-43.168810, -23.732254, 58.500000
-43.592034, -23.964923, 58.625000
-43.168810, -23.732254, 58.750000
-43.168810, -23.732254, 58.875000
-43.168810, -23.732254, 59.000000
-43.592034, -23.964923, 59.125000
-43.592034, -23.964923, 59.250000
-43.168810, -23.732254, 59.375000
-43.168810, -23.732254, 59.500000
-43.592034, -23.964923, 59.625000
-43.168810, -23.732254, 59.750000
-43.168810, -23.732254, 59.875000
-43.168810, -23.732254, 60.000000
-43.168810, -23.732254, 60.125000
-43.592034, -23.964923, 60.250000
-43.592034, -23.964923, 60.375000
-43.168810, -23.732254, 60.500000
-43.168810, -23.732254, 60.625000
-43.168810, -23.732254, 60.750000
-43.168810, -23.732254, 60.875000
-43.168810, -23.732254, 61.000000
-43.168810, -23.732254, 61.125000
-43.168810, -23.732254, 61.250000
-43.168810, -23.732254, 61.375000
-43.168810, -23.732254, 61.500000
-43.168810, -23.732254, 61.625000
-43.168810, -23.732254, 61.750000
-42.745586, -23.499585, 61.875000
-42.745586, -23.499585, 62.000000
-43.168810, -23.732254, 62.125000
-43.168810, -23.732254, 62.250000
-43.168810, -23.732254, 62.375000
-42.745586, -23.499585, 62.500000
-42.745586, -23.499585, 62.625000
-42.745586, -23.499585, 62.750000
-42.745586, -23.499585, 62.875000
-42.745586, -23.499585, 63.000000
-43.168810, -23.732254, 63.125000
-43.168810, -23.732254, 63.250000
-42.745586, -23.499585, 63.375000
-42.745586, -23.499585, 63.500000
-42.745586, -23.499585, 63.625000
-42.745586, -23.499585, 63.750000
-42.745586, -23.499585, 63.875000
-42.745586, -23.499585, 64.000000
-42.745586, -23.499585, 64.125000
-42.745586, -23.499585, 64.250000
-42.745586, -23.499585, 64.375000
-42.745586, -23.499585, 64.500000
-42.745586, -23.499585, 64.625000
-42.322363, -23.266916, 64.750000
-42.322363, -23.266916, 64.875000
-42.322363, -23.266916, 65.000000
-42.322363, -23.266916, 65.125000
-41.899139, -23.034247, 65.250000
-42.322363, -23.266916, 65.375000
-42.322363, -23.266916, 65.500000
-42.322363, -23.266916, 65.625000
-41.899139, -23.034247, 65.750000
-41.899139, -23.034247, 65.875000
-41.899139, -23.034247, 66.000000
-41.899139, -23.034247, 66.125000
-41.475915, -22.801577, 66.250000
-41.899139, -23.034247, 66.375000
-41.899139, -23.034247, 66.500000
-41.475915, -22.801577, 66.625000
-41.475915, -22.801577, 66.750000
-41.475915, -22.801577, 66.875000
-41.475915, -22.801577, 67.000000
-41.475915, -22.801577, 67.125000
-41.475915, -22.801577, 67.250000
-41.475915, -22.801577, 67.375000
-41.052692, -22.568908, 67.500000
-41.052692, -22.568908, 67.625000
-41.052692, -22.568908, 67.750000
-40.629468, -22.336239, 67.875000
-40.629468, -22.336239, 68.000000
-40.629468, -22.336239, 68.125000
-40.629468, -22.336239, 68.250000
-40.629468, -22.336239, 68.375000
-40.206245, -22.103570, 68.500000
-39.783021, -21.870901, 68.625000
-39.783021, -21.870901, 68.750000
-40.206245, -22.103570, 68.875000
-39.783021, -21.870901, 69.000000
-39.359797, -21.638232, 69.125000
-39.359797, -21.638232, 69.250000
-39.359797, -21.638232, 69.375000
-39.359797, -21.638232, 69.500000
-39.783021, -21.870901, 69.625000
-39.359797, -21.638232, 69.750000
-39.359797, -21.638232, 69.875000
-39.359797, -21.638232, 70.000000
-39.359797, -21.638232, 70.125000
-39.783021, -21.870901, 70.250000
-38.936574, -21.405563, 70.375000
-39.359797, -21.638232, 70.500000
-38.936574, -21.405563, 70.625000
-38.936574, -21.405563, 70.750000
-39.359797, -21.638232, 70.875000
-38.936574, -21.405563, 71.000000
-38.936574, -21.405563, 71.125000
-38.936574, -21.405563, 71.250000
-38.936574, -21.405563, 71.375000
-38.513350, -21.172893, 71.500000
-38.513350, -21.172893, 71.625000
-38.513350, -21.172893, 71.750000
-38.090126, -20.940224, 71.875000
-38.090126, -20.940224, 72.000000
-37.666903, -20.707555, 72.125000
-37.243679, -20.474886, 72.250000
-37.243679, -20.474886, 72.375000
-37.666903, -20.707555, 72.500000
-37.243679, -20.474886, 72.625000
-37.243679, -20.474886, 72.750000
-36.820456, -20.242217, 72.875000
-37.243679, -20.474886, 73.000000
-36.820456, -20.242217, 73.125000
-36.820456, -20.242217, 73.250000
-36.820456, -20.242217, 73.375000
-36.820456, -20.242217, 73.500000
-36.820456, -20.242217, 73.625000
-36.397232, -20.009548, 73.750000
-36.397232, -20.009548, 73.875000
-36.397232, -20.009548, 74.000000
-36.397232, -20.009548, 74.125000
-36.397232, -20.009548, 74.250000
-35.974008, -19.776878, 74.375000
-35.974008, -19.776878, 74.500000
-35.550785, -19.544209, 74.625000
-35.550785, -19.544209, 74.750000
-35.550785, -19.544209, 74.875000
-35.550785, -19.544209, 75.000000
-35.550785, -19.544209, 75.125000
-35.127561, -19.311540, 75.250000
-35.127561, -19.311540, 75.375000
-35.127561, -19.311540, 75.500000
-35.974008, -19.776878, 75.625000
-35.127561, -19.311540, 75.750000
-35.127561, -19.311540, 75.875000
-35.127561, -19.311540, 76.000000
-35.127561, -19.311540, 76.125000
-35.127561, -19.311540, 76.250000
-35.127561, -19.311540, 76.375000
-35.550785, -19.544209, 76.500000
-35.127561, -19.311540, 76.625000
-35.550785, -19.544209, 76.750000
-35.550785, -19.544209, 76.875000
-35.550785, -19.544209, 77.000000
-35.974008, -19.776878, 77.125000
-35.974008, -19.776878, 77.250000
-35.974008, -19.776878, 77.375000
-35.974008, -19.776878, 77.500000
-36.397232, -20.009548, 77.625000
-36.397232, -20.009548, 77.750000
-36.397232, -20.009548, 77.875000
-36.397232, -20.009548, 78.000000
-36.820456, -20.242217, 78.125000
-36.820456, -20.242217, 78.250000
-37.243679, -20.474886, 78.375000
-37.243679, -20.474886, 78.500000
-37.243679, -20.474886, 78.625000
-37.666903, -20.707555, 78.750000
-37.666903, -20.707555, 78.875000
-38.090126, -20.940224, 79.000000
-38.090126, -20.940224, 79.125000
-38.090126, -20.940224, 79.250000
-38.513350, -21.172893, 79.375000
-38.513350, -21.172893, 79.500000
-38.513350, -21.172893, 79.625000
-38.936574, -21.405563, 79.750000
-38.936574, -21.405563, 79.875000
-39.359797, -21.638232, 80.000000
-39.359797, -21.638232, 80.125000
-39.359797, -21.638232, 80.250000
-39.783021, -21.870901, 80.375000
-40.206245, -22.103570, 80.500000
-40.206245, -22.103570, 80.625000
-40.629468, -22.336239, 80.750000
-40.629468, -22.336239, 80.875000
-40.629468, -22.336239, 81.000000
-41.052692, -22.568908, 81.125000
-41.052692, -22.568908, 81.250000
-41.052692, -22.568908, 81.375000
-41.475915, -22.801577, 81.500000
-41.475915, -22.801577, 81.625000
-41.899139, -23.034247, 81.750000
-41.899139, -23.034247, 81.875000
-41.899139, -23.034247, 82.000000
-42.322363, -23.266916, 82.125000
-42.745586, -23.499585, 82.250000
-42.745586, -23.499585, 82.375000
-42.745586, -23.499585, 82.500000
-42.745586, -23.499585, 82.625000
-42.745586, -23.499585, 82.750000
-43.168810, -23.732254, 82.875000
-43.592034, -23.964923, 83.000000
-43.592034, -23.964923, 83.125000
-43.592034, -23.964923, 83.250000
-43.592034, -23.964923, 83.375000
-44.015257, -24.197592, 83.500000
-44.438481, -24.430262, 83.625000
-44.015257, -24.197592, 83.750000
-44.015257, -24.197592, 83.875000
-44.015257, -24.197592, 84.000000
-44.438481, -24.430262, 84.125000
-44.015257, -24.197592, 84.250000
-44.438481, -24.430262, 84.375000
-45.708152, -25.128269, 84.500000
-57.558413, -31.643005, 103.375000
-56.288742, -30.944998, 103.500000
-56.288742, -30.944998, 103.625000
-56.288742, -30.944998, 103.750000
-57.135190, -31.410336, 103.875000
-57.558413, -31.643005, 104.000000
-57.981637, -31.875675, 104.125000
-58.404861, -32.108344, 104.250000
-58.404861, -32.108344, 104.375000
-58.404861, -32.108344, 104.500000
-58.404861, -32.108344, 104.625000
-59.251308, -32.573682, 104.750000
-60.097755, -33.039020, 104.875000
-60.520979, -33.271690, 105.000000
-61.367426, -33.737028, 105.125000
-60.097755, -33.039020, 105.250000
-60.520979, -33.271690, 105.375000
-61.790650, -33.969697, 105.500000
-61.790650, -33.969697, 105.625000
-19.538204, -11.554862, 20.625000
-19.538204, -11.554862, 20.750000
-19.953911, -11.800710, 20.875000
-19.953911, -11.800710, 21.000000
-20.369617, -12.046558, 21.125000
-20.785324, -12.292406, 21.250000
-21.201030, -12.538254, 21.375000
-21.201030, -12.538254, 21.500000
-21.201030, -12.538254, 21.625000
-21.616737, -12.784103, 21.750000
-22.032443, -13.029951, 21.875000
-22.448150, -13.275799, 22.000000
-22.448150, -13.275799, 22.125000
-22.448150, -13.275799, 22.250000
-22.448150, -13.275799, 22.375000
-22.863856, -13.521647, 22.500000
-22.863856, -13.521647, 22.625000
-23.279563, -13.767495, 22.750000
-23.279563, -13.767495, 22.875000
-24.110976, -14.259191, 23.000000
-24.110976, -14.259191, 23.125000
-23.695269, -14.013343, 23.250000
-24.110976, -14.259191, 23.375000
-24.110976, -14.259191, 23.500000
-24.526682, -14.505039, 23.625000
-24.526682, -14.505039, 23.750000
-24.110976, -14.259191, 23.875000
-24.942389, -14.750888, 24.000000
-24.942389, -14.750888, 24.125000
-24.942389, -14.750888, 24.250000
-25.358095, -14.996736, 24.375000
-25.358095, -14.996736, 24.500000
-25.358095, -14.996736, 24.625000
-25.773802, -15.242584, 24.750000
-25.773802, -15.242584, 24.875000
-25.773802, -15.242584, 25.000000
-26.605215, -15.734280, 25.125000
-26.605215, -15.734280, 25.250000
-26.189508, -15.488432, 25.375000
-27.020921, -15.980128, 25.500000
-26.605215, -15.734280, 25.625000
-27.020921, -15.980128, 25.750000
-26.605215, -15.734280, 25.875000
-26.605215, -15.734280, 26.000000
-27.020921, -15.980128, 26.125000
-27.436627, -16.225976, 26.250000
-27.020921, -15.980128, 26.375000
-27.436627, -16.225976, 26.500000
-27.436627, -16.225976, 26.625000
-27.436627, -16.225976, 26.750000
-27.852334, -16.471824, 26.875000
-27.852334, -16.471824, 27.000000
-27.852334, -16.471824, 27.125000
-28.268040, -16.717673, 27.250000
-28.268040, -16.717673, 27.375000
-28.268040, -16.717673, 27.500000
-28.683747, -16.963521, 27.625000
-28.683747, -16.963521, 27.750000
-28.683747, -16.963521, 27.875000
-28.683747, -16.963521, 28.000000
-29.099453, -17.209369, 28.125000
-29.099453, -17.209369, 28.250000
-29.099453, -17.209369, 28.375000
-29.515160, -17.455217, 28.500000
-29.515160, -17.455217, 28.625000
-29.515160, -17.455217, 28.750000
-29.930866, -17.701065, 28.875000
-29.515160, -17.455217, 29.000000
-29.515160, -17.455217, 29.125000
-30.346573, -17.946913, 29.250000
-29.930866, -17.701065, 29.375000
-30.346573, -17.946913, 29.500000
-30.346573, -17.946913, 29.625000
-30.762279, -18.192761, 29.750000
-30.346573, -17.946913, 29.875000
-30.762279, -18.192761, 30.000000
-30.762279, -18.192761, 30.125000
-30.762279, -18.192761, 30.250000
-30.762279, -18.192761, 30.375000
-31.177986, -18.438609, 30.500000
-31.177986, -18.438609, 30.625000
-31.177986, -18.438609, 30.750000
-31.593692, -18.684458, 30.875000
-31.593692, -18.684458, 31.000000
-31.593692, -18.684458, 31.125000
-31.593692, -18.684458, 31.250000
-31.593692, -18.684458, 31.375000
-32.009399, -18.930306, 31.500000
-32.009399, -18.930306, 31.625000
-32.009399, -18.930306, 31.750000
-32.009399, -18.930306, 31.875000
-32.009399, -18.930306, 32.000000
-32.425105, -19.176154, 32.125000
-32.425105, -19.176154, 32.250000
-32.425105, -19.176154, 32.375000
-32.840812, -19.422002, 32.500000
-32.840812, -19.422002, 32.625000
-32.840812, -19.422002, 32.750000
-32.840812, -19.422002, 32.875000
-33.256518, -19.667850, 33.000000
-33.256518, -19.667850, 33.125000
-33.256518, -19.667850, 33.250000
-33.256518, -19.667850, 33.375000
-33.256518, -19.667850, 33.500000
-33.672225, -19.913698, 33.625000
-33.256518, -19.667850, 33.750000
-33.672225, -19.913698, 33.875000
-33.672225, -19.913698, 34.000000
-33.672225, -19.913698, 34.125000
-33.672225, -19.913698, 34.250000
-34.087931, -20.159546, 34.375000
-34.087931, -20.159546, 34.500000
-34.087931, -20.159546, 34.625000
-34.087931, -20.159546, 34.750000
-34.087931, -20.159546, 34.875000
-34.503638, -20.405394, 35.000000
-34.503638, -20.405394, 35.125000
-34.503638, -20.405394, 35.250000
-34.503638, -20.405394, 35.375000
-34.919344, -20.651243, 35.500000
-34.919344, -20.651243, 35.625000
-34.919344, -20.651243, 35.750000
-34.919344, -20.651243, 35.875000
-35.335051, -20.897091, 36.000000
-35.335051, -20.897091, 36.125000
-35.335051, -20.897091, 36.250000
-35.335051, -20.897091, 36.375000
-35.750757, -21.142939, 36.500000
-35.750757, -21.142939, 36.625000
-35.750757, -21.142939, 36.750000
-35.750757, -21.142939, 36.875000
-35.750757, -21.142939, 37.000000
-35.750757, -21.142939, 37.125000
-36.166463, -21.388787, 37.250000
-36.166463, -21.388787, 37.375000
-36.582170, -21.634635, 37.500000
-36.166463, -21.388787, 37.625000
-36.582170, -21.634635, 37.750000
-36.582170, -21.634635, 37.875000
-36.166463, -21.388787, 38.000000
-36.166463, -21.388787, 38.125000
-36.582170, -21.634635, 38.250000
-36.582170, -21.634635, 38.375000
-36.582170, -21.634635, 38.500000
-36.582170, -21.634635, 38.625000
-36.582170, -21.634635, 38.750000
-36.997876, -21.880483, 38.875000
-36.997876, -21.880483, 39.000000
-36.997876, -21.880483, 39.125000
-36.997876, -21.880483, 39.250000
-36.997876, -21.880483, 39.375000
-36.997876, -21.880483, 39.500000
-36.997876, -21.880483, 39.625000
-37.413583, -22.126331, 39.750000
-37.413583, -22.126331, 39.875000
-37.413583, -22.126331, 40.000000
-37.413583, -22.126331, 40.125000
-37.413583, -22.126331, 40.250000
-37.829289, -22.372179, 40.375000
-37.829289, -22.372179, 40.500000
-37.829289, -22.372179, 40.625000
-37.829289, -22.372179, 40.750000
-37.829289, -22.372179, 40.875000
-37.829289, -22.372179, 41.000000
-37.829289, -22.372179, 41.125000
-37.829289, -22.372179, 41.250000
-37.829289, -22.372179, 41.375000
-38.244996, -22.618028, 41.500000
-38.244996, -22.618028, 41.625000
-38.244996, -22.618028, 41.750000
-38.244996, -22.618028, 41.875000
-38.244996, -22.618028, 42.000000
-38.660702, -22.863876, 42.125000
-38.660702, -22.863876, 42.250000
-38.660702, -22.863876, 42.375000
-38.660702, -22.863876, 42.500000
-38.660702, -22.863876, 42.625000
-38.660702, -22.863876, 42.750000
-38.660702, -22.863876, 42.875000
-39.076409, -23.109724, 43.000000
-38.660702, -22.863876, 43.125000
-39.076409, -23.109724, 43.250000
-39.076409, -23.109724, 43.375000
-39.076409, -23.109724, 43.500000
-39.076409, -23.109724, 43.625000
-39.492115, -23.355572, 43.750000
-39.076409, -23.109724, 43.875000
-39.492115, -23.355572, 44.000000
-39.492115, -23.355572, 44.125000
-39.492115, -23.355572, 44.250000
-39.492115, -23.355572, 44.375000
-39.492115, -23.355572, 44.500000
-39.907822, -23.601420, 44.625000
-39.907822, -23.601420, 44.750000
-39.907822, -23.601420, 44.875000
-39.907822, -23.601420, 45.000000
-39.907822, -23.601420, 45.125000
-39.907822, -23.601420, 45.250000
-39.907822, -23.601420, 45.375000
-39.907822, -23.601420, 45.500000
-39.907822, -23.601420, 45.625000
-39.907822, -23.601420, 45.750000
-40.323528, -23.847268, 45.875000
-40.323528, -23.847268, 46.000000
-40.323528, -23.847268, 46.125000
-40.323528, -23.847268, 46.250000
-40.323528, -23.847268, 46.375000
-40.323528, -23.847268, 46.500000
-40.323528, -23.847268, 46.625000
-40.323528, -23.847268, 46.750000
-40.323528, -23.847268, 46.875000
-40.323528, -23.847268, 47.000000
-40.323528, -23.847268, 47.125000
-40.323528, -23.847268, 47.250000
-40.739235, -24.093116, 47.375000
-40.739235, -24.093116, 47.500000
-40.739235, -24.093116, 47.625000
-40.739235, -24.093116, 47.750000
-40.739235, -24.093116, 47.875000
-40.739235, -24.093116, 48.000000
-40.739235, -24.093116, 48.125000
-41.154941, -24.338964, 48.250000
-41.154941, -24.338964, 48.375000
-41.154941, -24.338964, 48.500000
-41.154941, -24.338964, 48.625000
-41.154941, -24.338964, 48.750000
-41.154941, -24.338964, 48.875000
-41.154941, -24.338964, 49.000000
-41.154941, -24.338964, 49.125000
-41.154941, -24.338964, 49.250000
-41.154941, -24.338964, 49.375000
-41.154941, -24.338964, 49.500000
-41.154941, -24.338964, 49.625000
-41.154941, -24.338964, 49.750000
-41.154941, -24.338964, 49.875000
-41.154941, -24.338964, 50.000000
-41.154941, -24.338964, 50.125000
-41.154941, -24.338964, 50.250000
-41.570648, -24.584813, 50.375000
-41.986354, -24.830661, 50.500000
-41.570648, -24.584813, 50.625000
-41.570648, -24.584813, 50.750000
-41.570648, -24.584813, 50.875000
-41.570648, -24.584813, 51.000000
-41.570648, -24.584813, 51.125000
-41.570648, -24.584813, 51.250000
-41.570648, -24.584813, 51.375000
-41.570648, -24.584813, 51.500000
-41.570648, -24.584813, 51.625000
-41.986354, -24.830661, 51.750000
-41.570648, -24.584813, 51.875000
-41.986354, -24.830661, 52.000000
-41.986354, -24.830661, 52.125000
-41.986354, -24.830661, 52.250000
-41.986354, -24.830661, 52.375000
-41.986354, -24.830661, 52.500000
-41.986354, -24.830661, 52.625000
-41.986354, -24.830661, 52.750000
-41.986354, -24.830661, 52.875000
-41.986354, -24.830661, 53.000000
-41.986354, -24.830661, 53.125000
-42.402061, -25.076509, 53.250000
-41.986354, -24.830661, 53.375000
-41.986354, -24.830661, 53.500000
-41.986354, -24.830661, 53.625000
-41.986354, -24.830661, 53.750000
-42.402061, -25.076509, 53.875000
-42.402061, -25.076509, 54.000000
-42.402061, -25.076509, 54.125000
-42.402061, -25.076509, 54.250000
-42.402061, -25.076509, 54.375000
-42.402061, -25.076509, 54.500000
-41.986354, -24.830661, 54.625000
-41.986354, -24.830661, 54.750000
-42.402061, -25.076509, 54.875000
-42.402061, -25.076509, 55.000000
-42.402061, -25.076509, 55.125000
-42.402061, -25.076509, 55.250000
-42.402061, -25.076509, 55.375000
-42.402061, -25.076509, 55.500000
-42.402061, -25.076509, 55.625000
-42.402061, -25.076509, 55.750000
-42.402061, -25.076509, 55.875000
-42.402061, -25.076509, 56.000000
-42.402061, -25.076509, 56.125000
-42.402061, -25.076509, 56.250000
-42.402061, -25.076509, 56.375000
-41.986354, -24.830661, 56.500000
-42.402061, -25.076509, 56.625000
-42.402061, -25.076509, 56.750000
-42.402061, -25.076509, 56.875000
-42.402061, -25.076509, 57.000000
-42.402061, -25.076509, 57.125000
-42.402061, -25.076509, 57.250000
-42.402061, -25.076509, 57.375000
-42.817767, -25.322357, 57.500000
-42.402061, -25.076509, 57.625000
-42.402061, -25.076509, 57.750000
-42.402061, -25.076509, 57.875000
-42.402061, -25.076509, 58.000000
-42.402061, -25.076509, 58.125000
-42.402061, -25.076509, 58.250000
-42.402061, -25.076509, 58.375000
-42.402061, -25.076509, 58.500000
-42.402061, -25.076509, 58.625000
-42.402061, -25.076509, 58.750000
-42.402061, -25.076509, 58.875000
-42.402061, -25.076509, 59.000000
-42.402061, -25.076509, 59.125000
-42.402061, -25.076509, 59.250000
-42.402061, -25.076509, 59.375000
-42.402061, -25.076509, 59.500000
-42.402061, -25.076509, 59.625000
-42.402061, -25.076509, 59.750000
-42.402061, -25.076509, 59.875000
-42.402061, -25.076509, 60.000000
-42.402061, -25.076509, 60.125000
-42.402061, -25.076509, 60.250000
-42.402061, -25.076509, 60.375000
-42.402061, -25.076509, 60.500000
-42.402061, -25.076509, 60.625000
-42.402061, -25.076509, 60.750000
-42.402061, -25.076509, 60.875000
-42.402061, -25.076509, 61.000000
-42.402061, -25.076509, 61.125000
-42.402061, -25.076509, 61.250000
-42.402061, -25.076509, 61.375000
-42.402061, -25.076509, 61.500000
-42.402061, -25.076509, 61.625000
-42.402061, -25.076509, 61.750000
-41.986354, -24.830661, 61.875000
-42.402061, -25.076509, 62.000000
-42.817767, -25.322357, 62.125000
-42.402061, -25.076509, 62.250000
-41.986354, -24.830661, 62.375000
-41.986354, -24.830661, 62.500000
-42.402061, -25.076509, 62.625000
-41.986354, -24.830661, 62.750000
-41.986354, -24.830661, 62.875000
-41.986354, -24.830661, 63.000000
-42.402061, -25.076509, 63.125000
-41.986354, -24.830661, 63.250000
-41.986354, -24.830661, 63.375000
-41.986354, -24.830661, 63.500000
-41.986354, -24.830661, 63.625000
-41.570648, -24.584813, 63.750000
-41.570648, -24.584813, 63.875000
-41.986354, -24.830661, 64.000000
-41.986354, -24.830661, 64.125000
-41.570648, -24.584813, 64.250000
-41.986354, -24.830661, 64.375000
-41.570648, -24.584813, 64.500000
-41.570648, -24.584813, 64.625000
-41.570648, -24.584813, 64.750000
-41.570648, -24.584813, 64.875000
-41.154941, -24.338964, 65.000000
-41.154941, -24.338964, 65.125000
-41.570648, -24.584813, 65.250000
-41.570648, -24.584813, 65.375000
-41.570648, -24.584813, 65.500000
-41.570648, -24.584813, 65.625000
-41.570648, -24.584813, 65.750000
-41.570648, -24.584813, 65.875000
-41.154941, -24.338964, 66.000000
-41.154941, -24.338964, 66.125000
-41.154941, -24.338964, 66.250000
-40.739235, -24.093116, 66.375000
-40.739235, -24.093116, 66.500000
-40.739235, -24.093116, 66.625000
-40.739235, -24.093116, 66.750000
-40.739235, -24.093116, 66.875000
-40.739235, -24.093116, 67.000000
-40.323528, -23.847268, 67.125000
-40.739235, -24.093116, 67.250000
-40.739235, -24.093116, 67.375000
-40.323528, -23.847268, 67.500000
-40.323528, -23.847268, 67.625000
-40.323528, -23.847268, 67.750000
-40.323528, -23.847268, 67.875000
-39.907822, -23.601420, 68.000000
-39.907822, -23.601420, 68.125000
-40.323528, -23.847268, 68.250000
-39.907822, -23.601420, 68.375000
-39.492115, -23.355572, 68.500000
-39.492115, -23.355572, 68.625000
-39.492115, -23.355572, 68.750000
-39.076409, -23.109724, 68.875000
-39.492115, -23.355572, 69.000000
-39.076409, -23.109724, 69.125000
-38.660702, -22.863876, 69.250000
-38.660702, -22.863876, 69.375000
-38.660702, -22.863876, 69.500000
-38.660702, -22.863876, 69.625000
-38.660702, -22.863876, 69.750000
-38.660702, -22.863876, 69.875000
-38.244996, -22.618028, 70.000000
-38.660702, -22.863876, 70.125000
-38.660702, -22.863876, 70.250000
-38.660702, -22.863876, 70.375000
-38.660702, -22.863876, 70.500000
-38.244996, -22.618028, 70.625000
-38.660702, -22.863876, 70.750000
-38.244996, -22.618028, 70.875000
-38.660702, -22.863876, 71.000000
-37.829289, -22.372179, 71.125000
-37.829289, -22.372179, 71.250000
-38.244996, -22.618028, 71.375000
-37.829289, -22.372179, 71.500000
-37.413583, -22.126331, 71.625000
-37.829289, -22.372179, 71.750000
-36.997876, -21.880483, 71.875000
-36.997876, -21.880483, 72.000000
-37.413583, -22.126331, 72.125000
-36.997876, -21.880483, 72.250000
-36.582170, -21.634635, 72.375000
-36.997876, -21.880483, 72.500000
-36.582170, -21.634635, 72.625000
-36.582170, -21.634635, 72.750000
-36.166463, -21.388787, 72.875000
-36.166463, -21.388787, 73.000000
-36.166463, -21.388787, 73.125000
-36.166463, -21.388787, 73.250000
-36.582170, -21.634635, 73.375000
-36.166463, -21.388787, 73.500000
-35.750757, -21.142939, 73.625000
-35.750757, -21.142939, 73.750000
-35.750757, -21.142939, 73.875000
-36.166463, -21.388787, 74.000000
-35.750757, -21.142939, 74.125000
-35.335051, -20.897091, 74.250000
-35.335051, -20.897091, 74.375000
-35.335051, -20.897091, 74.500000
-35.335051, -20.897091, 74.625000
-34.919344, -20.651243, 74.750000
-35.335051, -20.897091, 74.875000
-34.919344, -20.651243, 75.000000
-34.919344, -20.651243, 75.125000
-34.919344, -20.651243, 75.250000
-34.919344, -20.651243, 75.375000
-34.503638, -20.405394, 75.500000
-34.503638, -20.405394, 75.625000
-34.503638, -20.405394, 75.750000
-34.503638, -20.405394, 75.875000
-34.919344, -20.651243, 76.000000
-34.503638, -20.405394, 76.125000
-34.503638, -20.405394, 76.250000
-34.503638, -20.405394, 76.375000
-34.503638, -20.405394, 76.500000
-34.919344, -20.651243, 76.625000
-34.919344, -20.651243, 76.750000
-34.919344, -20.651243, 76.875000
-34.919344, -20.651243, 77.000000
-34.919344, -20.651243, 77.125000
-35.335051, -20.897091, 77.250000
-35.335051, -20.897091, 77.375000
-35.335051, -20.897091, 77.500000
-35.335051, -20.897091, 77.625000
-35.750757, -21.142939, 77.750000
-35.750757, -21.142939, 77.875000
-36.166463, -21.388787, 78.000000
-36.166463, -21.388787, 78.125000
-36.166463, -21.388787, 78.250000
-36.582170, -21.634635, 78.375000
-36.582170, -21.634635, 78.500000
-36.582170, -21.634635, 78.625000
-36.582170, -21.634635, 78.750000
-36.997876, -21.880483, 78.875000
-36.997876, -21.880483, 79.000000
-37.413583, -22.126331, 79.125000
-37.829289, -22.372179, 79.250000
-37.829289, -22.372179, 79.375000
-37.829289, -22.372179, 79.500000
-37.829289, -22.372179, 79.625000
-38.244996, -22.618028, 79.750000
-38.244996, -22.618028, 79.875000
-38.660702, -22.863876, 80.000000
-38.660702, -22.863876, 80.125000
-38.660702, -22.863876, 80.250000
-39.076409, -23.109724, 80.375000
-39.076409, -23.109724, 80.500000
-39.492115, -23.355572, 80.625000
-39.492115, -23.355572, 80.750000
-39.492115, -23.355572, 80.875000
-39.907822, -23.601420, 81.000000
-40.323528, -23.847268, 81.125000
-40.739235, -24.093116, 81.250000
-40.323528, -23.847268, 81.375000
-40.739235, -24.093116, 81.500000
-40.739235, -24.093116, 81.625000
-40.739235, -24.093116, 81.750000
-41.154941, -24.338964, 81.875000
-41.154941, -24.338964, 82.000000
-41.154941, -24.338964, 82.125000
-41.570648, -24.584813, 82.250000
-41.986354, -24.830661, 82.375000
-41.986354, -24.830661, 82.500000
-41.986354, -24.830661, 82.625000
-41.986354, -24.830661, 82.750000
-42.402061, -25.076509, 82.875000
-42.817767, -25.322357, 83.000000
-42.817767, -25.322357, 83.125000
-42.817767, -25.322357, 83.250000
-42.817767, -25.322357, 83.375000
-42.817767, -25.322357, 83.500000
-42.817767, -25.322357, 83.625000
-43.233474, -25.568205, 83.750000
