-1.044668, -33.241864, 75.125000
-1.044668, -33.241864, 75.250000
-1.033188, -32.876569, 75.375000
-1.033188, -32.876569, 75.500000
-1.033188, -32.876569, 75.625000
-1.044668, -33.241864, 75.750000
-1.044668, -33.241864, 75.875000
-1.044668, -33.241864, 76.000000
-1.044668, -33.241864, 76.125000
-1.044668, -33.241864, 76.250000
-1.044668, -33.241864, 76.375000
-1.056148, -33.607159, 76.500000
-1.056148, -33.607159, 76.625000
-1.067627, -33.972455, 76.750000
-1.079107, -34.337750, 76.875000
-1.067627, -33.972455, 77.000000
-1.079107, -34.337750, 77.125000
-1.079107, -34.337750, 77.250000
-1.079107, -34.337750, 77.375000
-1.090587, -34.703045, 77.500000
-1.102067, -35.068340, 77.625000
-1.102067, -35.068340, 77.750000
-1.102067, -35.068340, 77.875000
-1.113547, -35.433635, 78.000000
-1.125027, -35.798931, 78.125000
-1.125027, -35.798931, 78.250000
-1.136507, -36.164226, 78.375000
-1.136507, -36.164226, 78.500000
-1.136507, -36.164226, 78.625000
-1.147986, -36.529521, 78.750000
-1.147986, -36.529521, 78.875000
-1.147986, -36.529521, 79.000000
-1.159466, -36.894816, 79.125000
-1.159466, -36.894816, 79.250000
-1.170946, -37.260111, 79.375000
-1.182426, -37.625407, 79.500000
-1.193906, -37.990702, 79.625000
-1.193906, -37.990702, 79.750000
-1.205386, -38.355997, 79.875000
-1.205386, -38.355997, 80.000000
-1.205386, -38.355997, 80.125000
-1.216866, -38.721292, 80.250000
-1.228345, -39.086587, 80.375000
-1.228345, -39.086587, 80.500000
-1.228345, -39.086587, 80.625000
-1.239825, -39.451883, 80.750000
-1.251305, -39.817178, 80.875000
-1.251305, -39.817178, 81.000000
-1.262785, -40.182473, 81.125000
-1.262785, -40.182473, 81.250000
-1.274265, -40.547768, 81.375000
-1.285745, -40.913064, 81.500000
-1.285745, -40.913064, 81.625000
-1.285745, -40.913064, 81.750000
-1.297225, -41.278359, 81.875000
-1.308705, -41.643654, 82.000000
-1.308705, -41.643654, 82.125000
-1.320184, -42.008949, 82.250000
-1.320184, -42.008949, 82.375000
-1.331664, -42.374244, 82.500000
-1.331664, -42.374244, 82.625000
-1.331664, -42.374244, 82.750000
-1.331664, -42.374244, 82.875000
-1.331664, -42.374244, 83.000000
-1.343144, -42.739540, 83.125000
-1.343144, -42.739540, 83.250000
-1.354624, -43.104835, 83.375000
-1.354624, -43.104835, 83.500000
-1.366104, -43.470130, 83.625000
-1.389064, -44.200720, 83.750000
-1.882698, -59.908414, 103.375000
-1.894178, -60.273710, 103.500000
-1.894178, -60.273710, 103.625000
-1.882698, -59.908414, 103.750000
-1.836778, -58.447234, 103.875000
-1.917137, -61.004300, 104.000000
-1.871218, -59.543119, 104.125000
-1.871218, -59.543119, 104.250000
-1.974537, -62.830776, 104.375000
-1.974537, -62.830776, 104.500000
-0.000000, -20.832106, 21.000000
-0.000000, -20.466631, 21.125000
-0.000000, -20.466631, 21.250000
-0.000000, -20.832106, 21.375000
-0.000000, -21.197582, 21.500000
-0.000000, -21.197582, 21.625000
-0.000000, -21.563057, 21.750000
-0.000000, -21.928533, 21.875000
-0.000000, -22.294009, 22.000000
-0.000000, -22.659484, 22.125000
-0.000000, -22.659484, 22.250000
-0.000000, -23.024960, 22.375000
-0.000000, -23.024960, 22.500000
-0.000000, -23.390435, 22.625000
-0.000000, -23.390435, 22.750000
-0.000000, -23.390435, 22.875000
-0.000000, -23.755911, 23.000000
-0.000000, -24.486862, 23.125000
-0.000000, -24.486862, 23.250000
-0.000000, -24.121386, 23.375000
-0.000000, -24.486862, 23.500000
-0.000000, -25.217813, 23.625000
-0.000000, -24.852337, 23.750000
-0.000000, -24.852337, 23.875000
-0.000000, -25.217813, 24.000000
-0.000000, -25.583289, 24.125000
-0.000000, -25.948764, 24.250000
-0.000000, -25.948764, 24.375000
-0.000000, -25.948764, 24.500000
-0.000000, -25.948764, 24.625000
-0.000000, -25.948764, 24.750000
-0.000000, -26.679715, 24.875000
-0.000000, -26.679715, 25.000000
-0.000000, -26.679715, 25.125000
-0.000000, -27.045191, 25.250000
-0.000000, -27.045191, 25.375000
-0.000000, -27.410666, 25.500000
-0.000000, -27.776142, 25.625000
-0.000000, -27.410666, 25.750000
-0.000000, -27.776142, 25.875000
-0.000000, -28.141617, 26.000000
-0.000000, -28.141617, 26.125000
-0.000000, -28.141617, 26.250000
-0.000000, -28.507093, 26.375000
-0.000000, -28.872568, 26.500000
-0.000000, -28.507093, 26.625000
-0.000000, -28.507093, 26.750000
-0.000000, -28.507093, 26.875000
-0.000000, -28.872568, 27.000000
-0.000000, -29.238044, 27.125000
-0.000000, -29.238044, 27.250000
-0.000000, -29.603520, 27.375000
-0.000000, -29.603520, 27.500000
-0.000000, -29.968995, 27.625000
-0.000000, -29.968995, 27.750000
-0.000000, -29.968995, 27.875000
-0.000000, -29.968995, 28.000000
-0.000000, -30.334471, 28.125000
-0.000000, -30.334471, 28.250000
-0.000000, -30.334471, 28.375000
-0.000000, -30.699946, 28.500000
-0.000000, -30.699946, 28.625000
-0.000000, -30.699946, 28.750000
-0.000000, -31.065422, 28.875000
-0.000000, -31.430897, 29.000000
-0.000000, -31.430897, 29.125000
-0.000000, -31.430897, 29.250000
-0.000000, -31.430897, 29.375000
-0.000000, -31.430897, 29.500000
-0.000000, -31.796373, 29.625000
-0.000000, -31.796373, 29.750000
-0.000000, -31.796373, 29.875000
-0.000000, -32.161848, 30.000000
-0.000000, -32.161848, 30.125000
-0.000000, -32.161848, 30.250000
-0.000000, -32.527324, 30.375000
-0.000000, -32.892800, 30.500000
-0.000000, -32.527324, 30.625000
-0.000000, -32.892800, 30.750000
-0.000000, -32.892800, 30.875000
-0.000000, -32.892800, 31.000000
-0.000000, -32.892800, 31.125000
-0.000000, -33.258275, 31.250000
-0.000000, -33.258275, 31.375000
-0.000000, -33.258275, 31.500000
-0.000000, -33.623751, 31.625000
-0.000000, -33.623751, 31.750000
-0.000000, -33.989226, 31.875000
-0.000000, -33.989226, 32.000000
-0.000000, -33.989226, 32.125000
-0.000000, -34.354702, 32.250000
-0.000000, -34.354702, 32.375000
-0.000000, -34.354702, 32.500000
-0.000000, -34.720177, 32.625000
-0.000000, -34.720177, 32.750000
-0.000000, -34.720177, 32.875000
-0.000000, -34.720177, 33.000000
-0.000000, -34.720177, 33.125000
-0.000000, -35.085653, 33.250000
-0.000000, -35.085653, 33.375000
-0.000000, -35.451128, 33.500000
-0.000000, -35.451128, 33.625000
-0.000000, -35.451128, 33.750000
-0.000000, -35.451128, 33.875000
-0.000000, -35.816604, 34.000000
-0.000000, -35.451128, 34.125000
-0.000000, -35.451128, 34.250000
-0.000000, -36.182079, 34.375000
-0.000000, -35.816604, 34.500000
-0.000000, -35.816604, 34.625000
-0.000000, -36.182079, 34.750000
-0.000000, -36.182079, 34.875000
-0.000000, -36.182079, 35.000000
-0.000000, -36.547555, 35.125000
-0.000000, -36.547555, 35.250000
-0.000000, -36.547555, 35.375000
-0.000000, -36.547555, 35.500000
-0.000000, -36.913031, 35.625000
-0.000000, -37.278506, 35.750000
-0.000000, -36.913031, 35.875000
-0.000000, -36.913031, 36.000000
-0.000000, -37.278506, 36.125000
-0.000000, -37.278506, 36.250000
-0.000000, -37.278506, 36.375000
-0.000000, -37.643982, 36.500000
-0.000000, -37.643982, 36.625000
-0.000000, -37.643982, 36.750000
-0.000000, -37.643982, 36.875000
-0.000000, -37.643982, 37.000000
-0.000000, -38.009457, 37.125000
-0.000000, -38.009457, 37.250000
-0.000000, -38.009457, 37.375000
-0.000000, -38.009457, 37.500000
-0.000000, -38.374933, 37.625000
-0.000000, -38.374933, 37.750000
-0.000000, -38.374933, 37.875000
-0.000000, -38.374933, 38.000000
-0.000000, -38.374933, 38.125000
-0.000000, -38.740408, 38.250000
-0.000000, -38.740408, 38.375000
-0.000000, -38.740408, 38.500000
-0.000000, -38.740408, 38.625000
-0.000000, -38.740408, 38.750000
-0.000000, -38.740408, 38.875000
-0.000000, -38.740408, 39.000000
-0.000000, -38.740408, 39.125000
-0.000000, -39.471359, 39.250000
-0.000000, -39.105884, 39.375000
-0.000000, -39.105884, 39.500000
-0.000000, -39.105884, 39.625000
-0.000000, -39.471359, 39.750000
-0.000000, -39.471359, 39.875000
-0.000000, -39.471359, 40.000000
-0.000000, -39.471359, 40.125000
-0.000000, -39.471359, 40.250000
-0.000000, -39.836835, 40.375000
-0.000000, -39.836835, 40.500000
-0.000000, -39.836835, 40.625000
-0.000000, -39.836835, 40.750000
-0.000000, -40.202311, 40.875000
-0.000000, -39.836835, 41.000000
-0.000000, -40.202311, 41.125000
-0.000000, -40.202311, 41.250000
-0.000000, -40.202311, 41.375000
-0.000000, -40.567786, 41.500000
-0.000000, -40.202311, 41.625000
-0.000000, -40.202311, 41.750000
-0.000000, -40.567786, 41.875000
-0.000000, -40.567786, 42.000000
-0.000000, -40.567786, 42.125000
-0.000000, -40.567786, 42.250000
-0.000000, -40.567786, 42.375000
-0.000000, -40.567786, 42.500000
-0.000000, -40.567786, 42.625000
-0.000000, -40.933262, 42.750000
-0.000000, -40.933262, 42.875000
-0.000000, -40.933262, 43.000000
-0.000000, -40.933262, 43.125000
-0.000000, -40.933262, 43.250000
-0.000000, -40.933262, 43.375000
-0.000000, -41.298737, 43.500000
-0.000000, -41.664213, 43.625000
-0.000000, -41.664213, 43.750000
-0.000000, -41.664213, 43.875000
-0.000000, -41.664213, 44.000000
-0.000000, -41.298737, 44.125000
-0.000000, -41.298737, 44.250000
-0.000000, -41.298737, 44.375000
-0.000000, -41.664213, 44.500000
-0.000000, -41.664213, 44.625000
-0.000000, -41.664213, 44.750000
-0.000000, -41.664213, 44.875000
-0.000000, -41.664213, 45.000000
-0.000000, -41.664213, 45.125000
-0.000000, -41.664213, 45.250000
-0.000000, -42.029688, 45.375000
-0.000000, -42.029688, 45.500000
-0.000000, -42.029688, 45.625000
-0.000000, -42.029688, 45.750000
-0.000000, -42.029688, 45.875000
-0.000000, -42.029688, 46.000000
-0.000000, -42.395164, 46.125000
-0.000000, -42.029688, 46.250000
-0.000000, -42.029688, 46.375000
-0.000000, -42.029688, 46.500000
-0.000000, -42.395164, 46.625000
-0.000000, -42.395164, 46.750000
-0.000000, -42.395164, 46.875000
-0.000000, -42.760639, 47.000000
-0.000000, -42.760639, 47.125000
-0.000000, -42.395164, 47.250000
-0.000000, -42.395164, 47.375000
-0.000000, -42.395164, 47.500000
-0.000000, -42.760639, 47.625000
-0.000000, -43.126115, 47.750000
-0.000000, -42.760639, 47.875000
-0.000000, -42.760639, 48.000000
-0.000000, -42.760639, 48.125000
-0.000000, -42.760639, 48.250000
-0.000000, -42.760639, 48.375000
-0.000000, -42.760639, 48.500000
-0.000000, -42.760639, 48.625000
-0.000000, -42.760639, 48.750000
-0.000000, -42.760639, 48.875000
-0.000000, -43.126115, 49.000000
-0.000000, -42.760639, 49.125000
-0.000000, -43.126115, 49.250000
-0.000000, -43.126115, 49.375000
-0.000000, -43.491590, 49.500000
-0.000000, -43.491590, 49.625000
-0.000000, -43.126115, 49.750000
-0.000000, -43.491590, 49.875000
-0.000000, -43.126115, 50.000000
-0.000000, -43.491590, 50.125000
-0.000000, -43.491590, 50.250000
-0.000000, -43.491590, 50.375000
-0.000000, -43.491590, 50.500000
-0.000000, -43.491590, 50.625000
-0.000000, -43.491590, 50.750000
-0.000000, -43.491590, 50.875000
-0.000000, -43.491590, 51.000000
-0.000000, -43.491590, 51.125000
-0.000000, -43.491590, 51.250000
-0.000000, -43.491590, 51.375000
-0.000000, -43.857066, 51.500000
-0.000000, -43.491590, 51.625000
-0.000000, -43.491590, 51.750000
-0.000000, -43.857066, 51.875000
-0.000000, -43.491590, 52.000000
-0.000000, -43.857066, 52.125000
-0.000000, -43.857066, 52.250000
-0.000000, -43.857066, 52.375000
-0.000000, -43.857066, 52.500000
-0.000000, -43.491590, 52.625000
-0.000000, -43.857066, 52.750000
-0.000000, -43.857066, 52.875000
-0.000000, -43.857066, 53.000000
-0.000000, -43.857066, 53.125000
-0.000000, -43.857066, 53.250000
-0.000000, -43.857066, 53.375000
-0.000000, -43.857066, 53.500000
-0.000000, -43.857066, 53.625000
-0.000000, -43.857066, 53.750000
-0.000000, -43.857066, 53.875000
-0.000000, -43.857066, 54.000000
-0.000000, -43.857066, 54.125000
-0.000000, -43.857066, 54.250000
-0.000000, -43.491590, 54.375000
-0.000000, -43.857066, 54.500000
-0.000000, -43.857066, 54.625000
-0.000000, -44.222542, 54.750000
-0.000000, -43.857066, 54.875000
-0.000000, -43.857066, 55.000000
-0.000000, -43.857066, 55.125000
-0.000000, -43.857066, 55.250000
-0.000000, -43.857066, 55.375000
-0.000000, -43.857066, 55.500000
-0.000000, -43.857066, 55.625000
-0.000000, -43.857066, 55.750000
-0.000000, -43.857066, 55.875000
-0.000000, -44.222542, 56.000000
-0.000000, -43.857066, 56.125000
-0.000000, -43.491590, 56.250000
-0.000000, -43.857066, 56.375000
-0.000000, -44.222542, 56.500000
-0.000000, -44.222542, 56.625000
-0.000000, -44.222542, 56.750000
-0.000000, -43.857066, 56.875000
-0.000000, -43.857066, 57.000000
-0.000000, -44.222542, 57.125000
-0.000000, -43.857066, 57.250000
-0.000000, -43.857066, 57.375000
-0.000000, -43.857066, 57.500000
-0.000000, -43.857066, 57.625000
-0.000000, -43.857066, 57.750000
-0.000000, -43.857066, 57.875000
-0.000000, -43.857066, 58.000000
-0.000000, -43.857066, 58.125000
-0.000000, -43.857066, 58.250000
-0.000000, -43.857066, 58.375000
-0.000000, -43.857066, 58.500000
-0.000000, -43.857066, 58.625000
-0.000000, -43.857066, 58.750000
-0.000000, -43.857066, 58.875000
-0.000000, -43.857066, 59.000000
-0.000000, -43.491590, 59.125000
-0.000000, -43.857066, 59.250000
-0.000000, -43.491590, 59.375000
-0.000000, -43.491590, 59.500000
-0.000000, -43.491590, 59.625000
-0.000000, -43.491590, 59.750000
-0.000000, -43.491590, 59.875000
-0.000000, -43.491590, 60.000000
-0.000000, -43.491590, 60.125000
-0.000000, -43.857066, 60.250000
-0.000000, -43.491590, 60.375000
-0.000000, -43.491590, 60.500000
-0.000000, -43.491590, 60.625000
-0.000000, -43.491590, 60.750000
-0.000000, -43.491590, 60.875000
-0.000000, -43.491590, 61.000000
-0.000000, -43.491590, 61.125000
-0.000000, -43.491590, 61.250000
-0.000000, -43.491590, 61.375000
-0.000000, -43.491590, 61.500000
-0.000000, -43.126115, 61.625000
-0.000000, -43.126115, 61.750000
-0.000000, -43.126115, 61.875000
-0.000000, -43.126115, 62.000000
-0.000000, -43.126115, 62.125000
-0.000000, -43.126115, 62.250000
-0.000000, -43.126115, 62.375000
-0.000000, -43.126115, 62.500000
-0.000000, -43.126115, 62.625000
-0.000000, -43.126115, 62.750000
-0.000000, -42.760639, 62.875000
-0.000000, -42.760639, 63.000000
-0.000000, -42.760639, 63.125000
-0.000000, -42.760639, 63.250000
-0.000000, -42.760639, 63.375000
-0.000000, -43.126115, 63.500000
-0.000000, -42.760639, 63.625000
-0.000000, -42.760639, 63.750000
-0.000000, -42.760639, 63.875000
-0.000000, -42.760639, 64.000000
-0.000000, -42.760639, 64.125000
-0.000000, -42.760639, 64.250000
-0.000000, -42.760639, 64.375000
-0.000000, -42.395164, 64.500000
-0.000000, -42.395164, 64.625000
-0.000000, -42.395164, 64.750000
-0.000000, -42.395164, 64.875000
-0.000000, -42.395164, 65.000000
-0.000000, -42.029688, 65.125000
-0.000000, -42.395164, 65.250000
-0.000000, -42.029688, 65.375000
-0.000000, -42.029688, 65.500000
-0.000000, -42.029688, 65.625000
-0.000000, -41.664213, 65.750000
-0.000000, -41.664213, 65.875000
-0.000000, -41.664213, 66.000000
-0.000000, -41.664213, 66.125000
-0.000000, -41.664213, 66.250000
-0.000000, -41.664213, 66.375000
-0.000000, -41.664213, 66.500000
-0.000000, -41.298737, 66.625000
-0.000000, -41.298737, 66.750000
-0.000000, -41.298737, 66.875000
-0.000000, -41.298737, 67.000000
-0.000000, -41.298737, 67.125000
-0.000000, -41.298737, 67.250000
-0.000000, -41.298737, 67.375000
-0.000000, -41.298737, 67.500000
-0.000000, -41.298737, 67.625000
-0.000000, -40.567786, 67.750000
-0.000000, -40.567786, 67.875000
-0.000000, -40.567786, 68.000000
-0.000000, -40.567786, 68.125000
-0.000000, -40.202311, 68.250000
-0.000000, -40.202311, 68.375000
-0.000000, -40.202311, 68.500000
-0.000000, -40.202311, 68.625000
-0.000000, -40.202311, 68.750000
-0.000000, -39.471359, 68.875000
-0.000000, -39.471359, 69.000000
-0.000000, -39.471359, 69.125000
-0.000000, -39.471359, 69.250000
-0.000000, -39.471359, 69.375000
-0.000000, -39.471359, 69.500000
-0.000000, -39.471359, 69.625000
-0.000000, -39.105884, 69.750000
-0.000000, -39.105884, 69.875000
-0.000000, -39.105884, 70.000000
-0.000000, -38.740408, 70.125000
-0.000000, -38.374933, 70.250000
-0.000000, -38.374933, 70.375000
-0.000000, -38.374933, 70.500000
-0.000000, -38.009457, 70.625000
-0.000000, -38.009457, 70.750000
-0.000000, -37.643982, 70.875000
-0.000000, -37.643982, 71.000000
-0.000000, -37.278506, 71.125000
-0.000000, -36.913031, 71.250000
-0.000000, -36.913031, 71.375000
-0.000000, -36.913031, 71.500000
-0.000000, -36.547555, 71.625000
-0.000000, -36.547555, 71.750000
-0.000000, -36.547555, 71.875000
-0.000000, -36.547555, 72.000000
-0.000000, -36.182079, 72.125000
-0.000000, -35.816604, 72.250000
-0.000000, -35.816604, 72.375000
-0.000000, -35.816604, 72.500000
-0.000000, -35.816604, 72.625000
-0.000000, -35.451128, 72.750000
-0.000000, -35.451128, 72.875000
-0.000000, -35.451128, 73.000000
-0.000000, -35.085653, 73.125000
-0.000000, -35.085653, 73.250000
-0.000000, -35.085653, 73.375000
-0.000000, -34.720177, 73.500000
-0.000000, -34.354702, 73.625000
-0.000000, -34.354702, 73.750000
-0.000000, -34.354702, 73.875000
-0.000000, -33.989226, 74.000000
-0.000000, -33.989226, 74.125000
-0.000000, -33.989226, 74.250000
-0.000000, -33.623751, 74.375000
-0.000000, -33.623751, 74.500000
-0.000000, -33.623751, 74.625000
-0.000000, -33.258275, 74.750000
-0.000000, -33.258275, 74.875000
-0.000000, -33.258275, 75.000000
-0.000000, -32.892800, 75.125000
-0.000000, -32.892800, 75.250000
-0.000000, -32.892800, 75.375000
-0.000000, -32.892800, 75.500000
-0.000000, -32.892800, 75.625000
-0.000000, -32.892800, 75.750000
-0.000000, -32.892800, 75.875000
-0.000000, -33.623751, 76.000000
-0.000000, -33.258275, 76.125000
-0.000000, -33.258275, 76.250000
-0.000000, -33.623751, 76.375000
-0.000000, -33.623751, 76.500000
-0.000000, -33.623751, 76.625000
-0.000000, -33.623751, 76.750000
-0.000000, -33.989226, 76.875000
-0.000000, -33.989226, 77.000000
-0.000000, -33.989226, 77.125000
-0.000000, -34.354702, 77.250000
-0.000000, -34.720177, 77.375000
-0.000000, -34.720177, 77.500000
-0.000000, -34.720177, 77.625000
-0.000000, -35.451128, 77.750000
-0.000000, -35.451128, 77.875000
-0.000000, -35.451128, 78.000000
-0.000000, -35.451128, 78.125000
-0.000000, -35.816604, 78.250000
-0.000000, -35.816604, 78.375000
-0.000000, -36.182079, 78.500000
-0.000000, -36.182079, 78.625000
-0.000000, -36.547555, 78.750000
-0.000000, -36.547555, 78.875000
-0.000000, -36.913031, 79.000000
-0.000000, -36.913031, 79.125000
-0.000000, -37.278506, 79.250000
-0.000000, -37.643982, 79.375000
-0.000000, -37.643982, 79.500000
-0.000000, -38.009457, 79.625000
-0.000000, -38.009457, 79.750000
-0.000000, -38.374933, 79.875000
-0.000000, -38.374933, 80.000000
-0.000000, -38.374933, 80.125000
-0.000000, -38.740408, 80.250000
-0.000000, -39.105884, 80.375000
-0.000000, -39.105884, 80.500000
-0.000000, -39.471359, 80.625000
-0.000000, -39.471359, 80.750000
-0.000000, -39.471359, 80.875000
-0.000000, -40.202311, 81.000000
-0.000000, -40.202311, 81.125000
-0.000000, -40.567786, 81.250000
-0.000000, -40.567786, 81.375000
-0.000000, -40.933262, 81.500000
-0.000000, -40.933262, 81.625000
-0.000000, -41.298737, 81.750000
-0.000000, -41.298737, 81.875000
-0.000000, -41.664213, 82.000000
-0.000000, -42.029688, 82.125000
-0.000000, -42.029688, 82.250000
-0.000000, -42.029688, 82.375000
-0.000000, -42.029688, 82.500000
-0.000000, -42.395164, 82.625000
-0.000000, -42.395164, 82.750000
-0.000000, -42.395164, 82.875000
-0.000000, -42.395164, 83.000000
-0.000000, -42.760639, 83.125000
-0.000000, -42.760639, 83.250000
-0.000000, -43.126115, 83.375000
-0.000000, -43.126115, 83.500000
-0.000000, -43.126115, 83.625000
-0.000000, -43.491590, 83.750000
-0.000000, -42.760639, 83.875000
-0.000000, -60.303466, 103.375000
-0.000000, -60.303466, 103.500000
-0.000000, -60.303466, 103.625000
-0.000000, -59.937990, 103.750000
-0.000000, -58.476088, 103.875000
-0.000000, -59.937990, 104.000000
-0.000000, -59.572515, 104.125000
-0.000000, -59.572515, 104.250000
-0.000000, -62.861795, 104.375000
-0.000000, -62.861795, 104.500000
0.642872, -20.456532, 21.000000
0.642872, -20.456532, 21.125000
0.654352, -20.821827, 21.250000
0.654352, -20.821827, 21.375000
0.654352, -20.821827, 21.500000
0.677312, -21.552417, 21.625000
0.677312, -21.552417, 21.750000
0.688792, -21.917713, 21.875000
0.700272, -22.283008, 22.000000
0.700272, -22.283008, 22.125000
0.700272, -22.283008, 22.250000
0.711752, -22.648303, 22.375000
0.723231, -23.013598, 22.500000
0.734711, -23.378893, 22.625000
0.723231, -23.013598, 22.750000
0.734711, -23.378893, 22.875000
0.757671, -24.109484, 23.000000
0.746191, -23.744189, 23.125000
0.757671, -24.109484, 23.250000
0.757671, -24.109484, 23.375000
0.769151, -24.474779, 23.500000
0.769151, -24.474779, 23.625000
0.780631, -24.840074, 23.750000
0.780631, -24.840074, 23.875000
0.780631, -24.840074, 24.000000
0.792111, -25.205369, 24.125000
0.803591, -25.570665, 24.250000
0.815070, -25.935960, 24.375000
0.815070, -25.935960, 24.500000
0.826550, -26.301255, 24.625000
0.826550, -26.301255, 24.750000
0.838030, -26.666550, 24.875000
0.838030, -26.666550, 25.000000
0.838030, -26.666550, 25.125000
0.849510, -27.031846, 25.250000
0.849510, -27.031846, 25.375000
0.860990, -27.397141, 25.500000
0.860990, -27.397141, 25.625000
0.860990, -27.397141, 25.750000
0.872470, -27.762436, 25.875000
0.872470, -27.762436, 26.000000
0.872470, -27.762436, 26.125000
0.883950, -28.127731, 26.250000
0.883950, -28.127731, 26.375000
0.883950, -28.127731, 26.500000
0.883950, -28.127731, 26.625000
0.895429, -28.493026, 26.750000
0.906909, -28.858322, 26.875000
0.906909, -28.858322, 27.000000
0.906909, -28.858322, 27.125000
0.918389, -29.223617, 27.250000
0.929869, -29.588912, 27.375000
0.929869, -29.588912, 27.500000
0.929869, -29.588912, 27.625000
0.929869, -29.588912, 27.750000
0.941349, -29.954207, 27.875000
0.941349, -29.954207, 28.000000
0.952829, -30.319502, 28.125000
0.952829, -30.319502, 28.250000
0.952829, -30.319502, 28.375000
0.964309, -30.684798, 28.500000
0.964309, -30.684798, 28.625000
0.964309, -30.684798, 28.750000
0.964309, -30.684798, 28.875000
0.975788, -31.050093, 29.000000
0.975788, -31.050093, 29.125000
0.987268, -31.415388, 29.250000
0.987268, -31.415388, 29.375000
0.987268, -31.415388, 29.500000
0.987268, -31.415388, 29.625000
0.998748, -31.780683, 29.750000
0.998748, -31.780683, 29.875000
1.010228, -32.145978, 30.000000
1.010228, -32.145978, 30.125000
1.021708, -32.511274, 30.250000
1.033188, -32.876569, 30.375000
1.021708, -32.511274, 30.500000
1.033188, -32.876569, 30.625000
1.021708, -32.511274, 30.750000
1.033188, -32.876569, 30.875000
1.033188, -32.876569, 31.000000
1.033188, -32.876569, 31.125000
1.056148, -33.607159, 31.250000
1.044668, -33.241864, 31.375000
1.044668, -33.241864, 31.500000
1.044668, -33.241864, 31.625000
1.056148, -33.607159, 31.750000
1.067627, -33.972455, 31.875000
1.067627, -33.972455, 32.000000
1.067627, -33.972455, 32.125000
1.067627, -33.972455, 32.250000
1.067627, -33.972455, 32.375000
1.079107, -34.337750, 32.500000
1.090587, -34.703045, 32.625000
1.079107, -34.337750, 32.750000
1.090587, -34.703045, 32.875000
1.090587, -34.703045, 33.000000
1.090587, -34.703045, 33.125000
1.090587, -34.703045, 33.250000
1.102067, -35.068340, 33.375000
1.102067, -35.068340, 33.500000
1.102067, -35.068340, 33.625000
1.113547, -35.433635, 33.750000
1.113547, -35.433635, 33.875000
1.125027, -35.798931, 34.000000
1.113547, -35.433635, 34.125000
1.113547, -35.433635, 34.250000
1.136507, -36.164226, 34.375000
1.125027, -35.798931, 34.500000
1.125027, -35.798931, 34.625000
1.136507, -36.164226, 34.750000
1.136507, -36.164226, 34.875000
1.147986, -36.529521, 35.000000
1.147986, -36.529521, 35.125000
1.136507, -36.164226, 35.250000
1.147986, -36.529521, 35.375000
1.147986, -36.529521, 35.500000
1.159466, -36.894816, 35.625000
1.159466, -36.894816, 35.750000
1.170946, -37.260111, 35.875000
1.159466, -36.894816, 36.000000
1.170946, -37.260111, 36.125000
1.170946, -37.260111, 36.250000
1.170946, -37.260111, 36.375000
1.170946, -37.260111, 36.500000
1.170946, -37.260111, 36.625000
1.182426, -37.625407, 36.750000
1.182426, -37.625407, 36.875000
1.182426, -37.625407, 37.000000
1.193906, -37.990702, 37.125000
1.193906, -37.990702, 37.250000
1.193906, -37.990702, 37.375000
1.193906, -37.990702, 37.500000
1.205386, -38.355997, 37.625000
1.205386, -38.355997, 37.750000
1.205386, -38.355997, 37.875000
1.205386, -38.355997, 38.000000
1.216866, -38.721292, 38.125000
1.205386, -38.355997, 38.250000
1.216866, -38.721292, 38.375000
1.216866, -38.721292, 38.500000
1.216866, -38.721292, 38.625000
1.216866, -38.721292, 38.750000
1.216866, -38.721292, 38.875000
1.216866, -38.721292, 39.000000
1.216866, -38.721292, 39.125000
1.228345, -39.086587, 39.250000
1.228345, -39.086587, 39.375000
1.228345, -39.086587, 39.500000
1.228345, -39.086587, 39.625000
1.239825, -39.451883, 39.750000
1.239825, -39.451883, 39.875000
1.239825, -39.451883, 40.000000
1.239825, -39.451883, 40.125000
1.239825, -39.451883, 40.250000
1.239825, -39.451883, 40.375000
1.251305, -39.817178, 40.500000
1.251305, -39.817178, 40.625000
1.251305, -39.817178, 40.750000
1.251305, -39.817178, 40.875000
1.251305, -39.817178, 41.000000
1.251305, -39.817178, 41.125000
1.262785, -40.182473, 41.250000
1.262785, -40.182473, 41.375000
1.262785, -40.182473, 41.500000
1.262785, -40.182473, 41.625000
1.274265, -40.547768, 41.750000
1.274265, -40.547768, 41.875000
1.274265, -40.547768, 42.000000
1.274265, -40.547768, 42.125000
1.274265, -40.547768, 42.250000
1.274265, -40.547768, 42.375000
1.274265, -40.547768, 42.500000
1.285745, -40.913064, 42.625000
1.285745, -40.913064, 42.750000
1.285745, -40.913064, 42.875000
1.285745, -40.913064, 43.000000
1.285745, -40.913064, 43.125000
1.285745, -40.913064, 43.250000
1.285745, -40.913064, 43.375000
1.285745, -40.913064, 43.500000
1.297225, -41.278359, 43.625000
1.285745, -40.913064, 43.750000
1.297225, -41.278359, 43.875000
1.297225, -41.278359, 44.000000
1.297225, -41.278359, 44.125000
1.297225, -41.278359, 44.250000
1.297225, -41.278359, 44.375000
1.308705, -41.643654, 44.500000
1.297225, -41.278359, 44.625000
1.308705, -41.643654, 44.750000
1.308705, -41.643654, 44.875000
1.308705, -41.643654, 45.000000
1.308705, -41.643654, 45.125000
1.308705, -41.643654, 45.250000
1.320184, -42.008949, 45.375000
1.320184, -42.008949, 45.500000
1.320184, -42.008949, 45.625000
1.320184, -42.008949, 45.750000
1.320184, -42.008949, 45.875000
1.320184, -42.008949, 46.000000
1.331664, -42.374244, 46.125000
1.320184, -42.008949, 46.250000
1.331664, -42.374244, 46.375000
1.331664, -42.374244, 46.500000
1.331664, -42.374244, 46.625000
1.331664, -42.374244, 46.750000
1.343144, -42.739540, 46.875000
1.331664, -42.374244, 47.000000
1.331664, -42.374244, 47.125000
1.331664, -42.374244, 47.250000
1.331664, -42.374244, 47.375000
1.331664, -42.374244, 47.500000
1.331664, -42.374244, 47.625000
1.343144, -42.739540, 47.750000
1.343144, -42.739540, 47.875000
1.343144, -42.739540, 48.000000
1.343144, -42.739540, 48.125000
1.343144, -42.739540, 48.250000
1.343144, -42.739540, 48.375000
1.343144, -42.739540, 48.500000
1.343144, -42.739540, 48.625000
1.343144, -42.739540, 48.750000
1.343144, -42.739540, 48.875000
1.343144, -42.739540, 49.000000
1.354624, -43.104835, 49.125000
1.354624, -43.104835, 49.250000
1.354624, -43.104835, 49.375000
1.354624, -43.104835, 49.500000
1.354624, -43.104835, 49.625000
1.354624, -43.104835, 49.750000
1.366104, -43.470130, 49.875000
1.354624, -43.104835, 50.000000
1.354624, -43.104835, 50.125000
1.354624, -43.104835, 50.250000
1.354624, -43.104835, 50.375000
1.366104, -43.470130, 50.500000
1.366104, -43.470130, 50.625000
1.366104, -43.470130, 50.750000
1.354624, -43.104835, 50.875000
1.354624, -43.104835, 51.000000
1.366104, -43.470130, 51.125000
1.366104, -43.470130, 51.250000
1.366104, -43.470130, 51.375000
1.377584, -43.835425, 51.500000
1.366104, -43.470130, 51.625000
1.366104, -43.470130, 51.750000
1.366104, -43.470130, 51.875000
1.366104, -43.470130, 52.000000
1.377584, -43.835425, 52.125000
1.366104, -43.470130, 52.250000
1.366104, -43.470130, 52.375000
1.377584, -43.835425, 52.500000
1.377584, -43.835425, 52.625000
1.377584, -43.835425, 52.750000
1.377584, -43.835425, 52.875000
1.377584, -43.835425, 53.000000
1.377584, -43.835425, 53.125000
1.377584, -43.835425, 53.250000
1.377584, -43.835425, 53.375000
1.377584, -43.835425, 53.500000
1.377584, -43.835425, 53.625000
1.377584, -43.835425, 53.750000
1.377584, -43.835425, 53.875000
1.377584, -43.835425, 54.000000
1.377584, -43.835425, 54.125000
1.377584, -43.835425, 54.250000
1.377584, -43.835425, 54.375000
1.377584, -43.835425, 54.500000
1.377584, -43.835425, 54.625000
1.377584, -43.835425, 54.750000
1.377584, -43.835425, 54.875000
1.389064, -44.200720, 55.000000
1.389064, -44.200720, 55.125000
1.366104, -43.470130, 55.250000
1.389064, -44.200720, 55.375000
1.377584, -43.835425, 55.500000
1.377584, -43.835425, 55.625000
1.377584, -43.835425, 55.750000
1.377584, -43.835425, 55.875000
1.389064, -44.200720, 56.000000
1.389064, -44.200720, 56.125000
1.377584, -43.835425, 56.250000
1.377584, -43.835425, 56.375000
1.377584, -43.835425, 56.500000
1.377584, -43.835425, 56.625000
1.377584, -43.835425, 56.750000
1.377584, -43.835425, 56.875000
1.377584, -43.835425, 57.000000
1.366104, -43.470130, 57.125000
1.377584, -43.835425, 57.250000
1.377584, -43.835425, 57.375000
1.377584, -43.835425, 57.500000
1.377584, -43.835425, 57.625000
1.377584, -43.835425, 57.750000
1.377584, -43.835425, 57.875000
1.366104, -43.470130, 58.000000
1.366104, -43.470130, 58.125000
1.377584, -43.835425, 58.250000
1.377584, -43.835425, 58.375000
1.366104, -43.470130, 58.500000
1.377584, -43.835425, 58.625000
1.366104, -43.470130, 58.750000
1.366104, -43.470130, 58.875000
1.366104, -43.470130, 59.000000
1.366104, -43.470130, 59.125000
1.366104, -43.470130, 59.250000
1.366104, -43.470130, 59.375000
1.366104, -43.470130, 59.500000
1.377584, -43.835425, 59.625000
1.377584, -43.835425, 59.750000
1.366104, -43.470130, 59.875000
1.377584, -43.835425, 60.000000
1.366104, -43.470130, 60.125000
1.377584, -43.835425, 60.250000
1.377584, -43.835425, 60.375000
1.377584, -43.835425, 60.500000
1.366104, -43.470130, 60.625000
1.366104, -43.470130, 60.750000
1.366104, -43.470130, 60.875000
1.354624, -43.104835, 61.000000
1.354624, -43.104835, 61.125000
1.354624, -43.104835, 61.250000
1.354624, -43.104835, 61.375000
1.354624, -43.104835, 61.500000
1.354624, -43.104835, 61.625000
1.354624, -43.104835, 61.750000
1.354624, -43.104835, 61.875000
1.354624, -43.104835, 62.000000
1.354624, -43.104835, 62.125000
1.354624, -43.104835, 62.250000
1.354624, -43.104835, 62.375000
1.354624, -43.104835, 62.500000
1.354624, -43.104835, 62.625000
1.343144, -42.739540, 62.750000
1.343144, -42.739540, 62.875000
1.343144, -42.739540, 63.000000
1.343144, -42.739540, 63.125000
1.343144, -42.739540, 63.250000
1.343144, -42.739540, 63.375000
1.343144, -42.739540, 63.500000
1.343144, -42.739540, 63.625000
1.343144, -42.739540, 63.750000
1.343144, -42.739540, 63.875000
1.343144, -42.739540, 64.000000
1.331664, -42.374244, 64.125000
1.343144, -42.739540, 64.250000
1.331664, -42.374244, 64.375000
1.331664, -42.374244, 64.500000
1.331664, -42.374244, 64.625000
1.331664, -42.374244, 64.750000
1.331664, -42.374244, 64.875000
1.331664, -42.374244, 65.000000
1.320184, -42.008949, 65.125000
1.320184, -42.008949, 65.250000
1.320184, -42.008949, 65.375000
1.331664, -42.374244, 65.500000
1.320184, -42.008949, 65.625000
1.320184, -42.008949, 65.750000
1.308705, -41.643654, 65.875000
1.320184, -42.008949, 66.000000
1.320184, -42.008949, 66.125000
1.308705, -41.643654, 66.250000
1.308705, -41.643654, 66.375000
1.297225, -41.278359, 66.500000
1.297225, -41.278359, 66.625000
1.297225, -41.278359, 66.750000
1.297225, -41.278359, 66.875000
1.297225, -41.278359, 67.000000
1.297225, -41.278359, 67.125000
1.297225, -41.278359, 67.250000
1.285745, -40.913064, 67.375000
1.285745, -40.913064, 67.500000
1.274265, -40.547768, 67.625000
1.274265, -40.547768, 67.750000
1.274265, -40.547768, 67.875000
1.274265, -40.547768, 68.000000
1.274265, -40.547768, 68.125000
1.274265, -40.547768, 68.250000
1.262785, -40.182473, 68.375000
1.262785, -40.182473, 68.500000
1.262785, -40.182473, 68.625000
1.251305, -39.817178, 68.750000
1.251305, -39.817178, 68.875000
1.251305, -39.817178, 69.000000
1.239825, -39.451883, 69.125000
1.251305, -39.817178, 69.250000
1.239825, -39.451883, 69.375000
1.239825, -39.451883, 69.500000
1.228345, -39.086587, 69.625000
1.239825, -39.451883, 69.750000
1.228345, -39.086587, 69.875000
1.228345, -39.086587, 70.000000
1.228345, -39.086587, 70.125000
1.228345, -39.086587, 70.250000
1.205386, -38.355997, 70.375000
1.205386, -38.355997, 70.500000
1.193906, -37.990702, 70.625000
1.182426, -37.625407, 70.750000
1.182426, -37.625407, 70.875000
1.182426, -37.625407, 71.000000
1.170946, -37.260111, 71.125000
1.159466, -36.894816, 71.250000
1.159466, -36.894816, 71.375000
1.159466, -36.894816, 71.500000
1.147986, -36.529521, 71.625000
1.147986, -36.529521, 71.750000
1.136507, -36.164226, 71.875000
1.136507, -36.164226, 72.000000
1.136507, -36.164226, 72.125000
1.125027, -35.798931, 72.250000
1.136507, -36.164226, 72.375000
1.113547, -35.433635, 72.500000
1.113547, -35.433635, 72.625000
1.113547, -35.433635, 72.750000
1.113547, -35.433635, 72.875000
1.102067, -35.068340, 73.000000
1.102067, -35.068340, 73.125000
1.090587, -34.703045, 73.250000
1.102067, -35.068340, 73.375000
1.090587, -34.703045, 73.500000
1.079107, -34.337750, 73.625000
1.079107, -34.337750, 73.750000
1.090587, -34.703045, 73.875000
1.067627, -33.972455, 74.000000
1.067627, -33.972455, 74.125000
1.056148, -33.607159, 74.250000
1.056148, -33.607159, 74.375000
1.056148, -33.607159, 74.500000
1.044668, -33.241864, 74.625000
1.044668, -33.241864, 74.750000
1.056148, -33.607159, 74.875000
1.044668, -33.241864, 75.000000
1.044668, -33.241864, 75.125000
1.033188, -32.876569, 75.250000
1.033188, -32.876569, 75.375000
1.033188, -32.876569, 75.500000
1.033188, -32.876569, 75.625000
1.033188, -32.876569, 75.750000
1.033188, -32.876569, 75.875000
1.044668, -33.241864, 76.000000
1.044668, -33.241864, 76.125000
1.056148, -33.607159, 76.250000
1.056148, -33.607159, 76.375000
1.056148, -33.607159, 76.500000
1.056148, -33.607159, 76.625000
1.056148, -33.607159, 76.750000
1.067627, -33.972455, 76.875000
1.067627, -33.972455, 77.000000
1.079107, -34.337750, 77.125000
1.079107, -34.337750, 77.250000
1.090587, -34.703045, 77.375000
1.102067, -35.068340, 77.500000
1.102067, -35.068340, 77.625000
1.102067, -35.068340, 77.750000
1.113547, -35.433635, 77.875000
1.113547, -35.433635, 78.000000
1.113547, -35.433635, 78.125000
1.125027, -35.798931, 78.250000
1.125027, -35.798931, 78.375000
1.136507, -36.164226, 78.500000
1.136507, -36.164226, 78.625000
1.159466, -36.894816, 78.750000
1.147986, -36.529521, 78.875000
1.159466, -36.894816, 79.000000
1.159466, -36.894816, 79.125000
1.170946, -37.260111, 79.250000
1.182426, -37.625407, 79.375000
1.182426, -37.625407, 79.500000
1.182426, -37.625407, 79.625000
1.193906, -37.990702, 79.750000
1.193906, -37.990702, 79.875000
1.205386, -38.355997, 80.000000
1.205386, -38.355997, 80.125000
1.216866, -38.721292, 80.250000
1.228345, -39.086587, 80.375000
1.228345, -39.086587, 80.500000
1.228345, -39.086587, 80.625000
1.239825, -39.451883, 80.750000
1.239825, -39.451883, 80.875000
1.262785, -40.182473, 81.000000
1.262785, -40.182473, 81.125000
1.262785, -40.182473, 81.250000
1.262785, -40.182473, 81.375000
1.274265, -40.547768, 81.500000
1.285745, -40.913064, 81.625000
1.285745, -40.913064, 81.750000
1.297225, -41.278359, 81.875000
1.308705, -41.643654, 82.000000
1.308705, -41.643654, 82.125000
1.308705, -41.643654, 82.250000
1.331664, -42.374244, 82.375000
1.331664, -42.374244, 82.500000
1.331664, -42.374244, 82.625000
1.331664, -42.374244, 82.750000
1.331664, -42.374244, 82.875000
1.331664, -42.374244, 83.000000
1.331664, -42.374244, 83.125000
1.354624, -43.104835, 83.250000
1.343144, -42.739540, 83.375000
1.354624, -43.104835, 83.500000
1.343144, -42.739540, 83.625000
1.343144, -42.739540, 83.750000
1.343144, -42.739540, 83.875000
1.354624, -43.104835, 84.000000
1.859738, -59.177824, 103.250000
1.882698, -59.908414, 103.375000
1.894178, -60.273710, 103.500000
1.894178, -60.273710, 103.625000
1.882698, -59.908414, 103.750000
1.836778, -58.447234, 103.875000
1.882698, -59.908414, 104.000000
1.871218, -59.543119, 104.125000
1.871218, -59.543119, 104.250000
1.974537, -62.830776, 104.375000
1.974537, -62.830776, 104.500000
1.262162, -20.061490, 21.000000
1.285110, -20.426245, 21.125000
1.285110, -20.426245, 21.250000
1.285110, -20.426245, 21.375000
1.308059, -20.790999, 21.500000
1.331007, -21.155753, 21.625000
1.353956, -21.520508, 21.750000
1.376904, -21.885262, 21.875000
1.376904, -21.885262, 22.000000
1.399852, -22.250016, 22.125000
1.422801, -22.614771, 22.250000
1.422801, -22.614771, 22.375000
1.445749, -22.979525, 22.500000
1.445749, -22.979525, 22.625000
1.491646, -23.709034, 22.750000
1.468698, -23.344280, 22.875000
1.491646, -23.709034, 23.000000
1.514594, -24.073788, 23.125000
1.514594, -24.073788, 23.250000
1.537543, -24.438543, 23.375000
1.514594, -24.073788, 23.500000
1.537543, -24.438543, 23.625000
1.560491, -24.803297, 23.750000
1.560491, -24.803297, 23.875000
1.583440, -25.168051, 24.000000
1.583440, -25.168051, 24.125000
1.606388, -25.532806, 24.250000
1.629336, -25.897560, 24.375000
1.629336, -25.897560, 24.500000
1.652285, -26.262314, 24.625000
1.629336, -25.897560, 24.750000
1.675233, -26.627069, 24.875000
1.675233, -26.627069, 25.000000
1.675233, -26.627069, 25.125000
1.698182, -26.991823, 25.250000
1.721130, -27.356578, 25.375000
1.698182, -26.991823, 25.500000
1.721130, -27.356578, 25.625000
1.721130, -27.356578, 25.750000
1.744078, -27.721332, 25.875000
1.767027, -28.086086, 26.000000
1.744078, -27.721332, 26.125000
1.767027, -28.086086, 26.250000
1.767027, -28.086086, 26.375000
1.767027, -28.086086, 26.500000
1.789975, -28.450841, 26.625000
1.812924, -28.815595, 26.750000
1.789975, -28.450841, 26.875000
1.812924, -28.815595, 27.000000
1.812924, -28.815595, 27.125000
1.835872, -29.180349, 27.250000
1.835872, -29.180349, 27.375000
1.858820, -29.545104, 27.500000
1.858820, -29.545104, 27.625000
1.881769, -29.909858, 27.750000
1.904717, -30.274613, 27.875000
1.881769, -29.909858, 28.000000
1.881769, -29.909858, 28.125000
1.904717, -30.274613, 28.250000
1.904717, -30.274613, 28.375000
1.927666, -30.639367, 28.500000
1.927666, -30.639367, 28.625000
1.927666, -30.639367, 28.750000
1.927666, -30.639367, 28.875000
1.950614, -31.004121, 29.000000
1.950614, -31.004121, 29.125000
1.950614, -31.004121, 29.250000
1.973562, -31.368876, 29.375000
1.973562, -31.368876, 29.500000
1.973562, -31.368876, 29.625000
1.996511, -31.733630, 29.750000
1.996511, -31.733630, 29.875000
1.996511, -31.733630, 30.000000
2.019459, -32.098384, 30.125000
2.019459, -32.098384, 30.250000
2.019459, -32.098384, 30.375000
2.019459, -32.098384, 30.500000
2.042408, -32.463139, 30.625000
2.042408, -32.463139, 30.750000
2.065356, -32.827893, 30.875000
2.065356, -32.827893, 31.000000
2.065356, -32.827893, 31.125000
2.088304, -33.192647, 31.250000
2.088304, -33.192647, 31.375000
2.088304, -33.192647, 31.500000
2.111253, -33.557402, 31.625000
2.134201, -33.922156, 31.750000
2.111253, -33.557402, 31.875000
2.134201, -33.922156, 32.000000
2.134201, -33.922156, 32.125000
2.157150, -34.286911, 32.250000
2.157150, -34.286911, 32.375000
2.157150, -34.286911, 32.500000
2.157150, -34.286911, 32.625000
2.180098, -34.651665, 32.750000
2.180098, -34.651665, 32.875000
2.180098, -34.651665, 33.000000
2.203046, -35.016419, 33.125000
2.180098, -34.651665, 33.250000
2.203046, -35.016419, 33.375000
2.203046, -35.016419, 33.500000
2.225995, -35.381174, 33.625000
2.225995, -35.381174, 33.750000
2.225995, -35.381174, 33.875000
2.225995, -35.381174, 34.000000
2.225995, -35.381174, 34.125000
2.225995, -35.381174, 34.250000
2.248943, -35.745928, 34.375000
2.248943, -35.745928, 34.500000
2.271892, -36.110682, 34.625000
2.271892, -36.110682, 34.750000
2.271892, -36.110682, 34.875000
2.271892, -36.110682, 35.000000
2.271892, -36.110682, 35.125000
2.271892, -36.110682, 35.250000
2.294840, -36.475437, 35.375000
2.294840, -36.475437, 35.500000
2.317788, -36.840191, 35.625000
2.317788, -36.840191, 35.750000
2.317788, -36.840191, 35.875000
2.317788, -36.840191, 36.000000
2.317788, -36.840191, 36.125000
2.340737, -37.204945, 36.250000
2.340737, -37.204945, 36.375000
2.340737, -37.204945, 36.500000
2.340737, -37.204945, 36.625000
2.363685, -37.569700, 36.750000
2.363685, -37.569700, 36.875000
2.363685, -37.569700, 37.000000
2.363685, -37.569700, 37.125000
2.386634, -37.934454, 37.250000
2.386634, -37.934454, 37.375000
2.386634, -37.934454, 37.500000
2.386634, -37.934454, 37.625000
2.386634, -37.934454, 37.750000
2.409582, -38.299209, 37.875000
2.409582, -38.299209, 38.000000
2.409582, -38.299209, 38.125000
2.409582, -38.299209, 38.250000
2.432530, -38.663963, 38.375000
2.432530, -38.663963, 38.500000
2.432530, -38.663963, 38.625000
2.432530, -38.663963, 38.750000
2.455479, -39.028717, 38.875000
2.432530, -38.663963, 39.000000
2.455479, -39.028717, 39.125000
2.478427, -39.393472, 39.250000
2.455479, -39.028717, 39.375000
2.455479, -39.028717, 39.500000
2.455479, -39.028717, 39.625000
2.455479, -39.028717, 39.750000
2.478427, -39.393472, 39.875000
2.478427, -39.393472, 40.000000
2.478427, -39.393472, 40.125000
2.478427, -39.393472, 40.250000
2.501376, -39.758226, 40.375000
2.501376, -39.758226, 40.500000
2.501376, -39.758226, 40.625000
2.501376, -39.758226, 40.750000
2.501376, -39.758226, 40.875000
2.501376, -39.758226, 41.000000
2.501376, -39.758226, 41.125000
2.524324, -40.122980, 41.250000
2.501376, -39.758226, 41.375000
2.524324, -40.122980, 41.500000
2.524324, -40.122980, 41.625000
2.524324, -40.122980, 41.750000
2.524324, -40.122980, 41.875000
2.547272, -40.487735, 42.000000
2.547272, -40.487735, 42.125000
2.547272, -40.487735, 42.250000
2.547272, -40.487735, 42.375000
2.547272, -40.487735, 42.500000
2.547272, -40.487735, 42.625000
2.547272, -40.487735, 42.750000
2.547272, -40.487735, 42.875000
2.570221, -40.852489, 43.000000
2.570221, -40.852489, 43.125000
2.570221, -40.852489, 43.250000
2.570221, -40.852489, 43.375000
2.570221, -40.852489, 43.500000
2.570221, -40.852489, 43.625000
2.593169, -41.217244, 43.750000
2.593169, -41.217244, 43.875000
2.593169, -41.217244, 44.000000
2.593169, -41.217244, 44.125000
2.593169, -41.217244, 44.250000
2.593169, -41.217244, 44.375000
2.639066, -41.946752, 44.500000
2.616118, -41.581998, 44.625000
2.616118, -41.581998, 44.750000
2.616118, -41.581998, 44.875000
2.616118, -41.581998, 45.000000
2.616118, -41.581998, 45.125000
2.616118, -41.581998, 45.250000
2.616118, -41.581998, 45.375000
2.639066, -41.946752, 45.500000
2.639066, -41.946752, 45.625000
2.639066, -41.946752, 45.750000
2.639066, -41.946752, 45.875000
2.639066, -41.946752, 46.000000
2.639066, -41.946752, 46.125000
2.639066, -41.946752, 46.250000
2.639066, -41.946752, 46.375000
2.639066, -41.946752, 46.500000
2.662014, -42.311507, 46.625000
2.662014, -42.311507, 46.750000
2.662014, -42.311507, 46.875000
2.662014, -42.311507, 47.000000
2.662014, -42.311507, 47.125000
2.662014, -42.311507, 47.250000
2.662014, -42.311507, 47.375000
2.684963, -42.676261, 47.500000
2.684963, -42.676261, 47.625000
2.684963, -42.676261, 47.750000
2.684963, -42.676261, 47.875000
2.684963, -42.676261, 48.000000
2.684963, -42.676261, 48.125000
2.707911, -43.041015, 48.250000
2.684963, -42.676261, 48.375000
2.684963, -42.676261, 48.500000
2.684963, -42.676261, 48.625000
2.684963, -42.676261, 48.750000
2.684963, -42.676261, 48.875000
2.684963, -42.676261, 49.000000
2.684963, -42.676261, 49.125000
2.684963, -42.676261, 49.250000
2.707911, -43.041015, 49.375000
2.684963, -42.676261, 49.500000
2.707911, -43.041015, 49.625000
2.707911, -43.041015, 49.750000
2.730860, -43.405770, 49.875000
2.707911, -43.041015, 50.000000
2.707911, -43.041015, 50.125000
2.707911, -43.041015, 50.250000
2.707911, -43.041015, 50.375000
2.730860, -43.405770, 50.500000
2.730860, -43.405770, 50.625000
2.730860, -43.405770, 50.750000
2.730860, -43.405770, 50.875000
2.730860, -43.405770, 51.000000
2.730860, -43.405770, 51.125000
2.730860, -43.405770, 51.250000
2.730860, -43.405770, 51.375000
2.753808, -43.770524, 51.500000
2.730860, -43.405770, 51.625000
2.730860, -43.405770, 51.750000
2.753808, -43.770524, 51.875000
2.730860, -43.405770, 52.000000
2.753808, -43.770524, 52.125000
2.730860, -43.405770, 52.250000
2.753808, -43.770524, 52.375000
2.753808, -43.770524, 52.500000
2.753808, -43.770524, 52.625000
2.753808, -43.770524, 52.750000
2.753808, -43.770524, 52.875000
2.753808, -43.770524, 53.000000
2.753808, -43.770524, 53.125000
2.753808, -43.770524, 53.250000
2.753808, -43.770524, 53.375000
2.753808, -43.770524, 53.500000
2.753808, -43.770524, 53.625000
2.753808, -43.770524, 53.750000
2.753808, -43.770524, 53.875000
2.753808, -43.770524, 54.000000
2.753808, -43.770524, 54.125000
2.753808, -43.770524, 54.250000
2.753808, -43.770524, 54.375000
2.753808, -43.770524, 54.500000
2.753808, -43.770524, 54.625000
2.753808, -43.770524, 54.750000
2.753808, -43.770524, 54.875000
2.753808, -43.770524, 55.000000
2.776756, -44.135278, 55.125000
2.753808, -43.770524, 55.250000
2.753808, -43.770524, 55.375000
2.753808, -43.770524, 55.500000
2.753808, -43.770524, 55.625000
2.753808, -43.770524, 55.750000
2.753808, -43.770524, 55.875000
2.753808, -43.770524, 56.000000
2.753808, -43.770524, 56.125000
2.753808, -43.770524, 56.250000
2.753808, -43.770524, 56.375000
2.753808, -43.770524, 56.500000
2.776756, -44.135278, 56.625000
2.753808, -43.770524, 56.750000
2.753808, -43.770524, 56.875000
2.753808, -43.770524, 57.000000
2.753808, -43.770524, 57.125000
2.753808, -43.770524, 57.250000
2.753808, -43.770524, 57.375000
2.730860, -43.405770, 57.500000
2.753808, -43.770524, 57.625000
2.730860, -43.405770, 57.750000
2.753808, -43.770524, 57.875000
2.730860, -43.405770, 58.000000
2.753808, -43.770524, 58.125000
2.753808, -43.770524, 58.250000
2.753808, -43.770524, 58.375000
2.753808, -43.770524, 58.500000
2.730860, -43.405770, 58.625000
2.730860, -43.405770, 58.750000
2.730860, -43.405770, 58.875000
2.753808, -43.770524, 59.000000
2.753808, -43.770524, 59.125000
2.730860, -43.405770, 59.250000
2.730860, -43.405770, 59.375000
2.730860, -43.405770, 59.500000
2.730860, -43.405770, 59.625000
2.730860, -43.405770, 59.750000
2.730860, -43.405770, 59.875000
2.730860, -43.405770, 60.000000
2.730860, -43.405770, 60.125000
2.730860, -43.405770, 60.250000
2.730860, -43.405770, 60.375000
2.730860, -43.405770, 60.500000
2.730860, -43.405770, 60.625000
2.730860, -43.405770, 60.750000
2.730860, -43.405770, 60.875000
2.730860, -43.405770, 61.000000
2.730860, -43.405770, 61.125000
2.730860, -43.405770, 61.250000
2.730860, -43.405770, 61.375000
2.730860, -43.405770, 61.500000
2.707911, -43.041015, 61.625000
2.707911, -43.041015, 61.750000
2.707911, -43.041015, 61.875000
2.707911, -43.041015, 62.000000
2.707911, -43.041015, 62.125000
2.707911, -43.041015, 62.250000
2.707911, -43.041015, 62.375000
2.684963, -42.676261, 62.500000
2.684963, -42.676261, 62.625000
2.684963, -42.676261, 62.750000
2.684963, -42.676261, 62.875000
2.684963, -42.676261, 63.000000
2.684963, -42.676261, 63.125000
2.684963, -42.676261, 63.250000
2.684963, -42.676261, 63.375000
2.707911, -43.041015, 63.500000
2.684963, -42.676261, 63.625000
2.684963, -42.676261, 63.750000
2.684963, -42.676261, 63.875000
2.684963, -42.676261, 64.000000
2.662014, -42.311507, 64.125000
2.662014, -42.311507, 64.250000
2.662014, -42.311507, 64.375000
2.662014, -42.311507, 64.500000
2.662014, -42.311507, 64.625000
2.639066, -41.946752, 64.750000
2.662014, -42.311507, 64.875000
2.662014, -42.311507, 65.000000
2.639066, -41.946752, 65.125000
2.662014, -42.311507, 65.250000
2.662014, -42.311507, 65.375000
2.639066, -41.946752, 65.500000
2.616118, -41.581998, 65.625000
2.616118, -41.581998, 65.750000
2.639066, -41.946752, 65.875000
2.616118, -41.581998, 66.000000
2.616118, -41.581998, 66.125000
2.616118, -41.581998, 66.250000
2.616118, -41.581998, 66.375000
2.616118, -41.581998, 66.500000
2.593169, -41.217244, 66.625000
2.593169, -41.217244, 66.750000
2.593169, -41.217244, 66.875000
2.593169, -41.217244, 67.000000
2.593169, -41.217244, 67.125000
