10.286242, 14.157797, 26.125000
10.286242, 14.157797, 26.250000
10.580135, 14.562306, 26.375000
10.433188, 14.360052, 26.500000
10.580135, 14.562306, 26.625000
10.580135, 14.562306, 26.750000
10.727081, 14.764560, 26.875000
10.727081, 14.764560, 27.000000
10.874027, 14.966814, 27.125000
10.874027, 14.966814, 27.250000
11.020973, 15.169069, 27.375000
11.020973, 15.169069, 27.500000
11.020973, 15.169069, 27.625000
11.020973, 15.169069, 27.750000
11.167920, 15.371323, 27.875000
11.167920, 15.371323, 28.000000
11.167920, 15.371323, 28.125000
11.314866, 15.573577, 28.250000
11.461812, 15.775831, 28.375000
11.461812, 15.775831, 28.500000
11.461812, 15.775831, 28.625000
11.461812, 15.775831, 28.750000
11.755705, 16.180340, 28.875000
11.608759, 15.978086, 29.000000
11.608759, 15.978086, 29.125000
11.755705, 16.180340, 29.250000
11.902651, 16.382594, 29.375000
11.902651, 16.382594, 29.500000
11.902651, 16.382594, 29.625000
12.196544, 16.787103, 29.750000
12.049598, 16.584848, 29.875000
12.049598, 16.584848, 30.000000
12.196544, 16.787103, 30.125000
12.196544, 16.787103, 30.250000
12.343490, 16.989357, 30.375000
12.343490, 16.989357, 30.500000
12.343490, 16.989357, 30.625000
12.490437, 17.191611, 30.750000
12.637383, 17.393865, 30.875000
12.490437, 17.191611, 31.000000
12.784329, 17.596120, 31.125000
12.637383, 17.393865, 31.250000
12.637383, 17.393865, 31.375000
12.784329, 17.596120, 31.500000
12.931276, 17.798374, 31.625000
12.784329, 17.596120, 31.750000
12.784329, 17.596120, 31.875000
12.931276, 17.798374, 32.000000
12.931276, 17.798374, 32.125000
13.078222, 18.000628, 32.250000
13.078222, 18.000628, 32.375000
13.078222, 18.000628, 32.500000
13.078222, 18.000628, 32.625000
13.225168, 18.202882, 32.750000
13.225168, 18.202882, 32.875000
13.372114, 18.405137, 33.000000
13.372114, 18.405137, 33.125000
13.372114, 18.405137, 33.250000
13.372114, 18.405137, 33.375000
13.519061, 18.607391, 33.500000
13.519061, 18.607391, 33.625000
13.666007, 18.809645, 33.750000
13.666007, 18.809645, 33.875000
13.666007, 18.809645, 34.000000
13.812953, 19.011899, 34.125000
13.812953, 19.011899, 34.250000
13.812953, 19.011899, 34.375000
13.812953, 19.011899, 34.500000
13.959900, 19.214154, 34.625000
13.959900, 19.214154, 34.750000
13.959900, 19.214154, 34.875000
13.959900, 19.214154, 35.000000
14.106846, 19.416408, 35.125000
14.106846, 19.416408, 35.250000
14.106846, 19.416408, 35.375000
14.253792, 19.618662, 35.500000
14.253792, 19.618662, 35.625000
14.253792, 19.618662, 35.750000
14.400739, 19.820916, 35.875000
14.253792, 19.618662, 36.000000
14.400739, 19.820916, 36.125000
14.400739, 19.820916, 36.250000
14.400739, 19.820916, 36.375000
14.400739, 19.820916, 36.500000
14.400739, 19.820916, 36.625000
14.547685, 20.023171, 36.750000
14.547685, 20.023171, 36.875000
14.547685, 20.023171, 37.000000
14.547685, 20.023171, 37.125000
14.694631, 20.225425, 37.250000
14.694631, 20.225425, 37.375000
14.694631, 20.225425, 37.500000
14.694631, 20.225425, 37.625000
14.694631, 20.225425, 37.750000
14.694631, 20.225425, 37.875000
14.694631, 20.225425, 38.000000
14.841578, 20.427679, 38.125000
14.841578, 20.427679, 38.250000
14.841578, 20.427679, 38.375000
14.988524, 20.629933, 38.500000
14.988524, 20.629933, 38.625000
14.988524, 20.629933, 38.750000
15.135470, 20.832188, 38.875000
15.135470, 20.832188, 39.000000
15.135470, 20.832188, 39.125000
15.135470, 20.832188, 39.250000
15.135470, 20.832188, 39.375000
15.135470, 20.832188, 39.500000
15.135470, 20.832188, 39.625000
15.282417, 21.034442, 39.750000
15.282417, 21.034442, 39.875000
15.282417, 21.034442, 40.000000
15.429363, 21.236696, 40.125000
15.429363, 21.236696, 40.250000
15.429363, 21.236696, 40.375000
15.429363, 21.236696, 40.500000
15.429363, 21.236696, 40.625000
15.429363, 21.236696, 40.750000
15.576309, 21.438950, 40.875000
15.429363, 21.236696, 41.000000
15.576309, 21.438950, 41.125000
15.576309, 21.438950, 41.250000
15.576309, 21.438950, 41.375000
15.576309, 21.438950, 41.500000
15.576309, 21.438950, 41.625000
15.723255, 21.641205, 41.750000
15.723255, 21.641205, 41.875000
15.723255, 21.641205, 42.000000
15.723255, 21.641205, 42.125000
15.723255, 21.641205, 42.250000
15.723255, 21.641205, 42.375000
15.723255, 21.641205, 42.500000
15.870202, 21.843459, 42.625000
15.870202, 21.843459, 42.750000
15.870202, 21.843459, 42.875000
15.870202, 21.843459, 43.000000
16.017148, 22.045713, 43.125000
16.017148, 22.045713, 43.250000
16.017148, 22.045713, 43.375000
16.017148, 22.045713, 43.500000
16.017148, 22.045713, 43.625000
16.017148, 22.045713, 43.750000
16.017148, 22.045713, 43.875000
16.017148, 22.045713, 44.000000
16.017148, 22.045713, 44.125000
16.017148, 22.045713, 44.250000
16.017148, 22.045713, 44.375000
16.164094, 22.247967, 44.500000
16.164094, 22.247967, 44.625000
16.164094, 22.247967, 44.750000
16.164094, 22.247967, 44.875000
16.164094, 22.247967, 45.000000
16.164094, 22.247967, 45.125000
16.164094, 22.247967, 45.250000
16.164094, 22.247967, 45.375000
16.164094, 22.247967, 45.500000
16.311041, 22.450222, 45.625000
16.311041, 22.450222, 45.750000
16.311041, 22.450222, 45.875000
16.311041, 22.450222, 46.000000
16.311041, 22.450222, 46.125000
16.311041, 22.450222, 46.250000
16.311041, 22.450222, 46.375000
16.457987, 22.652476, 46.500000
16.311041, 22.450222, 46.625000
16.457987, 22.652476, 46.750000
16.457987, 22.652476, 46.875000
16.311041, 22.450222, 47.000000
16.457987, 22.652476, 47.125000
16.457987, 22.652476, 47.250000
16.311041, 22.450222, 47.375000
16.604933, 22.854730, 47.500000
16.604933, 22.854730, 47.625000
16.604933, 22.854730, 47.750000
16.604933, 22.854730, 47.875000
16.604933, 22.854730, 48.000000
16.604933, 22.854730, 48.125000
16.604933, 22.854730, 48.250000
16.604933, 22.854730, 48.375000
16.604933, 22.854730, 48.500000
16.604933, 22.854730, 48.625000
16.604933, 22.854730, 48.750000
16.604933, 22.854730, 48.875000
16.604933, 22.854730, 49.000000
16.604933, 22.854730, 49.125000
16.604933, 22.854730, 49.250000
16.604933, 22.854730, 49.375000
16.604933, 22.854730, 49.500000
16.604933, 22.854730, 49.625000
16.751880, 23.056984, 49.750000
16.751880, 23.056984, 49.875000
16.751880, 23.056984, 50.000000
16.751880, 23.056984, 50.125000
16.898826, 23.259239, 50.250000
16.751880, 23.056984, 50.375000
16.751880, 23.056984, 50.500000
16.751880, 23.056984, 50.625000
16.751880, 23.056984, 50.750000
16.751880, 23.056984, 50.875000
16.898826, 23.259239, 51.000000
16.751880, 23.056984, 51.125000
16.751880, 23.056984, 51.250000
16.751880, 23.056984, 51.375000
16.751880, 23.056984, 51.500000
16.751880, 23.056984, 51.625000
16.751880, 23.056984, 51.750000
16.751880, 23.056984, 51.875000
16.751880, 23.056984, 52.000000
16.751880, 23.056984, 52.125000
16.898826, 23.259239, 52.250000
16.751880, 23.056984, 52.375000
16.751880, 23.056984, 52.500000
16.751880, 23.056984, 52.625000
16.751880, 23.056984, 52.750000
16.751880, 23.056984, 52.875000
16.751880, 23.056984, 53.000000
16.751880, 23.056984, 53.125000
16.751880, 23.056984, 53.250000
16.898826, 23.259239, 53.375000
16.898826, 23.259239, 53.500000
16.898826, 23.259239, 53.625000
16.898826, 23.259239, 53.750000
16.751880, 23.056984, 53.875000
16.751880, 23.056984, 54.000000
16.898826, 23.259239, 54.125000
16.898826, 23.259239, 54.250000
16.751880, 23.056984, 54.375000
16.898826, 23.259239, 54.500000
16.751880, 23.056984, 54.625000
16.751880, 23.056984, 54.750000
16.751880, 23.056984, 54.875000
16.751880, 23.056984, 55.000000
16.751880, 23.056984, 55.125000
16.751880, 23.056984, 55.250000
16.751880, 23.056984, 55.375000
16.751880, 23.056984, 55.500000
16.751880, 23.056984, 55.625000
16.751880, 23.056984, 55.750000
16.751880, 23.056984, 55.875000
16.751880, 23.056984, 56.000000
16.751880, 23.056984, 56.125000
16.751880, 23.056984, 56.250000
16.751880, 23.056984, 56.375000
16.751880, 23.056984, 56.500000
16.751880, 23.056984, 56.625000
16.604933, 22.854730, 56.750000
16.604933, 22.854730, 56.875000
16.751880, 23.056984, 57.000000
16.604933, 22.854730, 57.125000
16.604933, 22.854730, 57.250000
16.604933, 22.854730, 57.375000
16.604933, 22.854730, 57.500000
16.604933, 22.854730, 57.625000
16.604933, 22.854730, 57.750000
16.604933, 22.854730, 57.875000
16.457987, 22.652476, 58.000000
16.457987, 22.652476, 58.125000
16.457987, 22.652476, 58.250000
16.604933, 22.854730, 58.375000
16.604933, 22.854730, 58.500000
16.457987, 22.652476, 58.625000
16.457987, 22.652476, 58.750000
16.457987, 22.652476, 58.875000
16.604933, 22.854730, 59.000000
16.457987, 22.652476, 59.125000
16.457987, 22.652476, 59.250000
16.457987, 22.652476, 59.375000
16.457987, 22.652476, 59.500000
16.457987, 22.652476, 59.625000
16.457987, 22.652476, 59.750000
16.311041, 22.450222, 59.875000
16.311041, 22.450222, 60.000000
16.311041, 22.450222, 60.125000
16.311041, 22.450222, 60.250000
16.457987, 22.652476, 60.375000
16.311041, 22.450222, 60.500000
16.311041, 22.450222, 60.625000
16.311041, 22.450222, 60.750000
16.311041, 22.450222, 60.875000
16.164094, 22.247967, 61.000000
16.164094, 22.247967, 61.125000
16.164094, 22.247967, 61.250000
16.311041, 22.450222, 61.375000
16.164094, 22.247967, 61.500000
16.164094, 22.247967, 61.625000
16.164094, 22.247967, 61.750000
16.164094, 22.247967, 61.875000
16.017148, 22.045713, 62.000000
16.017148, 22.045713, 62.125000
15.870202, 21.843459, 62.250000
16.017148, 22.045713, 62.375000
15.870202, 21.843459, 62.500000
15.870202, 21.843459, 62.625000
15.870202, 21.843459, 62.750000
16.017148, 22.045713, 62.875000
15.870202, 21.843459, 63.000000
15.870202, 21.843459, 63.125000
15.870202, 21.843459, 63.250000
15.870202, 21.843459, 63.375000
15.870202, 21.843459, 63.500000
15.723255, 21.641205, 63.625000
15.576309, 21.438950, 63.750000
15.576309, 21.438950, 63.875000
15.576309, 21.438950, 64.000000
15.576309, 21.438950, 64.125000
15.429363, 21.236696, 64.250000
15.429363, 21.236696, 64.375000
15.429363, 21.236696, 64.500000
15.429363, 21.236696, 64.625000
15.429363, 21.236696, 64.750000
15.429363, 21.236696, 64.875000
15.282417, 21.034442, 65.000000
15.282417, 21.034442, 65.125000
15.135470, 20.832188, 65.250000
15.135470, 20.832188, 65.375000
15.135470, 20.832188, 65.500000
14.988524, 20.629933, 65.625000
14.988524, 20.629933, 65.750000
14.988524, 20.629933, 65.875000
14.988524, 20.629933, 66.000000
14.841578, 20.427679, 66.125000
14.841578, 20.427679, 66.250000
14.694631, 20.225425, 66.375000
14.694631, 20.225425, 66.500000
14.547685, 20.023171, 66.625000
14.400739, 19.820916, 66.750000
14.400739, 19.820916, 66.875000
14.400739, 19.820916, 67.000000
14.400739, 19.820916, 67.125000
14.106846, 19.416408, 67.250000
14.106846, 19.416408, 67.375000
13.959900, 19.214154, 67.500000
13.959900, 19.214154, 67.625000
13.959900, 19.214154, 67.750000
13.959900, 19.214154, 67.875000
13.812953, 19.011899, 68.000000
13.666007, 18.809645, 68.125000
13.666007, 18.809645, 68.250000
13.519061, 18.607391, 68.375000
13.519061, 18.607391, 68.500000
13.519061, 18.607391, 68.625000
13.519061, 18.607391, 68.750000
13.372114, 18.405137, 68.875000
13.372114, 18.405137, 69.000000
13.372114, 18.405137, 69.125000
13.225168, 18.202882, 69.250000
13.225168, 18.202882, 69.375000
13.225168, 18.202882, 69.500000
13.225168, 18.202882, 69.625000
13.225168, 18.202882, 69.750000
13.225168, 18.202882, 69.875000
13.078222, 18.000628, 70.000000
13.225168, 18.202882, 70.125000
12.931276, 17.798374, 70.250000
12.931276, 17.798374, 70.375000
12.784329, 17.596120, 70.500000
12.637383, 17.393865, 70.625000
12.490437, 17.191611, 70.750000
12.490437, 17.191611, 70.875000
12.343490, 16.989357, 71.000000
12.490437, 17.191611, 71.125000
12.343490, 16.989357, 71.250000
12.196544, 16.787103, 71.375000
12.196544, 16.787103, 71.500000
12.049598, 16.584848, 71.625000
12.196544, 16.787103, 71.750000
11.902651, 16.382594, 71.875000
11.902651, 16.382594, 72.000000
11.755705, 16.180340, 72.125000
11.608759, 15.978086, 72.250000
11.608759, 15.978086, 72.375000
11.608759, 15.978086, 72.500000
11.608759, 15.978086, 72.625000
11.461812, 15.775831, 72.750000
11.608759, 15.978086, 72.875000
11.314866, 15.573577, 73.000000
11.314866, 15.573577, 73.125000
11.314866, 15.573577, 73.250000
11.314866, 15.573577, 73.375000
11.314866, 15.573577, 73.500000
11.167920, 15.371323, 73.625000
11.314866, 15.573577, 73.750000
11.314866, 15.573577, 73.875000
11.314866, 15.573577, 74.000000
11.314866, 15.573577, 74.125000
11.461812, 15.775831, 74.250000
11.608759, 15.978086, 74.375000
11.608759, 15.978086, 74.500000
11.608759, 15.978086, 74.625000
11.608759, 15.978086, 74.750000
11.755705, 16.180340, 74.875000
11.902651, 16.382594, 75.000000
11.902651, 16.382594, 75.125000
12.049598, 16.584848, 75.250000
12.049598, 16.584848, 75.375000
12.196544, 16.787103, 75.500000
12.343490, 16.989357, 75.625000
12.196544, 16.787103, 75.750000
12.343490, 16.989357, 75.875000
12.343490, 16.989357, 76.000000
12.490437, 17.191611, 76.125000
12.637383, 17.393865, 76.250000
12.637383, 17.393865, 76.375000
12.784329, 17.596120, 76.500000
12.931276, 17.798374, 76.625000
13.078222, 18.000628, 76.750000
13.078222, 18.000628, 76.875000
13.078222, 18.000628, 77.000000
13.225168, 18.202882, 77.125000
13.372114, 18.405137, 77.250000
13.519061, 18.607391, 77.375000
13.666007, 18.809645, 77.500000
13.666007, 18.809645, 77.625000
13.812953, 19.011899, 77.750000
13.812953, 19.011899, 77.875000
13.959900, 19.214154, 78.000000
14.106846, 19.416408, 78.125000
14.106846, 19.416408, 78.250000
14.253792, 19.618662, 78.375000
14.400739, 19.820916, 78.500000
14.400739, 19.820916, 78.625000
14.694631, 20.225425, 78.750000
14.547685, 20.023171, 78.875000
14.694631, 20.225425, 79.000000
14.841578, 20.427679, 79.125000
14.988524, 20.629933, 79.250000
15.135470, 20.832188, 79.375000
15.135470, 20.832188, 79.500000
15.282417, 21.034442, 79.625000
15.282417, 21.034442, 79.750000
15.429363, 21.236696, 79.875000
15.576309, 21.438950, 80.000000
15.576309, 21.438950, 80.125000
15.723255, 21.641205, 80.250000
15.723255, 21.641205, 80.375000
15.723255, 21.641205, 80.500000
15.723255, 21.641205, 80.625000
15.870202, 21.843459, 80.750000
15.870202, 21.843459, 80.875000
16.017148, 22.045713, 81.000000
16.017148, 22.045713, 81.125000
16.017148, 22.045713, 81.250000
16.164094, 22.247967, 81.375000
16.164094, 22.247967, 81.500000
24.099195, 33.169697, 100.625000
23.952249, 32.967443, 100.750000
23.658356, 32.562934, 100.875000
23.658356, 32.562934, 101.000000
23.805303, 32.765188, 101.125000
23.658356, 32.562934, 101.250000
23.511410, 32.360680, 101.375000
23.511410, 32.360680, 101.500000
23.511410, 32.360680, 101.625000
23.805303, 32.765188, 101.875000
5.901875, 8.684346, 19.375000
5.199271, 7.650495, 19.500000
5.480313, 8.064036, 19.625000
5.620834, 8.270806, 19.750000
5.620834, 8.270806, 19.875000
5.761355, 8.477576, 20.000000
6.042396, 8.891116, 20.125000
6.042396, 8.891116, 20.250000
6.182917, 9.097886, 20.375000
6.182917, 9.097886, 20.500000
6.323438, 9.304656, 20.625000
6.463959, 9.511427, 20.750000
6.745001, 9.924967, 20.875000
6.745001, 9.924967, 21.000000
6.745001, 9.924967, 21.125000
7.026042, 10.338507, 21.250000
7.026042, 10.338507, 21.375000
7.026042, 10.338507, 21.500000
7.166563, 10.545277, 21.625000
7.307084, 10.752047, 21.750000
7.307084, 10.752047, 21.875000
7.447605, 10.958818, 22.000000
7.588126, 11.165588, 22.125000
7.728646, 11.372358, 22.250000
7.728646, 11.372358, 22.375000
8.009688, 11.785898, 22.500000
7.869167, 11.579128, 22.625000
8.009688, 11.785898, 22.750000
8.009688, 11.785898, 22.875000
8.290730, 12.199438, 23.000000
8.150209, 11.992668, 23.125000
8.290730, 12.199438, 23.250000
8.290730, 12.199438, 23.375000
8.431251, 12.406209, 23.500000
8.571772, 12.612979, 23.625000
8.571772, 12.612979, 23.750000
8.712292, 12.819749, 23.875000
8.852813, 13.026519, 24.000000
8.852813, 13.026519, 24.125000
8.852813, 13.026519, 24.250000
8.852813, 13.026519, 24.375000
8.993334, 13.233289, 24.500000
8.993334, 13.233289, 24.625000
9.274376, 13.646829, 24.750000
9.274376, 13.646829, 24.875000
9.414897, 13.853600, 25.000000
9.414897, 13.853600, 25.125000
9.414897, 13.853600, 25.250000
9.555417, 14.060370, 25.375000
9.555417, 14.060370, 25.500000
9.555417, 14.060370, 25.625000
9.695938, 14.267140, 25.750000
9.695938, 14.267140, 25.875000
9.836459, 14.473910, 26.000000
9.836459, 14.473910, 26.125000
9.836459, 14.473910, 26.250000
9.976980, 14.680680, 26.375000
9.976980, 14.680680, 26.500000
10.117501, 14.887450, 26.625000
10.258022, 15.094220, 26.750000
10.258022, 15.094220, 26.875000
10.398542, 15.300991, 27.000000
10.398542, 15.300991, 27.125000
10.398542, 15.300991, 27.250000
10.398542, 15.300991, 27.375000
10.539063, 15.507761, 27.500000
10.539063, 15.507761, 27.625000
10.679584, 15.714531, 27.750000
10.679584, 15.714531, 27.875000
10.679584, 15.714531, 28.000000
10.820105, 15.921301, 28.125000
10.820105, 15.921301, 28.250000
10.960626, 16.128071, 28.375000
10.960626, 16.128071, 28.500000
10.960626, 16.128071, 28.625000
11.101147, 16.334841, 28.750000
11.241668, 16.541611, 28.875000
11.101147, 16.334841, 29.000000
11.241668, 16.541611, 29.125000
11.382188, 16.748382, 29.250000
11.241668, 16.541611, 29.375000
11.382188, 16.748382, 29.500000
11.522709, 16.955152, 29.625000
11.522709, 16.955152, 29.750000
11.522709, 16.955152, 29.875000
11.522709, 16.955152, 30.000000
11.663230, 17.161922, 30.125000
11.663230, 17.161922, 30.250000
11.803751, 17.368692, 30.375000
11.803751, 17.368692, 30.500000
11.803751, 17.368692, 30.625000
11.944272, 17.575462, 30.750000
11.944272, 17.575462, 30.875000
11.944272, 17.575462, 31.000000
12.084793, 17.782232, 31.125000
12.225313, 17.989002, 31.250000
12.225313, 17.989002, 31.375000
12.225313, 17.989002, 31.500000
12.365834, 18.195773, 31.625000
12.225313, 17.989002, 31.750000
12.365834, 18.195773, 31.875000
12.365834, 18.195773, 32.000000
12.365834, 18.195773, 32.125000
12.506355, 18.402543, 32.250000
12.506355, 18.402543, 32.375000
12.506355, 18.402543, 32.500000
12.506355, 18.402543, 32.625000
12.646876, 18.609313, 32.750000
12.646876, 18.609313, 32.875000
12.787397, 18.816083, 33.000000
12.787397, 18.816083, 33.125000
12.787397, 18.816083, 33.250000
12.927918, 19.022853, 33.375000
12.927918, 19.022853, 33.500000
12.927918, 19.022853, 33.625000
13.068439, 19.229623, 33.750000
13.068439, 19.229623, 33.875000
13.208959, 19.436393, 34.000000
13.208959, 19.436393, 34.125000
13.208959, 19.436393, 34.250000
13.208959, 19.436393, 34.375000
13.208959, 19.436393, 34.500000
13.349480, 19.643164, 34.625000
13.349480, 19.643164, 34.750000
13.349480, 19.643164, 34.875000
13.349480, 19.643164, 35.000000
13.490001, 19.849934, 35.125000
13.490001, 19.849934, 35.250000
13.490001, 19.849934, 35.375000
13.630522, 20.056704, 35.500000
13.630522, 20.056704, 35.625000
13.630522, 20.056704, 35.750000
13.630522, 20.056704, 35.875000
13.630522, 20.056704, 36.000000
13.771043, 20.263474, 36.125000
13.771043, 20.263474, 36.250000
13.911564, 20.470244, 36.375000
13.771043, 20.263474, 36.500000
13.771043, 20.263474, 36.625000
13.911564, 20.470244, 36.750000
13.911564, 20.470244, 36.875000
14.052084, 20.677014, 37.000000
14.052084, 20.677014, 37.125000
14.052084, 20.677014, 37.250000
14.192605, 20.883785, 37.375000
14.052084, 20.677014, 37.500000
14.052084, 20.677014, 37.625000
14.052084, 20.677014, 37.750000
14.192605, 20.883785, 37.875000
14.192605, 20.883785, 38.000000
14.192605, 20.883785, 38.125000
14.192605, 20.883785, 38.250000
14.333126, 21.090555, 38.375000
14.333126, 21.090555, 38.500000
14.333126, 21.090555, 38.625000
14.333126, 21.090555, 38.750000
14.333126, 21.090555, 38.875000
14.473647, 21.297325, 39.000000
14.473647, 21.297325, 39.125000
14.473647, 21.297325, 39.250000
14.473647, 21.297325, 39.375000
14.614168, 21.504095, 39.500000
14.614168, 21.504095, 39.625000
14.614168, 21.504095, 39.750000
14.614168, 21.504095, 39.875000
14.614168, 21.504095, 40.000000
14.614168, 21.504095, 40.125000
14.754689, 21.710865, 40.250000
14.895210, 21.917635, 40.375000
14.754689, 21.710865, 40.500000
14.754689, 21.710865, 40.625000
14.754689, 21.710865, 40.750000
14.754689, 21.710865, 40.875000
14.895210, 21.917635, 41.000000
14.754689, 21.710865, 41.125000
14.895210, 21.917635, 41.250000
14.895210, 21.917635, 41.375000
14.895210, 21.917635, 41.500000
14.895210, 21.917635, 41.625000
14.895210, 21.917635, 41.750000
15.035730, 22.124405, 41.875000
15.035730, 22.124405, 42.000000
15.035730, 22.124405, 42.125000
15.035730, 22.124405, 42.250000
15.035730, 22.124405, 42.375000
15.035730, 22.124405, 42.500000
15.176251, 22.331176, 42.625000
15.176251, 22.331176, 42.750000
15.176251, 22.331176, 42.875000
15.176251, 22.331176, 43.000000
15.176251, 22.331176, 43.125000
15.316772, 22.537946, 43.250000
15.316772, 22.537946, 43.375000
15.316772, 22.537946, 43.500000
15.316772, 22.537946, 43.625000
15.316772, 22.537946, 43.750000
15.316772, 22.537946, 43.875000
15.457293, 22.744716, 44.000000
15.457293, 22.744716, 44.125000
15.316772, 22.537946, 44.250000
15.457293, 22.744716, 44.375000
15.457293, 22.744716, 44.500000
15.457293, 22.744716, 44.625000
15.457293, 22.744716, 44.750000
15.457293, 22.744716, 44.875000
15.316772, 22.537946, 45.000000
15.457293, 22.744716, 45.125000
15.457293, 22.744716, 45.250000
15.597814, 22.951486, 45.375000
15.457293, 22.744716, 45.500000
15.597814, 22.951486, 45.625000
15.597814, 22.951486, 45.750000
15.597814, 22.951486, 45.875000
15.597814, 22.951486, 46.000000
15.597814, 22.951486, 46.125000
15.597814, 22.951486, 46.250000
15.597814, 22.951486, 46.375000
15.738335, 23.158256, 46.500000
15.597814, 22.951486, 46.625000
15.597814, 22.951486, 46.750000
15.738335, 23.158256, 46.875000
15.738335, 23.158256, 47.000000
15.738335, 23.158256, 47.125000
15.878855, 23.365026, 47.250000
15.878855, 23.365026, 47.375000
15.738335, 23.158256, 47.500000
15.878855, 23.365026, 47.625000
15.878855, 23.365026, 47.750000
15.878855, 23.365026, 47.875000
15.878855, 23.365026, 48.000000
15.878855, 23.365026, 48.125000
15.878855, 23.365026, 48.250000
15.878855, 23.365026, 48.375000
15.878855, 23.365026, 48.500000
15.878855, 23.365026, 48.625000
16.019376, 23.571796, 48.750000
16.019376, 23.571796, 48.875000
16.019376, 23.571796, 49.000000
15.878855, 23.365026, 49.125000
15.878855, 23.365026, 49.250000
15.878855, 23.365026, 49.375000
16.019376, 23.571796, 49.500000
16.019376, 23.571796, 49.625000
16.019376, 23.571796, 49.750000
16.159897, 23.778567, 49.875000
16.019376, 23.571796, 50.000000
16.159897, 23.778567, 50.125000
16.019376, 23.571796, 50.250000
16.019376, 23.571796, 50.375000
16.159897, 23.778567, 50.500000
16.159897, 23.778567, 50.625000
16.159897, 23.778567, 50.750000
16.019376, 23.571796, 50.875000
16.019376, 23.571796, 51.000000
16.019376, 23.571796, 51.125000
16.019376, 23.571796, 51.250000
16.019376, 23.571796, 51.375000
16.019376, 23.571796, 51.500000
16.159897, 23.778567, 51.625000
16.019376, 23.571796, 51.750000
16.019376, 23.571796, 51.875000
16.019376, 23.571796, 52.000000
16.019376, 23.571796, 52.125000
16.159897, 23.778567, 52.250000
16.159897, 23.778567, 52.375000
16.159897, 23.778567, 52.500000
16.159897, 23.778567, 52.625000
16.159897, 23.778567, 52.750000
16.159897, 23.778567, 52.875000
16.159897, 23.778567, 53.000000
16.159897, 23.778567, 53.125000
16.159897, 23.778567, 53.250000
16.019376, 23.571796, 53.375000
16.019376, 23.571796, 53.500000
16.159897, 23.778567, 53.625000
16.159897, 23.778567, 53.750000
16.159897, 23.778567, 53.875000
16.159897, 23.778567, 54.000000
16.159897, 23.778567, 54.125000
16.159897, 23.778567, 54.250000
16.159897, 23.778567, 54.375000
16.159897, 23.778567, 54.500000
16.159897, 23.778567, 54.625000
16.159897, 23.778567, 54.750000
16.159897, 23.778567, 54.875000
16.019376, 23.571796, 55.000000
16.159897, 23.778567, 55.125000
16.019376, 23.571796, 55.250000
16.019376, 23.571796, 55.375000
16.019376, 23.571796, 55.500000
16.019376, 23.571796, 55.625000
16.019376, 23.571796, 55.750000
16.019376, 23.571796, 55.875000
16.019376, 23.571796, 56.000000
16.019376, 23.571796, 56.125000
16.019376, 23.571796, 56.250000
16.019376, 23.571796, 56.375000
16.019376, 23.571796, 56.500000
16.019376, 23.571796, 56.625000
16.019376, 23.571796, 56.750000
16.019376, 23.571796, 56.875000
15.878855, 23.365026, 57.000000
16.019376, 23.571796, 57.125000
15.878855, 23.365026, 57.250000
15.878855, 23.365026, 57.375000
15.878855, 23.365026, 57.500000
15.878855, 23.365026, 57.625000
15.878855, 23.365026, 57.750000
16.019376, 23.571796, 57.875000
15.878855, 23.365026, 58.000000
15.878855, 23.365026, 58.125000
15.878855, 23.365026, 58.250000
15.878855, 23.365026, 58.375000
15.878855, 23.365026, 58.500000
15.878855, 23.365026, 58.625000
15.878855, 23.365026, 58.750000
15.738335, 23.158256, 58.875000
15.738335, 23.158256, 59.000000
15.738335, 23.158256, 59.125000
15.738335, 23.158256, 59.250000
15.738335, 23.158256, 59.375000
15.878855, 23.365026, 59.500000
15.738335, 23.158256, 59.625000
15.597814, 22.951486, 59.750000
15.738335, 23.158256, 59.875000
15.597814, 22.951486, 60.000000
15.597814, 22.951486, 60.125000
15.597814, 22.951486, 60.250000
15.738335, 23.158256, 60.375000
15.597814, 22.951486, 60.500000
15.738335, 23.158256, 60.625000
15.597814, 22.951486, 60.750000
15.597814, 22.951486, 60.875000
15.457293, 22.744716, 61.000000
15.457293, 22.744716, 61.125000
15.597814, 22.951486, 61.250000
15.457293, 22.744716, 61.375000
15.457293, 22.744716, 61.500000
15.457293, 22.744716, 61.625000
15.316772, 22.537946, 61.750000
15.316772, 22.537946, 61.875000
15.316772, 22.537946, 62.000000
15.176251, 22.331176, 62.125000
15.176251, 22.331176, 62.250000
15.176251, 22.331176, 62.375000
15.176251, 22.331176, 62.500000
15.176251, 22.331176, 62.625000
15.176251, 22.331176, 62.750000
15.176251, 22.331176, 62.875000
15.176251, 22.331176, 63.000000
15.176251, 22.331176, 63.125000
15.176251, 22.331176, 63.250000
15.035730, 22.124405, 63.375000
15.035730, 22.124405, 63.500000
15.035730, 22.124405, 63.625000
14.895210, 21.917635, 63.750000
14.895210, 21.917635, 63.875000
14.895210, 21.917635, 64.000000
14.895210, 21.917635, 64.125000
14.754689, 21.710865, 64.250000
14.754689, 21.710865, 64.375000
14.754689, 21.710865, 64.500000
14.754689, 21.710865, 64.625000
14.614168, 21.504095, 64.750000
14.614168, 21.504095, 64.875000
14.614168, 21.504095, 65.000000
14.473647, 21.297325, 65.125000
14.473647, 21.297325, 65.250000
14.473647, 21.297325, 65.375000
14.473647, 21.297325, 65.500000
14.333126, 21.090555, 65.625000
14.333126, 21.090555, 65.750000
14.333126, 21.090555, 65.875000
14.333126, 21.090555, 66.000000
14.192605, 20.883785, 66.125000
14.192605, 20.883785, 66.250000
14.052084, 20.677014, 66.375000
13.911564, 20.470244, 66.500000
13.911564, 20.470244, 66.625000
13.911564, 20.470244, 66.750000
13.771043, 20.263474, 66.875000
13.771043, 20.263474, 67.000000
13.771043, 20.263474, 67.125000
13.630522, 20.056704, 67.250000
13.630522, 20.056704, 67.375000
13.630522, 20.056704, 67.500000
13.490001, 19.849934, 67.625000
13.349480, 19.643164, 67.750000
13.208959, 19.436393, 67.875000
13.208959, 19.436393, 68.000000
13.068439, 19.229623, 68.125000
13.068439, 19.229623, 68.250000
13.068439, 19.229623, 68.375000
12.927918, 19.022853, 68.500000
12.927918, 19.022853, 68.625000
12.787397, 18.816083, 68.750000
12.787397, 18.816083, 68.875000
12.787397, 18.816083, 69.000000
12.787397, 18.816083, 69.125000
12.646876, 18.609313, 69.250000
12.646876, 18.609313, 69.375000
12.646876, 18.609313, 69.500000
12.646876, 18.609313, 69.625000
12.646876, 18.609313, 69.750000
12.506355, 18.402543, 69.875000
12.506355, 18.402543, 70.000000
12.506355, 18.402543, 70.125000
12.506355, 18.402543, 70.250000
12.365834, 18.195773, 70.375000
12.365834, 18.195773, 70.500000
12.225313, 17.989002, 70.625000
12.225313, 17.989002, 70.750000
12.225313, 17.989002, 70.875000
11.944272, 17.575462, 71.000000
11.944272, 17.575462, 71.125000
11.803751, 17.368692, 71.250000
11.663230, 17.161922, 71.375000
11.663230, 17.161922, 71.500000
11.663230, 17.161922, 71.625000
11.522709, 16.955152, 71.750000
11.382188, 16.748382, 71.875000
11.382188, 16.748382, 72.000000
11.382188, 16.748382, 72.125000
11.241668, 16.541611, 72.250000
11.101147, 16.334841, 72.375000
11.101147, 16.334841, 72.500000
11.101147, 16.334841, 72.625000
10.960626, 16.128071, 72.750000
10.960626, 16.128071, 72.875000
10.960626, 16.128071, 73.000000
10.820105, 15.921301, 73.125000
10.820105, 15.921301, 73.250000
10.820105, 15.921301, 73.375000
10.960626, 16.128071, 73.500000
10.820105, 15.921301, 73.625000
10.820105, 15.921301, 73.750000
10.820105, 15.921301, 73.875000
10.960626, 16.128071, 74.000000
10.820105, 15.921301, 74.125000
10.960626, 16.128071, 74.250000
10.960626, 16.128071, 74.375000
11.101147, 16.334841, 74.500000
11.101147, 16.334841, 74.625000
11.101147, 16.334841, 74.750000
11.241668, 16.541611, 74.875000
11.241668, 16.541611, 75.000000
11.382188, 16.748382, 75.125000
11.382188, 16.748382, 75.250000
11.522709, 16.955152, 75.375000
11.663230, 17.161922, 75.500000
11.663230, 17.161922, 75.625000
11.663230, 17.161922, 75.750000
11.803751, 17.368692, 75.875000
11.803751, 17.368692, 76.000000
11.944272, 17.575462, 76.125000
12.084793, 17.782232, 76.250000
12.084793, 17.782232, 76.375000
12.225313, 17.989002, 76.500000
12.365834, 18.195773, 76.625000
12.365834, 18.195773, 76.750000
12.506355, 18.402543, 76.875000
12.646876, 18.609313, 77.000000
12.787397, 18.816083, 77.125000
12.787397, 18.816083, 77.250000
12.927918, 19.022853, 77.375000
12.927918, 19.022853, 77.500000
13.068439, 19.229623, 77.625000
13.068439, 19.229623, 77.750000
13.208959, 19.436393, 77.875000
13.349480, 19.643164, 78.000000
13.349480, 19.643164, 78.125000
13.490001, 19.849934, 78.250000
13.630522, 20.056704, 78.375000
13.771043, 20.263474, 78.500000
13.771043, 20.263474, 78.625000
13.771043, 20.263474, 78.750000
13.911564, 20.470244, 78.875000
14.052084, 20.677014, 79.000000
14.192605, 20.883785, 79.125000
14.333126, 21.090555, 79.250000
14.473647, 21.297325, 79.375000
14.473647, 21.297325, 79.500000
14.614168, 21.504095, 79.625000
14.614168, 21.504095, 79.750000
14.754689, 21.710865, 79.875000
14.895210, 21.917635, 80.000000
15.035730, 22.124405, 80.125000
15.035730, 22.124405, 80.250000
15.035730, 22.124405, 80.375000
15.035730, 22.124405, 80.500000
15.176251, 22.331176, 80.625000
15.176251, 22.331176, 80.750000
15.176251, 22.331176, 80.875000
15.316772, 22.537946, 81.000000
15.316772, 22.537946, 81.125000
15.316772, 22.537946, 81.250000
15.316772, 22.537946, 81.375000
15.457293, 22.744716, 81.500000
22.904898, 33.703533, 100.625000
22.764377, 33.496763, 100.750000
22.623856, 33.289993, 100.875000
22.623856, 33.289993, 101.000000
22.764377, 33.496763, 101.125000
22.623856, 33.289993, 101.250000
22.483335, 33.083223, 101.375000
22.483335, 33.083223, 101.500000
22.483335, 33.083223, 101.625000
22.764377, 33.496763, 101.750000
22.764377, 33.496763, 101.875000
5.626181, 8.865443, 19.750000
5.760138, 9.076525, 19.875000
5.626181, 8.865443, 20.000000
5.894095, 9.287607, 20.125000
5.760138, 9.076525, 20.250000
5.894095, 9.287607, 20.375000
5.894095, 9.287607, 20.500000
6.295965, 9.920853, 20.625000
6.295965, 9.920853, 20.750000
6.295965, 9.920853, 20.875000
6.295965, 9.920853, 21.000000
6.563878, 10.343017, 21.125000
6.563878, 10.343017, 21.250000
6.697835, 10.554099, 21.375000
6.831792, 10.765181, 21.500000
6.831792, 10.765181, 21.625000
6.965748, 10.976263, 21.750000
7.099705, 11.187345, 21.875000
6.965748, 10.976263, 22.000000
7.233662, 11.398427, 22.125000
7.233662, 11.398427, 22.250000
7.367618, 11.609509, 22.375000
7.501575, 11.820591, 22.500000
7.635532, 12.031673, 22.625000
7.635532, 12.031673, 22.750000
7.635532, 12.031673, 22.875000
7.903445, 12.453837, 23.000000
7.903445, 12.453837, 23.125000
7.903445, 12.453837, 23.250000
8.037402, 12.664919, 23.375000
8.037402, 12.664919, 23.500000
8.171359, 12.876001, 23.625000
8.171359, 12.876001, 23.750000
8.171359, 12.876001, 23.875000
8.305315, 13.087083, 24.000000
8.439272, 13.298165, 24.125000
8.439272, 13.298165, 24.250000
8.573229, 13.509247, 24.375000
8.707185, 13.720329, 24.500000
8.707185, 13.720329, 24.625000
8.841142, 13.931411, 24.750000
8.841142, 13.931411, 24.875000
8.975099, 14.142493, 25.000000
8.975099, 14.142493, 25.125000
8.975099, 14.142493, 25.250000
8.975099, 14.142493, 25.375000
9.109056, 14.353575, 25.500000
9.243012, 14.564657, 25.625000
9.243012, 14.564657, 25.750000
9.376969, 14.775739, 25.875000
9.376969, 14.775739, 26.000000
9.510926, 14.986821, 26.125000
9.510926, 14.986821, 26.250000
9.644882, 15.197903, 26.375000
9.644882, 15.197903, 26.500000
9.644882, 15.197903, 26.625000
9.644882, 15.197903, 26.750000
9.778839, 15.408985, 26.875000
10.046752, 15.831149, 27.000000
9.912796, 15.620067, 27.125000
10.046752, 15.831149, 27.250000
10.046752, 15.831149, 27.375000
10.046752, 15.831149, 27.500000
10.046752, 15.831149, 27.625000
10.180709, 16.042231, 27.750000
10.314666, 16.253313, 27.875000
10.180709, 16.042231, 28.000000
10.314666, 16.253313, 28.125000
10.448623, 16.464395, 28.250000
10.448623, 16.464395, 28.375000
10.448623, 16.464395, 28.500000
10.582579, 16.675477, 28.625000
10.448623, 16.464395, 28.750000
10.582579, 16.675477, 28.875000
10.582579, 16.675477, 29.000000
10.716536, 16.886559, 29.125000
10.716536, 16.886559, 29.250000
10.850493, 17.097640, 29.375000
10.850493, 17.097640, 29.500000
10.850493, 17.097640, 29.625000
10.984449, 17.308722, 29.750000
10.984449, 17.308722, 29.875000
11.118406, 17.519804, 30.000000
11.118406, 17.519804, 30.125000
11.118406, 17.519804, 30.250000
11.252363, 17.730886, 30.375000
11.252363, 17.730886, 30.500000
11.386319, 17.941968, 30.625000
11.386319, 17.941968, 30.750000
11.386319, 17.941968, 30.875000
11.520276, 18.153050, 31.000000
11.520276, 18.153050, 31.125000
11.520276, 18.153050, 31.250000
11.520276, 18.153050, 31.375000
11.654233, 18.364132, 31.500000
11.654233, 18.364132, 31.625000
11.788189, 18.575214, 31.750000
11.788189, 18.575214, 31.875000
11.922146, 18.786296, 32.000000
11.922146, 18.786296, 32.125000
11.922146, 18.786296, 32.250000
11.922146, 18.786296, 32.375000
12.056103, 18.997378, 32.500000
12.056103, 18.997378, 32.625000
12.056103, 18.997378, 32.750000
12.056103, 18.997378, 32.875000
12.324016, 19.419542, 33.000000
12.190060, 19.208460, 33.125000
12.324016, 19.419542, 33.250000
12.324016, 19.419542, 33.375000
12.324016, 19.419542, 33.500000
12.457973, 19.630624, 33.625000
12.457973, 19.630624, 33.750000
12.457973, 19.630624, 33.875000
12.457973, 19.630624, 34.000000
12.457973, 19.630624, 34.125000
12.591930, 19.841706, 34.250000
12.591930, 19.841706, 34.375000
12.591930, 19.841706, 34.500000
12.725886, 20.052788, 34.625000
12.725886, 20.052788, 34.750000
12.725886, 20.052788, 34.875000
12.725886, 20.052788, 35.000000
12.859843, 20.263870, 35.125000
12.859843, 20.263870, 35.250000
12.993800, 20.474952, 35.375000
12.859843, 20.263870, 35.500000
12.859843, 20.263870, 35.625000
12.993800, 20.474952, 35.750000
12.993800, 20.474952, 35.875000
12.993800, 20.474952, 36.000000
13.127756, 20.686034, 36.125000
13.127756, 20.686034, 36.250000
13.127756, 20.686034, 36.375000
13.127756, 20.686034, 36.500000
13.127756, 20.686034, 36.625000
13.395670, 21.108198, 36.750000
13.261713, 20.897116, 36.875000
13.261713, 20.897116, 37.000000
13.261713, 20.897116, 37.125000
13.261713, 20.897116, 37.250000
13.395670, 21.108198, 37.375000
13.395670, 21.108198, 37.500000
13.395670, 21.108198, 37.625000
13.395670, 21.108198, 37.750000
13.395670, 21.108198, 37.875000
13.529627, 21.319280, 38.000000
13.529627, 21.319280, 38.125000
13.529627, 21.319280, 38.250000
13.529627, 21.319280, 38.375000
13.663583, 21.530362, 38.500000
13.663583, 21.530362, 38.625000
13.663583, 21.530362, 38.750000
13.663583, 21.530362, 38.875000
13.797540, 21.741444, 39.000000
13.797540, 21.741444, 39.125000
13.797540, 21.741444, 39.250000
13.797540, 21.741444, 39.375000
13.931497, 21.952526, 39.500000
13.931497, 21.952526, 39.625000
13.931497, 21.952526, 39.750000
14.065453, 22.163608, 39.875000
14.065453, 22.163608, 40.000000
13.931497, 21.952526, 40.125000
13.931497, 21.952526, 40.250000
14.065453, 22.163608, 40.375000
14.199410, 22.374690, 40.500000
14.065453, 22.163608, 40.625000
14.065453, 22.163608, 40.750000
14.065453, 22.163608, 40.875000
14.199410, 22.374690, 41.000000
14.199410, 22.374690, 41.125000
14.199410, 22.374690, 41.250000
14.333367, 22.585772, 41.375000
14.199410, 22.374690, 41.500000
14.333367, 22.585772, 41.625000
14.333367, 22.585772, 41.750000
14.333367, 22.585772, 41.875000
14.333367, 22.585772, 42.000000
14.333367, 22.585772, 42.125000
14.467323, 22.796854, 42.250000
14.333367, 22.585772, 42.375000
14.467323, 22.796854, 42.500000
14.467323, 22.796854, 42.625000
14.467323, 22.796854, 42.750000
14.467323, 22.796854, 42.875000
14.467323, 22.796854, 43.000000
14.467323, 22.796854, 43.125000
14.601280, 23.007936, 43.250000
14.601280, 23.007936, 43.375000
14.601280, 23.007936, 43.500000
14.601280, 23.007936, 43.625000
14.601280, 23.007936, 43.750000
14.601280, 23.007936, 43.875000
14.601280, 23.007936, 44.000000
14.735237, 23.219018, 44.125000
14.735237, 23.219018, 44.250000
14.735237, 23.219018, 44.375000
14.735237, 23.219018, 44.500000
14.735237, 23.219018, 44.625000
14.869194, 23.430100, 44.750000
14.869194, 23.430100, 44.875000
14.869194, 23.430100, 45.000000
14.869194, 23.430100, 45.125000
14.869194, 23.430100, 45.250000
14.869194, 23.430100, 45.375000
14.869194, 23.430100, 45.500000
14.869194, 23.430100, 45.625000
14.869194, 23.430100, 45.750000
14.869194, 23.430100, 45.875000
14.869194, 23.430100, 46.000000
15.003150, 23.641182, 46.125000
14.869194, 23.430100, 46.250000
15.003150, 23.641182, 46.375000
15.003150, 23.641182, 46.500000
15.003150, 23.641182, 46.625000
15.003150, 23.641182, 46.750000
15.137107, 23.852264, 46.875000
15.003150, 23.641182, 47.000000
15.137107, 23.852264, 47.125000
15.137107, 23.852264, 47.250000
15.137107, 23.852264, 47.375000
15.137107, 23.852264, 47.500000
15.137107, 23.852264, 47.625000
15.137107, 23.852264, 47.750000
15.137107, 23.852264, 47.875000
15.137107, 23.852264, 48.000000
15.137107, 23.852264, 48.125000
15.271064, 24.063346, 48.250000
15.137107, 23.852264, 48.375000
15.137107, 23.852264, 48.500000
15.271064, 24.063346, 48.625000
15.137107, 23.852264, 48.750000
15.137107, 23.852264, 48.875000
15.137107, 23.852264, 49.000000
15.137107, 23.852264, 49.125000
15.271064, 24.063346, 49.250000
15.271064, 24.063346, 49.375000
15.271064, 24.063346, 49.500000
15.271064, 24.063346, 49.625000
15.271064, 24.063346, 49.750000
15.271064, 24.063346, 49.875000
15.271064, 24.063346, 50.000000
15.271064, 24.063346, 50.125000
15.271064, 24.063346, 50.250000
15.271064, 24.063346, 50.375000
15.271064, 24.063346, 50.500000
15.271064, 24.063346, 50.625000
15.271064, 24.063346, 50.750000
15.271064, 24.063346, 50.875000
15.271064, 24.063346, 51.000000
15.271064, 24.063346, 51.125000
15.405020, 24.274428, 51.250000
15.405020, 24.274428, 51.375000
15.405020, 24.274428, 51.500000
15.271064, 24.063346, 51.625000
15.271064, 24.063346, 51.750000
15.405020, 24.274428, 51.875000
15.405020, 24.274428, 52.000000
15.405020, 24.274428, 52.125000
15.405020, 24.274428, 52.250000
15.271064, 24.063346, 52.375000
15.405020, 24.274428, 52.500000
15.405020, 24.274428, 52.625000
15.538977, 24.485510, 52.750000
15.538977, 24.485510, 52.875000
15.405020, 24.274428, 53.000000
15.271064, 24.063346, 53.125000
15.405020, 24.274428, 53.250000
15.405020, 24.274428, 53.375000
15.405020, 24.274428, 53.500000
15.405020, 24.274428, 53.625000
15.405020, 24.274428, 53.750000
15.405020, 24.274428, 53.875000
15.405020, 24.274428, 54.000000
15.405020, 24.274428, 54.125000
15.405020, 24.274428, 54.250000
15.405020, 24.274428, 54.375000
15.405020, 24.274428, 54.500000
15.405020, 24.274428, 54.625000
15.405020, 24.274428, 54.750000
15.405020, 24.274428, 54.875000
15.405020, 24.274428, 55.000000
15.405020, 24.274428, 55.125000
15.271064, 24.063346, 55.250000
15.271064, 24.063346, 55.375000
15.405020, 24.274428, 55.500000
15.271064, 24.063346, 55.625000
15.271064, 24.063346, 55.750000
15.271064, 24.063346, 55.875000
15.271064, 24.063346, 56.000000
15.271064, 24.063346, 56.125000
15.271064, 24.063346, 56.250000
15.271064, 24.063346, 56.375000
15.271064, 24.063346, 56.500000
15.271064, 24.063346, 56.625000
15.271064, 24.063346, 56.750000
15.137107, 23.852264, 56.875000
15.137107, 23.852264, 57.000000
15.137107, 23.852264, 57.125000
15.137107, 23.852264, 57.250000
15.137107, 23.852264, 57.375000
15.137107, 23.852264, 57.500000
15.137107, 23.852264, 57.625000
15.137107, 23.852264, 57.750000
15.137107, 23.852264, 57.875000
15.137107, 23.852264, 58.000000
15.137107, 23.852264, 58.125000
15.137107, 23.852264, 58.250000
15.003150, 23.641182, 58.375000
15.137107, 23.852264, 58.500000
15.137107, 23.852264, 58.625000
15.137107, 23.852264, 58.750000
15.137107, 23.852264, 58.875000
15.137107, 23.852264, 59.000000
15.137107, 23.852264, 59.125000
15.137107, 23.852264, 59.250000
15.003150, 23.641182, 59.375000
15.003150, 23.641182, 59.500000
15.003150, 23.641182, 59.625000
15.003150, 23.641182, 59.750000
15.003150, 23.641182, 59.875000
15.003150, 23.641182, 60.000000
14.869194, 23.430100, 60.125000
14.869194, 23.430100, 60.250000
14.869194, 23.430100, 60.375000
14.869194, 23.430100, 60.500000
15.003150, 23.641182, 60.625000
14.869194, 23.430100, 60.750000
14.869194, 23.430100, 60.875000
14.735237, 23.219018, 61.000000
14.735237, 23.219018, 61.125000
14.735237, 23.219018, 61.250000
14.735237, 23.219018, 61.375000
14.735237, 23.219018, 61.500000
14.735237, 23.219018, 61.625000
14.735237, 23.219018, 61.750000
14.601280, 23.007936, 61.875000
14.601280, 23.007936, 62.000000
14.601280, 23.007936, 62.125000
14.601280, 23.007936, 62.250000
14.601280, 23.007936, 62.375000
14.467323, 22.796854, 62.500000
14.467323, 22.796854, 62.625000
14.467323, 22.796854, 62.750000
14.467323, 22.796854, 62.875000
14.601280, 23.007936, 63.000000
14.467323, 22.796854, 63.125000
14.467323, 22.796854, 63.250000
14.333367, 22.585772, 63.375000
14.467323, 22.796854, 63.500000
14.333367, 22.585772, 63.625000
14.199410, 22.374690, 63.750000
14.199410, 22.374690, 63.875000
14.199410, 22.374690, 64.000000
14.199410, 22.374690, 64.125000
14.199410, 22.374690, 64.250000
14.065453, 22.163608, 64.375000
14.065453, 22.163608, 64.500000
14.199410, 22.374690, 64.625000
14.199410, 22.374690, 64.750000
14.065453, 22.163608, 64.875000
14.065453, 22.163608, 65.000000
13.931497, 21.952526, 65.125000
13.931497, 21.952526, 65.250000
13.931497, 21.952526, 65.375000
13.931497, 21.952526, 65.500000
13.931497, 21.952526, 65.625000
13.797540, 21.741444, 65.750000
13.663583, 21.530362, 65.875000
13.663583, 21.530362, 66.000000
13.529627, 21.319280, 66.125000
13.529627, 21.319280, 66.250000
13.395670, 21.108198, 66.375000
13.529627, 21.319280, 66.500000
13.395670, 21.108198, 66.625000
13.261713, 20.897116, 66.750000
13.127756, 20.686034, 66.875000
13.127756, 20.686034, 67.000000
12.993800, 20.474952, 67.125000
12.859843, 20.263870, 67.250000
12.859843, 20.263870, 67.375000
12.859843, 20.263870, 67.500000
12.725886, 20.052788, 67.625000
12.725886, 20.052788, 67.750000
12.591930, 19.841706, 67.875000
12.591930, 19.841706, 68.000000
12.591930, 19.841706, 68.125000
12.457973, 19.630624, 68.250000
12.324016, 19.419542, 68.375000
12.324016, 19.419542, 68.500000
12.190060, 19.208460, 68.625000
12.190060, 19.208460, 68.750000
12.190060, 19.208460, 68.875000
12.190060, 19.208460, 69.000000
12.190060, 19.208460, 69.125000
12.190060, 19.208460, 69.250000
12.056103, 18.997378, 69.375000
12.056103, 18.997378, 69.500000
12.056103, 18.997378, 69.625000
12.056103, 18.997378, 69.750000
11.922146, 18.786296, 69.875000
11.922146, 18.786296, 70.000000
11.922146, 18.786296, 70.125000
11.788189, 18.575214, 70.250000
11.788189, 18.575214, 70.375000
11.654233, 18.364132, 70.500000
11.654233, 18.364132, 70.625000
11.520276, 18.153050, 70.750000
11.520276, 18.153050, 70.875000
11.386319, 17.941968, 71.000000
11.386319, 17.941968, 71.125000
11.386319, 17.941968, 71.250000
11.252363, 17.730886, 71.375000
11.252363, 17.730886, 71.500000
10.984449, 17.308722, 71.625000
10.984449, 17.308722, 71.750000
10.984449, 17.308722, 71.875000
10.716536, 16.886559, 72.000000
10.850493, 17.097640, 72.125000
10.716536, 16.886559, 72.250000
10.582579, 16.675477, 72.375000
10.582579, 16.675477, 72.500000
10.582579, 16.675477, 72.625000
10.448623, 16.464395, 72.750000
10.448623, 16.464395, 72.875000
10.448623, 16.464395, 73.000000
10.448623, 16.464395, 73.125000
10.314666, 16.253313, 73.250000
10.448623, 16.464395, 73.375000
10.314666, 16.253313, 73.500000
10.448623, 16.464395, 73.625000
10.314666, 16.253313, 73.750000
10.314666, 16.253313, 73.875000
10.314666, 16.253313, 74.000000
10.314666, 16.253313, 74.125000
10.448623, 16.464395, 74.250000
10.448623, 16.464395, 74.375000
10.448623, 16.464395, 74.500000
10.716536, 16.886559, 74.625000
10.716536, 16.886559, 74.750000
10.716536, 16.886559, 74.875000
10.716536, 16.886559, 75.000000
10.850493, 17.097640, 75.125000
10.850493, 17.097640, 75.250000
10.984449, 17.308722, 75.375000
11.118406, 17.519804, 75.500000
11.118406, 17.519804, 75.625000
11.118406, 17.519804, 75.750000
11.252363, 17.730886, 75.875000
11.252363, 17.730886, 76.000000
11.386319, 17.941968, 76.125000
11.520276, 18.153050, 76.250000
11.520276, 18.153050, 76.375000
11.654233, 18.364132, 76.500000
11.788189, 18.575214, 76.625000
11.922146, 18.786296, 76.750000
12.056103, 18.997378, 76.875000
12.056103, 18.997378, 77.000000
12.190060, 19.208460, 77.125000
12.190060, 19.208460, 77.250000
12.190060, 19.208460, 77.375000
12.324016, 19.419542, 77.500000
12.324016, 19.419542, 77.625000
12.457973, 19.630624, 77.750000
12.591930, 19.841706, 77.875000
12.725886, 20.052788, 78.000000
12.725886, 20.052788, 78.125000
12.859843, 20.263870, 78.250000
12.993800, 20.474952, 78.375000
13.127756, 20.686034, 78.500000
13.127756, 20.686034, 78.625000
13.261713, 20.897116, 78.750000
13.395670, 21.108198, 78.875000
13.395670, 21.108198, 79.000000
13.529627, 21.319280, 79.125000
13.797540, 21.741444, 79.250000
13.663583, 21.530362, 79.375000
13.797540, 21.741444, 79.500000
13.931497, 21.952526, 79.625000
14.065453, 22.163608, 79.750000
14.065453, 22.163608, 79.875000
14.065453, 22.163608, 80.000000
14.199410, 22.374690, 80.125000
14.199410, 22.374690, 80.250000
14.333367, 22.585772, 80.375000
14.467323, 22.796854, 80.500000
14.467323, 22.796854, 80.625000
14.467323, 22.796854, 80.750000
14.601280, 23.007936, 80.875000
14.601280, 23.007936, 81.000000
14.601280, 23.007936, 81.125000
14.601280, 23.007936, 81.250000
14.601280, 23.007936, 81.375000
15.003150, 23.641182, 81.500000
21.834942, 34.406363, 100.500000
21.834942, 34.406363, 100.625000
21.700985, 34.195281, 100.750000
21.567028, 33.984199, 100.875000
21.567028, 33.984199, 101.000000
21.700985, 34.195281, 101.125000
21.567028, 33.984199, 101.250000
21.433072, 33.773117, 101.375000
21.433072, 33.773117, 101.500000
21.433072, 33.773117, 101.625000
21.700985, 34.195281, 101.750000
21.700985, 34.195281, 101.875000
5.344935, 9.037791, 19.750000
5.344935, 9.037791, 19.875000
5.599456, 9.468162, 20.000000
5.599456, 9.468162, 20.125000
5.599456, 9.468162, 20.250000
5.726716, 9.683348, 20.375000
5.726716, 9.683348, 20.500000
5.853976, 9.898533, 20.625000
5.853976, 9.898533, 20.750000
6.108497, 10.328904, 20.875000
6.108497, 10.328904, 21.000000
6.235757, 10.544090, 21.125000
6.235757, 10.544090, 21.250000
6.363018, 10.759275, 21.375000
6.490278, 10.974461, 21.500000
6.490278, 10.974461, 21.625000
6.490278, 10.974461, 21.750000
6.617538, 11.189646, 21.875000
6.872059, 11.620017, 22.000000
6.872059, 11.620017, 22.125000
6.999319, 11.835203, 22.250000
7.126580, 12.050388, 22.375000
7.126580, 12.050388, 22.500000
7.126580, 12.050388, 22.625000
7.381101, 12.480759, 22.750000
7.381101, 12.480759, 22.875000
7.381101, 12.480759, 23.000000
7.381101, 12.480759, 23.125000
7.508361, 12.695945, 23.250000
7.508361, 12.695945, 23.375000
7.635621, 12.911130, 23.500000
7.762882, 13.126316, 23.625000
7.762882, 13.126316, 23.750000
7.890142, 13.341501, 23.875000
