-30.252198, -28.408705, 41.125000
-30.434440, -28.579842, 41.250000
-30.434440, -28.579842, 41.375000
-30.434440, -28.579842, 41.500000
-30.434440, -28.579842, 41.625000
-30.616682, -28.750978, 41.750000
-30.434440, -28.579842, 41.875000
-30.616682, -28.750978, 42.000000
-30.616682, -28.750978, 42.125000
-30.798925, -28.922115, 42.250000
-30.616682, -28.750978, 42.375000
-30.616682, -28.750978, 42.500000
-30.616682, -28.750978, 42.625000
-30.981167, -29.093252, 42.750000
-30.981167, -29.093252, 42.875000
-30.981167, -29.093252, 43.000000
-30.798925, -28.922115, 43.125000
-30.798925, -28.922115, 43.250000
-30.981167, -29.093252, 43.375000
-30.981167, -29.093252, 43.500000
-30.981167, -29.093252, 43.625000
-30.981167, -29.093252, 43.750000
-30.981167, -29.093252, 43.875000
-30.981167, -29.093252, 44.000000
-31.163409, -29.264389, 44.125000
-30.981167, -29.093252, 44.250000
-30.981167, -29.093252, 44.375000
-31.163409, -29.264389, 44.500000
-31.345651, -29.435526, 44.625000
-31.163409, -29.264389, 44.750000
-31.163409, -29.264389, 44.875000
-31.163409, -29.264389, 45.000000
-31.163409, -29.264389, 45.125000
-31.527893, -29.606662, 45.250000
-31.345651, -29.435526, 45.375000
-31.345651, -29.435526, 45.500000
-31.345651, -29.435526, 45.625000
-31.345651, -29.435526, 45.750000
-31.345651, -29.435526, 45.875000
-31.345651, -29.435526, 46.000000
-31.527893, -29.606662, 46.125000
-31.710135, -29.777799, 46.250000
-31.527893, -29.606662, 46.375000
-31.527893, -29.606662, 46.500000
-31.527893, -29.606662, 46.625000
-31.527893, -29.606662, 46.750000
-31.527893, -29.606662, 46.875000
-31.527893, -29.606662, 47.000000
-31.527893, -29.606662, 47.125000
-31.710135, -29.777799, 47.250000
-31.710135, -29.777799, 47.375000
-31.710135, -29.777799, 47.500000
-31.710135, -29.777799, 47.625000
-31.710135, -29.777799, 47.750000
-31.710135, -29.777799, 47.875000
-31.892377, -29.948936, 48.000000
-31.710135, -29.777799, 48.125000
-31.892377, -29.948936, 48.250000
-31.710135, -29.777799, 48.375000
-31.892377, -29.948936, 48.500000
-31.710135, -29.777799, 48.625000
-31.892377, -29.948936, 48.750000
-31.710135, -29.777799, 48.875000
-31.892377, -29.948936, 49.000000
-31.710135, -29.777799, 49.125000
-31.892377, -29.948936, 49.250000
-31.892377, -29.948936, 49.375000
-31.892377, -29.948936, 49.500000
-31.892377, -29.948936, 49.625000
-31.892377, -29.948936, 49.750000
-31.892377, -29.948936, 49.875000
-31.892377, -29.948936, 50.000000
-31.892377, -29.948936, 50.125000
-31.892377, -29.948936, 50.250000
-31.892377, -29.948936, 50.375000
-31.892377, -29.948936, 50.500000
-31.892377, -29.948936, 50.625000
-31.892377, -29.948936, 50.750000
-31.892377, -29.948936, 50.875000
-31.892377, -29.948936, 51.000000
-31.892377, -29.948936, 51.125000
-31.892377, -29.948936, 51.250000
-31.892377, -29.948936, 51.375000
-32.074620, -30.120073, 51.500000
-32.074620, -30.120073, 51.625000
-32.074620, -30.120073, 51.750000
-32.074620, -30.120073, 51.875000
-32.074620, -30.120073, 52.000000
-32.074620, -30.120073, 52.125000
-32.074620, -30.120073, 52.250000
-32.074620, -30.120073, 52.375000
-31.892377, -29.948936, 52.500000
-32.074620, -30.120073, 52.625000
-31.892377, -29.948936, 52.750000
-31.892377, -29.948936, 52.875000
-31.892377, -29.948936, 53.000000
-31.892377, -29.948936, 53.125000
-31.892377, -29.948936, 53.250000
-31.892377, -29.948936, 53.375000
-31.892377, -29.948936, 53.500000
-31.892377, -29.948936, 53.625000
-31.892377, -29.948936, 53.750000
-31.892377, -29.948936, 53.875000
-31.892377, -29.948936, 54.000000
-31.892377, -29.948936, 54.125000
-31.892377, -29.948936, 54.250000
-31.892377, -29.948936, 54.375000
-31.892377, -29.948936, 54.500000
-31.892377, -29.948936, 54.625000
-31.892377, -29.948936, 54.750000
-31.892377, -29.948936, 54.875000
-31.892377, -29.948936, 55.000000
-31.892377, -29.948936, 55.125000
-31.892377, -29.948936, 55.250000
-31.892377, -29.948936, 55.375000
-31.710135, -29.777799, 55.500000
-31.892377, -29.948936, 55.625000
-31.710135, -29.777799, 55.750000
-31.892377, -29.948936, 55.875000
-31.710135, -29.777799, 56.000000
-31.710135, -29.777799, 56.125000
-31.710135, -29.777799, 56.250000
-31.710135, -29.777799, 56.375000
-31.892377, -29.948936, 56.500000
-31.710135, -29.777799, 56.625000
-31.710135, -29.777799, 56.750000
-31.710135, -29.777799, 56.875000
-31.892377, -29.948936, 57.000000
-31.710135, -29.777799, 57.125000
-31.710135, -29.777799, 57.250000
-31.710135, -29.777799, 57.375000
-31.710135, -29.777799, 57.500000
-31.710135, -29.777799, 57.625000
-31.710135, -29.777799, 57.750000
-31.710135, -29.777799, 57.875000
-31.710135, -29.777799, 58.000000
-31.527893, -29.606662, 58.125000
-31.527893, -29.606662, 58.250000
-31.527893, -29.606662, 58.375000
-31.527893, -29.606662, 58.500000
-31.527893, -29.606662, 58.625000
-31.345651, -29.435526, 58.750000
-31.345651, -29.435526, 58.875000
-31.345651, -29.435526, 59.000000
-31.345651, -29.435526, 59.125000
-31.345651, -29.435526, 59.250000
-31.345651, -29.435526, 59.375000
-31.345651, -29.435526, 59.500000
-31.345651, -29.435526, 59.625000
-31.345651, -29.435526, 59.750000
-31.345651, -29.435526, 59.875000
-31.163409, -29.264389, 60.000000
-31.163409, -29.264389, 60.125000
-31.163409, -29.264389, 60.250000
-31.345651, -29.435526, 60.375000
-31.163409, -29.264389, 60.500000
-31.163409, -29.264389, 60.625000
-31.163409, -29.264389, 60.750000
-30.981167, -29.093252, 60.875000
-30.981167, -29.093252, 61.000000
-30.981167, -29.093252, 61.125000
-30.981167, -29.093252, 61.250000
-30.981167, -29.093252, 61.375000
-30.798925, -28.922115, 61.500000
-30.798925, -28.922115, 61.625000
-30.798925, -28.922115, 61.750000
-30.798925, -28.922115, 61.875000
-30.616682, -28.750978, 62.000000
-30.616682, -28.750978, 62.125000
-30.616682, -28.750978, 62.250000
-30.616682, -28.750978, 62.375000
-30.616682, -28.750978, 62.500000
-30.434440, -28.579842, 62.625000
-30.434440, -28.579842, 62.750000
-30.434440, -28.579842, 62.875000
-30.434440, -28.579842, 63.000000
-30.434440, -28.579842, 63.125000
-30.252198, -28.408705, 63.250000
-30.434440, -28.579842, 63.375000
-30.069956, -28.237568, 63.500000
-30.069956, -28.237568, 63.625000
-30.069956, -28.237568, 63.750000
-30.069956, -28.237568, 63.875000
-30.069956, -28.237568, 64.000000
-30.069956, -28.237568, 64.125000
-29.887714, -28.066431, 64.250000
-29.887714, -28.066431, 64.375000
-29.705472, -27.895295, 64.500000
-29.705472, -27.895295, 64.625000
-29.705472, -27.895295, 64.750000
-29.523229, -27.724158, 64.875000
-29.523229, -27.724158, 65.000000
-29.523229, -27.724158, 65.125000
-29.523229, -27.724158, 65.250000
-29.340987, -27.553021, 65.375000
-29.340987, -27.553021, 65.500000
-29.340987, -27.553021, 65.625000
-29.158745, -27.381884, 65.750000
-29.158745, -27.381884, 65.875000
-28.976503, -27.210747, 66.000000
-28.794261, -27.039611, 66.125000
-28.794261, -27.039611, 66.250000
-28.612019, -26.868474, 66.375000
-28.612019, -26.868474, 66.500000
-28.612019, -26.868474, 66.625000
-28.429776, -26.697337, 66.750000
-28.429776, -26.697337, 66.875000
-28.247534, -26.526200, 67.000000
-28.065292, -26.355064, 67.125000
-28.065292, -26.355064, 67.250000
-27.883050, -26.183927, 67.375000
-27.883050, -26.183927, 67.500000
-27.700808, -26.012790, 67.625000
-27.518566, -25.841653, 67.750000
-27.518566, -25.841653, 67.875000
-27.336324, -25.670516, 68.000000
-27.336324, -25.670516, 68.125000
-27.154081, -25.499380, 68.250000
-27.154081, -25.499380, 68.375000
-26.971839, -25.328243, 68.500000
-26.971839, -25.328243, 68.625000
-26.971839, -25.328243, 68.750000
-26.789597, -25.157106, 68.875000
-26.607355, -24.985969, 69.000000
-26.607355, -24.985969, 69.125000
-26.425113, -24.814833, 69.250000
-26.425113, -24.814833, 69.375000
-26.425113, -24.814833, 69.500000
-26.242871, -24.643696, 69.625000
-26.060628, -24.472559, 69.750000
-26.060628, -24.472559, 69.875000
-26.060628, -24.472559, 70.000000
-25.878386, -24.301422, 70.125000
-25.696144, -24.130285, 70.250000
-25.513902, -23.959149, 70.375000
-25.696144, -24.130285, 70.500000
-25.513902, -23.959149, 70.625000
-25.331660, -23.788012, 70.750000
-25.149418, -23.616875, 70.875000
-25.149418, -23.616875, 71.000000
-24.967175, -23.445738, 71.125000
-25.149418, -23.616875, 71.250000
-24.784933, -23.274602, 71.375000
-24.967175, -23.445738, 71.500000
-24.602691, -23.103465, 71.625000
-24.602691, -23.103465, 71.750000
-24.420449, -22.932328, 71.875000
-24.238207, -22.761191, 72.000000
-24.238207, -22.761191, 72.125000
-24.055965, -22.590054, 72.250000
-23.873723, -22.418918, 72.375000
-23.691480, -22.247781, 72.500000
-23.691480, -22.247781, 72.625000
-23.509238, -22.076644, 72.750000
-23.326996, -21.905507, 72.875000
-23.326996, -21.905507, 73.000000
-23.144754, -21.734371, 73.125000
-23.326996, -21.905507, 73.250000
-22.962512, -21.563234, 73.375000
-22.962512, -21.563234, 73.500000
-22.780270, -21.392097, 73.625000
-22.780270, -21.392097, 73.750000
-22.780270, -21.392097, 73.875000
-22.598027, -21.220960, 74.000000
-22.415785, -21.049824, 74.125000
-22.415785, -21.049824, 74.250000
-22.233543, -20.878687, 74.375000
-22.051301, -20.707550, 74.500000
-22.051301, -20.707550, 74.625000
-21.869059, -20.536413, 74.750000
-21.869059, -20.536413, 74.875000
-21.869059, -20.536413, 75.000000
-22.051301, -20.707550, 75.125000
-21.869059, -20.536413, 75.250000
-21.869059, -20.536413, 75.375000
-21.869059, -20.536413, 75.500000
-21.869059, -20.536413, 75.625000
-22.051301, -20.707550, 75.750000
-22.051301, -20.707550, 75.875000
-22.233543, -20.878687, 76.000000
-22.233543, -20.878687, 76.125000
-22.415785, -21.049824, 76.250000
-22.415785, -21.049824, 76.375000
-22.598027, -21.220960, 76.500000
-22.598027, -21.220960, 76.625000
-22.962512, -21.563234, 76.750000
-22.780270, -21.392097, 76.875000
-22.962512, -21.563234, 77.000000
-23.144754, -21.734371, 77.125000
-23.326996, -21.905507, 77.250000
-23.326996, -21.905507, 77.375000
-23.509238, -22.076644, 77.500000
-23.691480, -22.247781, 77.625000
-23.691480, -22.247781, 77.750000
-23.873723, -22.418918, 77.875000
-24.055965, -22.590054, 78.000000
-24.055965, -22.590054, 78.125000
-24.238207, -22.761191, 78.250000
-24.420449, -22.932328, 78.375000
-24.420449, -22.932328, 78.500000
-24.602691, -23.103465, 78.625000
-24.967175, -23.445738, 78.750000
-25.149418, -23.616875, 78.875000
-25.331660, -23.788012, 79.000000
-25.331660, -23.788012, 79.125000
-25.513902, -23.959149, 79.250000
-25.513902, -23.959149, 79.375000
-25.696144, -24.130285, 79.500000
-25.878386, -24.301422, 79.625000
-25.878386, -24.301422, 79.750000
-26.060628, -24.472559, 79.875000
-26.242871, -24.643696, 80.000000
-26.425113, -24.814833, 80.125000
-26.425113, -24.814833, 80.250000
-26.607355, -24.985969, 80.375000
-26.789597, -25.157106, 80.500000
-26.971839, -25.328243, 80.625000
-26.971839, -25.328243, 80.750000
-27.154081, -25.499380, 80.875000
-27.518566, -25.841653, 81.000000
-27.518566, -25.841653, 81.125000
-27.518566, -25.841653, 81.250000
-27.883050, -26.183927, 81.375000
-27.883050, -26.183927, 81.500000
-28.247534, -26.526200, 81.625000
-28.247534, -26.526200, 81.750000
-28.247534, -26.526200, 81.875000
-28.429776, -26.697337, 82.000000
-28.429776, -26.697337, 82.125000
-28.612019, -26.868474, 82.250000
-28.612019, -26.868474, 82.375000
-28.612019, -26.868474, 82.500000
-28.794261, -27.039611, 82.625000
-28.976503, -27.210747, 82.750000
-28.976503, -27.210747, 82.875000
-28.976503, -27.210747, 83.000000
-29.340987, -27.553021, 83.125000
-40.457759, -37.992364, 102.000000
-17.677670, -17.677670, 22.000000
-17.854446, -17.854446, 22.125000
-18.031223, -18.031223, 22.250000
-18.031223, -18.031223, 22.375000
-18.384776, -18.384776, 22.500000
-18.384776, -18.384776, 22.625000
-18.384776, -18.384776, 22.750000
-18.738330, -18.738330, 22.875000
-18.738330, -18.738330, 23.000000
-18.915106, -18.915106, 23.125000
-18.915106, -18.915106, 23.250000
-19.091883, -19.091883, 23.375000
-19.268660, -19.268660, 23.500000
-19.268660, -19.268660, 23.625000
-19.445436, -19.445436, 23.750000
-19.622213, -19.622213, 23.875000
-19.798990, -19.798990, 24.000000
-19.798990, -19.798990, 24.125000
-19.975767, -19.975767, 24.250000
-19.975767, -19.975767, 24.375000
-20.329320, -20.329320, 24.500000
-20.329320, -20.329320, 24.625000
-20.329320, -20.329320, 24.750000
-20.506097, -20.506097, 24.875000
-20.682873, -20.682873, 25.000000
-20.859650, -20.859650, 25.125000
-20.859650, -20.859650, 25.250000
-21.036427, -21.036427, 25.375000
-21.213203, -21.213203, 25.500000
-21.213203, -21.213203, 25.625000
-21.389980, -21.389980, 25.750000
-21.389980, -21.389980, 25.875000
-21.566757, -21.566757, 26.000000
-21.743534, -21.743534, 26.125000
-21.743534, -21.743534, 26.250000
-21.743534, -21.743534, 26.375000
-21.920310, -21.920310, 26.500000
-21.920310, -21.920310, 26.625000
-22.097087, -22.097087, 26.750000
-22.273864, -22.273864, 26.875000
-22.273864, -22.273864, 27.000000
-22.450640, -22.450640, 27.125000
-22.450640, -22.450640, 27.250000
-22.627417, -22.627417, 27.375000
-22.804194, -22.804194, 27.500000
-22.804194, -22.804194, 27.625000
-22.804194, -22.804194, 27.750000
-23.157747, -23.157747, 27.875000
-23.157747, -23.157747, 28.000000
-23.157747, -23.157747, 28.125000
-23.157747, -23.157747, 28.250000
-23.334524, -23.334524, 28.375000
-23.511300, -23.511300, 28.500000
-23.511300, -23.511300, 28.625000
-23.511300, -23.511300, 28.750000
-23.688077, -23.688077, 28.875000
-23.864854, -23.864854, 29.000000
-23.864854, -23.864854, 29.125000
-24.041631, -24.041631, 29.250000
-23.864854, -23.864854, 29.375000
-24.218407, -24.218407, 29.500000
-24.041631, -24.041631, 29.625000
-24.218407, -24.218407, 29.750000
-24.218407, -24.218407, 29.875000
-24.395184, -24.395184, 30.000000
-24.395184, -24.395184, 30.125000
-24.571961, -24.571961, 30.250000
-24.571961, -24.571961, 30.375000
-24.748737, -24.748737, 30.500000
-24.748737, -24.748737, 30.625000
-24.748737, -24.748737, 30.750000
-24.925514, -24.925514, 30.875000
-24.925514, -24.925514, 31.000000
-25.102291, -25.102291, 31.125000
-25.102291, -25.102291, 31.250000
-25.102291, -25.102291, 31.375000
-25.279067, -25.279067, 31.500000
-25.279067, -25.279067, 31.625000
-25.455844, -25.455844, 31.750000
-25.455844, -25.455844, 31.875000
-25.455844, -25.455844, 32.000000
-25.809398, -25.809398, 32.125000
-25.632621, -25.632621, 32.250000
-25.809398, -25.809398, 32.375000
-25.809398, -25.809398, 32.500000
-25.809398, -25.809398, 32.625000
-25.986174, -25.986174, 32.750000
-25.986174, -25.986174, 32.875000
-25.986174, -25.986174, 33.000000
-26.162951, -26.162951, 33.125000
-26.162951, -26.162951, 33.250000
-26.162951, -26.162951, 33.375000
-26.339728, -26.339728, 33.500000
-26.339728, -26.339728, 33.625000
-26.516504, -26.516504, 33.750000
-26.516504, -26.516504, 33.875000
-26.693281, -26.693281, 34.000000
-26.693281, -26.693281, 34.125000
-26.693281, -26.693281, 34.250000
-26.870058, -26.870058, 34.375000
-26.870058, -26.870058, 34.500000
-26.870058, -26.870058, 34.625000
-26.870058, -26.870058, 34.750000
-27.046834, -27.046834, 34.875000
-27.223611, -27.223611, 35.000000
-27.223611, -27.223611, 35.125000
-27.223611, -27.223611, 35.250000
-27.400388, -27.400388, 35.375000
-27.400388, -27.400388, 35.500000
-27.400388, -27.400388, 35.625000
-27.577164, -27.577164, 35.750000
-27.577164, -27.577164, 35.875000
-27.577164, -27.577164, 36.000000
-27.577164, -27.577164, 36.125000
-27.753941, -27.753941, 36.250000
-27.753941, -27.753941, 36.375000
-27.753941, -27.753941, 36.500000
-27.930718, -27.930718, 36.625000
-27.930718, -27.930718, 36.750000
-27.930718, -27.930718, 36.875000
-27.930718, -27.930718, 37.000000
-28.107495, -28.107495, 37.125000
-28.107495, -28.107495, 37.250000
-28.107495, -28.107495, 37.375000
-28.284271, -28.284271, 37.500000
-28.107495, -28.107495, 37.625000
-28.461048, -28.461048, 37.750000
-28.284271, -28.284271, 37.875000
-28.284271, -28.284271, 38.000000
-28.461048, -28.461048, 38.125000
-28.461048, -28.461048, 38.250000
-28.461048, -28.461048, 38.375000
-28.461048, -28.461048, 38.500000
-28.461048, -28.461048, 38.625000
-28.814601, -28.814601, 38.750000
-28.637825, -28.637825, 38.875000
-28.637825, -28.637825, 39.000000
-28.637825, -28.637825, 39.125000
-28.814601, -28.814601, 39.250000
-28.814601, -28.814601, 39.375000
-28.814601, -28.814601, 39.500000
-28.814601, -28.814601, 39.625000
-28.991378, -28.991378, 39.750000
-28.991378, -28.991378, 39.875000
-28.991378, -28.991378, 40.000000
-28.991378, -28.991378, 40.125000
-29.168155, -29.168155, 40.250000
-29.168155, -29.168155, 40.375000
-29.168155, -29.168155, 40.500000
-29.168155, -29.168155, 40.625000
-29.344931, -29.344931, 40.750000
-29.344931, -29.344931, 40.875000
-29.344931, -29.344931, 41.000000
-29.344931, -29.344931, 41.125000
-29.344931, -29.344931, 41.250000
-29.521708, -29.521708, 41.375000
-29.521708, -29.521708, 41.500000
-29.521708, -29.521708, 41.625000
-29.521708, -29.521708, 41.750000
-29.521708, -29.521708, 41.875000
-29.521708, -29.521708, 42.000000
-29.521708, -29.521708, 42.125000
-29.521708, -29.521708, 42.250000
-29.698485, -29.698485, 42.375000
-29.698485, -29.698485, 42.500000
-29.698485, -29.698485, 42.625000
-29.698485, -29.698485, 42.750000
-29.875262, -29.875262, 42.875000
-29.875262, -29.875262, 43.000000
-29.875262, -29.875262, 43.125000
-29.875262, -29.875262, 43.250000
-29.875262, -29.875262, 43.375000
-29.875262, -29.875262, 43.500000
-30.052038, -30.052038, 43.625000
-30.052038, -30.052038, 43.750000
-30.052038, -30.052038, 43.875000
-30.052038, -30.052038, 44.000000
-30.052038, -30.052038, 44.125000
-30.052038, -30.052038, 44.250000
-30.052038, -30.052038, 44.375000
-30.228815, -30.228815, 44.500000
-30.228815, -30.228815, 44.625000
-30.228815, -30.228815, 44.750000
-30.228815, -30.228815, 44.875000
-30.228815, -30.228815, 45.000000
-30.228815, -30.228815, 45.125000
-30.228815, -30.228815, 45.250000
-30.228815, -30.228815, 45.375000
-30.405592, -30.405592, 45.500000
-30.405592, -30.405592, 45.625000
-30.405592, -30.405592, 45.750000
-30.405592, -30.405592, 45.875000
-30.405592, -30.405592, 46.000000
-30.405592, -30.405592, 46.125000
-30.405592, -30.405592, 46.250000
-30.582368, -30.582368, 46.375000
-30.582368, -30.582368, 46.500000
-30.582368, -30.582368, 46.625000
-30.582368, -30.582368, 46.750000
-30.582368, -30.582368, 46.875000
-30.582368, -30.582368, 47.000000
-30.582368, -30.582368, 47.125000
-30.582368, -30.582368, 47.250000
-30.582368, -30.582368, 47.375000
-30.759145, -30.759145, 47.500000
-30.759145, -30.759145, 47.625000
-30.759145, -30.759145, 47.750000
-30.759145, -30.759145, 47.875000
-30.759145, -30.759145, 48.000000
-30.759145, -30.759145, 48.125000
-30.759145, -30.759145, 48.250000
-30.759145, -30.759145, 48.375000
-30.759145, -30.759145, 48.500000
-30.759145, -30.759145, 48.625000
-30.935922, -30.935922, 48.750000
-30.759145, -30.759145, 48.875000
-30.935922, -30.935922, 49.000000
-30.759145, -30.759145, 49.125000
-30.935922, -30.935922, 49.250000
-30.935922, -30.935922, 49.375000
-30.935922, -30.935922, 49.500000
-30.935922, -30.935922, 49.625000
-30.935922, -30.935922, 49.750000
-30.935922, -30.935922, 49.875000
-30.935922, -30.935922, 50.000000
-30.935922, -30.935922, 50.125000
-30.935922, -30.935922, 50.250000
-30.759145, -30.759145, 50.375000
-30.935922, -30.935922, 50.500000
-30.935922, -30.935922, 50.625000
-30.935922, -30.935922, 50.750000
-30.935922, -30.935922, 50.875000
-31.112698, -31.112698, 51.000000
-31.112698, -31.112698, 51.125000
-30.935922, -30.935922, 51.250000
-31.112698, -31.112698, 51.375000
-30.935922, -30.935922, 51.500000
-30.935922, -30.935922, 51.625000
-30.935922, -30.935922, 51.750000
-31.112698, -31.112698, 51.875000
-31.112698, -31.112698, 52.000000
-31.112698, -31.112698, 52.125000
-31.112698, -31.112698, 52.250000
-31.112698, -31.112698, 52.375000
-31.112698, -31.112698, 52.500000
-30.935922, -30.935922, 52.625000
-30.935922, -30.935922, 52.750000
-31.112698, -31.112698, 52.875000
-30.935922, -30.935922, 53.000000
-30.935922, -30.935922, 53.125000
-30.935922, -30.935922, 53.250000
-30.935922, -30.935922, 53.375000
-30.935922, -30.935922, 53.500000
-30.935922, -30.935922, 53.625000
-30.935922, -30.935922, 53.750000
-30.935922, -30.935922, 53.875000
-30.935922, -30.935922, 54.000000
-30.935922, -30.935922, 54.125000
-30.935922, -30.935922, 54.250000
-30.935922, -30.935922, 54.375000
-30.935922, -30.935922, 54.500000
-30.935922, -30.935922, 54.625000
-31.112698, -31.112698, 54.750000
-31.112698, -31.112698, 54.875000
-31.112698, -31.112698, 55.000000
-30.935922, -30.935922, 55.125000
-30.935922, -30.935922, 55.250000
-30.935922, -30.935922, 55.375000
-30.759145, -30.759145, 55.500000
-30.759145, -30.759145, 55.625000
-30.759145, -30.759145, 55.750000
-30.759145, -30.759145, 55.875000
-30.759145, -30.759145, 56.000000
-30.759145, -30.759145, 56.125000
-30.759145, -30.759145, 56.250000
-30.759145, -30.759145, 56.375000
-30.759145, -30.759145, 56.500000
-30.935922, -30.935922, 56.625000
-30.935922, -30.935922, 56.750000
-30.935922, -30.935922, 56.875000
-30.759145, -30.759145, 57.000000
-30.759145, -30.759145, 57.125000
-30.759145, -30.759145, 57.250000
-30.759145, -30.759145, 57.375000
-30.759145, -30.759145, 57.500000
-30.582368, -30.582368, 57.625000
-30.582368, -30.582368, 57.750000
-30.582368, -30.582368, 57.875000
-30.582368, -30.582368, 58.000000
-30.582368, -30.582368, 58.125000
-30.582368, -30.582368, 58.250000
-30.582368, -30.582368, 58.375000
-30.582368, -30.582368, 58.500000
-30.582368, -30.582368, 58.625000
-30.582368, -30.582368, 58.750000
-30.405592, -30.405592, 58.875000
-30.405592, -30.405592, 59.000000
-30.405592, -30.405592, 59.125000
-30.405592, -30.405592, 59.250000
-30.405592, -30.405592, 59.375000
-30.582368, -30.582368, 59.500000
-30.405592, -30.405592, 59.625000
-30.228815, -30.228815, 59.750000
-30.405592, -30.405592, 59.875000
-30.228815, -30.228815, 60.000000
-30.228815, -30.228815, 60.125000
-30.228815, -30.228815, 60.250000
-30.052038, -30.052038, 60.375000
-30.052038, -30.052038, 60.500000
-30.052038, -30.052038, 60.625000
-30.052038, -30.052038, 60.750000
-30.052038, -30.052038, 60.875000
-30.052038, -30.052038, 61.000000
-30.052038, -30.052038, 61.125000
-30.052038, -30.052038, 61.250000
-29.875262, -29.875262, 61.375000
-29.875262, -29.875262, 61.500000
-30.052038, -30.052038, 61.625000
-29.875262, -29.875262, 61.750000
-29.698485, -29.698485, 61.875000
-29.698485, -29.698485, 62.000000
-29.698485, -29.698485, 62.125000
-29.875262, -29.875262, 62.250000
-29.875262, -29.875262, 62.375000
-29.698485, -29.698485, 62.500000
-29.521708, -29.521708, 62.625000
-29.698485, -29.698485, 62.750000
-29.521708, -29.521708, 62.875000
-29.521708, -29.521708, 63.000000
-29.344931, -29.344931, 63.125000
-29.521708, -29.521708, 63.250000
-29.168155, -29.168155, 63.375000
-29.168155, -29.168155, 63.500000
-29.168155, -29.168155, 63.625000
-29.168155, -29.168155, 63.750000
-29.168155, -29.168155, 63.875000
-29.168155, -29.168155, 64.000000
-28.991378, -28.991378, 64.125000
-28.991378, -28.991378, 64.250000
-28.991378, -28.991378, 64.375000
-28.991378, -28.991378, 64.500000
-28.991378, -28.991378, 64.625000
-28.814601, -28.814601, 64.750000
-28.637825, -28.637825, 64.875000
-28.637825, -28.637825, 65.000000
-28.461048, -28.461048, 65.125000
-28.461048, -28.461048, 65.250000
-28.461048, -28.461048, 65.375000
-28.461048, -28.461048, 65.500000
-28.461048, -28.461048, 65.625000
-28.284271, -28.284271, 65.750000
-28.284271, -28.284271, 65.875000
-28.107495, -28.107495, 66.000000
-28.107495, -28.107495, 66.125000
-27.930718, -27.930718, 66.250000
-27.930718, -27.930718, 66.375000
-27.753941, -27.753941, 66.500000
-27.577164, -27.577164, 66.625000
-27.577164, -27.577164, 66.750000
-27.400388, -27.400388, 66.875000
-27.400388, -27.400388, 67.000000
-27.223611, -27.223611, 67.125000
-27.046834, -27.046834, 67.250000
-27.046834, -27.046834, 67.375000
-26.870058, -26.870058, 67.500000
-26.870058, -26.870058, 67.625000
-26.693281, -26.693281, 67.750000
-26.693281, -26.693281, 67.875000
-26.516504, -26.516504, 68.000000
-26.516504, -26.516504, 68.125000
-26.339728, -26.339728, 68.250000
-26.339728, -26.339728, 68.375000
-26.162951, -26.162951, 68.500000
-25.986174, -25.986174, 68.625000
-25.986174, -25.986174, 68.750000
-25.986174, -25.986174, 68.875000
-25.986174, -25.986174, 69.000000
-25.809398, -25.809398, 69.125000
-25.632621, -25.632621, 69.250000
-25.632621, -25.632621, 69.375000
-25.455844, -25.455844, 69.500000
-25.455844, -25.455844, 69.625000
-25.279067, -25.279067, 69.750000
-25.279067, -25.279067, 69.875000
-25.279067, -25.279067, 70.000000
-25.102291, -25.102291, 70.125000
-24.925514, -24.925514, 70.250000
-24.925514, -24.925514, 70.375000
-24.748737, -24.748737, 70.500000
-24.748737, -24.748737, 70.625000
-24.571961, -24.571961, 70.750000
-24.571961, -24.571961, 70.875000
-24.395184, -24.395184, 71.000000
-24.395184, -24.395184, 71.125000
-24.218407, -24.218407, 71.250000
-24.218407, -24.218407, 71.375000
-24.041631, -24.041631, 71.500000
-24.041631, -24.041631, 71.625000
-23.864854, -23.864854, 71.750000
-23.688077, -23.688077, 71.875000
-23.511300, -23.511300, 72.000000
-23.511300, -23.511300, 72.125000
-23.334524, -23.334524, 72.250000
-23.157747, -23.157747, 72.375000
-23.157747, -23.157747, 72.500000
-22.980970, -22.980970, 72.625000
-22.980970, -22.980970, 72.750000
-22.804194, -22.804194, 72.875000
-22.804194, -22.804194, 73.000000
-22.627417, -22.627417, 73.125000
-22.627417, -22.627417, 73.250000
-22.627417, -22.627417, 73.375000
-22.273864, -22.273864, 73.500000
-22.273864, -22.273864, 73.625000
-22.097087, -22.097087, 73.750000
-21.920310, -21.920310, 73.875000
-21.743534, -21.743534, 74.000000
-21.743534, -21.743534, 74.125000
-21.743534, -21.743534, 74.250000
-21.566757, -21.566757, 74.375000
-21.389980, -21.389980, 74.500000
-21.389980, -21.389980, 74.625000
-21.213203, -21.213203, 74.750000
-21.213203, -21.213203, 74.875000
-21.213203, -21.213203, 75.000000
-21.213203, -21.213203, 75.125000
-21.036427, -21.036427, 75.250000
-21.213203, -21.213203, 75.375000
-21.213203, -21.213203, 75.500000
-21.213203, -21.213203, 75.625000
-21.389980, -21.389980, 75.750000
-21.389980, -21.389980, 75.875000
-21.566757, -21.566757, 76.000000
-21.566757, -21.566757, 76.125000
-21.566757, -21.566757, 76.250000
-21.743534, -21.743534, 76.375000
-21.743534, -21.743534, 76.500000
-21.920310, -21.920310, 76.625000
-22.097087, -22.097087, 76.750000
-22.273864, -22.273864, 76.875000
-22.273864, -22.273864, 77.000000
-22.450640, -22.450640, 77.125000
-22.450640, -22.450640, 77.250000
-22.627417, -22.627417, 77.375000
-22.804194, -22.804194, 77.500000
-22.980970, -22.980970, 77.625000
-22.980970, -22.980970, 77.750000
-23.157747, -23.157747, 77.875000
-23.334524, -23.334524, 78.000000
-23.334524, -23.334524, 78.125000
-23.511300, -23.511300, 78.250000
-23.688077, -23.688077, 78.375000
-23.688077, -23.688077, 78.500000
-23.864854, -23.864854, 78.625000
-24.041631, -24.041631, 78.750000
-24.218407, -24.218407, 78.875000
-24.395184, -24.395184, 79.000000
-24.395184, -24.395184, 79.125000
-24.571961, -24.571961, 79.250000
-24.748737, -24.748737, 79.375000
-24.748737, -24.748737, 79.500000
-24.925514, -24.925514, 79.625000
-25.102291, -25.102291, 79.750000
-25.279067, -25.279067, 79.875000
-25.455844, -25.455844, 80.000000
-25.632621, -25.632621, 80.125000
-25.632621, -25.632621, 80.250000
-25.809398, -25.809398, 80.375000
-25.986174, -25.986174, 80.500000
-25.986174, -25.986174, 80.625000
-26.162951, -26.162951, 80.750000
-26.339728, -26.339728, 80.875000
-26.516504, -26.516504, 81.000000
-26.870058, -26.870058, 81.125000
-26.870058, -26.870058, 81.250000
-26.870058, -26.870058, 81.375000
-27.046834, -27.046834, 81.500000
-27.223611, -27.223611, 81.625000
-27.400388, -27.400388, 81.750000
-27.400388, -27.400388, 81.875000
-27.577164, -27.577164, 82.000000
-27.577164, -27.577164, 82.125000
-27.753941, -27.753941, 82.250000
-27.753941, -27.753941, 82.375000
-27.753941, -27.753941, 82.500000
-27.930718, -27.930718, 82.625000
-27.930718, -27.930718, 82.750000
-27.930718, -27.930718, 82.875000
-28.107495, -28.107495, 83.000000
-28.284271, -28.284271, 83.125000
-39.244426, -39.244426, 102.000000
-17.627088, -18.770942, 22.125000
-17.798225, -18.953184, 22.250000
-17.455951, -18.588700, 22.375000
-17.627088, -18.770942, 22.500000
-17.627088, -18.770942, 22.625000
-17.798225, -18.953184, 22.750000
-18.140498, -19.317669, 22.875000
-18.311635, -19.499911, 23.000000
-18.311635, -19.499911, 23.125000
-18.311635, -19.499911, 23.250000
-18.482772, -19.682153, 23.375000
-18.653909, -19.864395, 23.500000
-18.653909, -19.864395, 23.625000
-18.825045, -20.046637, 23.750000
-18.996182, -20.228879, 23.875000
-18.996182, -20.228879, 24.000000
-19.167319, -20.411122, 24.125000
-19.167319, -20.411122, 24.250000
-19.338456, -20.593364, 24.375000
-19.509593, -20.775606, 24.500000
-19.680729, -20.957848, 24.625000
-19.680729, -20.957848, 24.750000
-19.851866, -21.140090, 24.875000
-20.023003, -21.322332, 25.000000
-20.023003, -21.322332, 25.125000
-20.023003, -21.322332, 25.250000
-20.365276, -21.686817, 25.375000
-20.365276, -21.686817, 25.500000
-20.536413, -21.869059, 25.625000
-20.536413, -21.869059, 25.750000
-20.536413, -21.869059, 25.875000
-20.707550, -22.051301, 26.000000
-20.878687, -22.233543, 26.125000
-21.049824, -22.415785, 26.250000
-21.049824, -22.415785, 26.375000
-21.049824, -22.415785, 26.500000
-21.220960, -22.598027, 26.625000
-21.220960, -22.598027, 26.750000
-21.392097, -22.780270, 26.875000
-21.563234, -22.962512, 27.000000
-21.734371, -23.144754, 27.125000
-21.734371, -23.144754, 27.250000
-21.905507, -23.326996, 27.375000
-22.076644, -23.509238, 27.500000
-22.076644, -23.509238, 27.625000
-22.076644, -23.509238, 27.750000
-22.247781, -23.691480, 27.875000
-22.418918, -23.873723, 28.000000
-22.418918, -23.873723, 28.125000
-22.418918, -23.873723, 28.250000
-22.418918, -23.873723, 28.375000
-22.590054, -24.055965, 28.500000
-22.761191, -24.238207, 28.625000
-22.761191, -24.238207, 28.750000
-22.932328, -24.420449, 28.875000
-22.932328, -24.420449, 29.000000
-22.932328, -24.420449, 29.125000
-22.932328, -24.420449, 29.250000
-23.103465, -24.602691, 29.375000
-23.445738, -24.967175, 29.500000
-23.274602, -24.784933, 29.625000
-23.445738, -24.967175, 29.750000
-23.445738, -24.967175, 29.875000
-23.445738, -24.967175, 30.000000
-23.616875, -25.149418, 30.125000
-23.616875, -25.149418, 30.250000
-23.788012, -25.331660, 30.375000
-23.788012, -25.331660, 30.500000
-23.959149, -25.513902, 30.625000
-23.959149, -25.513902, 30.750000
-24.130285, -25.696144, 30.875000
-24.301422, -25.878386, 31.000000
-24.301422, -25.878386, 31.125000
-24.301422, -25.878386, 31.250000
-24.472559, -26.060628, 31.375000
-24.472559, -26.060628, 31.500000
-24.472559, -26.060628, 31.625000
-24.643696, -26.242871, 31.750000
-24.643696, -26.242871, 31.875000
-24.643696, -26.242871, 32.000000
-24.814833, -26.425113, 32.125000
-24.814833, -26.425113, 32.250000
-24.814833, -26.425113, 32.375000
-24.985969, -26.607355, 32.500000
-24.985969, -26.607355, 32.625000
-25.157106, -26.789597, 32.750000
-25.157106, -26.789597, 32.875000
-25.157106, -26.789597, 33.000000
-25.328243, -26.971839, 33.125000
-25.328243, -26.971839, 33.250000
-25.328243, -26.971839, 33.375000
-25.499380, -27.154081, 33.500000
-25.499380, -27.154081, 33.625000
-25.670516, -27.336324, 33.750000
-25.670516, -27.336324, 33.875000
-25.670516, -27.336324, 34.000000
-25.841653, -27.518566, 34.125000
-25.841653, -27.518566, 34.250000
-25.841653, -27.518566, 34.375000
-26.012790, -27.700808, 34.500000
-26.012790, -27.700808, 34.625000
-26.183927, -27.883050, 34.750000
-26.183927, -27.883050, 34.875000
-26.183927, -27.883050, 35.000000
-26.355064, -28.065292, 35.125000
-26.355064, -28.065292, 35.250000
-26.355064, -28.065292, 35.375000
-26.355064, -28.065292, 35.500000
-26.526200, -28.247534, 35.625000
-26.526200, -28.247534, 35.750000
-26.526200, -28.247534, 35.875000
-26.697337, -28.429776, 36.000000
-26.697337, -28.429776, 36.125000
-26.697337, -28.429776, 36.250000
-26.868474, -28.612019, 36.375000
-26.868474, -28.612019, 36.500000
-27.039611, -28.794261, 36.625000
-27.039611, -28.794261, 36.750000
-27.039611, -28.794261, 36.875000
-27.210747, -28.976503, 37.000000
-27.210747, -28.976503, 37.125000
-27.210747, -28.976503, 37.250000
-27.210747, -28.976503, 37.375000
-27.381884, -29.158745, 37.500000
-27.210747, -28.976503, 37.625000
-27.381884, -29.158745, 37.750000
-27.381884, -29.158745, 37.875000
-27.381884, -29.158745, 38.000000
-27.381884, -29.158745, 38.125000
-27.553021, -29.340987, 38.250000
-27.553021, -29.340987, 38.375000
-27.553021, -29.340987, 38.500000
-27.553021, -29.340987, 38.625000
-27.553021, -29.340987, 38.750000
-27.724158, -29.523229, 38.875000
-27.724158, -29.523229, 39.000000
-27.724158, -29.523229, 39.125000
-27.724158, -29.523229, 39.250000
-27.895295, -29.705472, 39.375000
-27.895295, -29.705472, 39.500000
-27.895295, -29.705472, 39.625000
-28.066431, -29.887714, 39.750000
-28.066431, -29.887714, 39.875000
-28.066431, -29.887714, 40.000000
-28.066431, -29.887714, 40.125000
-28.237568, -30.069956, 40.250000
-28.237568, -30.069956, 40.375000
-28.237568, -30.069956, 40.500000
-28.237568, -30.069956, 40.625000
-28.237568, -30.069956, 40.750000
-28.408705, -30.252198, 40.875000
-28.408705, -30.252198, 41.000000
-28.408705, -30.252198, 41.125000
-28.408705, -30.252198, 41.250000
-28.579842, -30.434440, 41.375000
-28.579842, -30.434440, 41.500000
-28.579842, -30.434440, 41.625000
-28.579842, -30.434440, 41.750000
-28.579842, -30.434440, 41.875000
-28.579842, -30.434440, 42.000000
-28.579842, -30.434440, 42.125000
-28.579842, -30.434440, 42.250000
-28.579842, -30.434440, 42.375000
-28.750978, -30.616682, 42.500000
-28.750978, -30.616682, 42.625000
-28.750978, -30.616682, 42.750000
-28.750978, -30.616682, 42.875000
-28.922115, -30.798925, 43.000000
-29.093252, -30.981167, 43.125000
-28.922115, -30.798925, 43.250000
-28.922115, -30.798925, 43.375000
-28.922115, -30.798925, 43.500000
-28.922115, -30.798925, 43.625000
-28.922115, -30.798925, 43.750000
-29.093252, -30.981167, 43.875000
-29.093252, -30.981167, 44.000000
-29.093252, -30.981167, 44.125000
-29.093252, -30.981167, 44.250000
-29.093252, -30.981167, 44.375000
-29.264389, -31.163409, 44.500000
-29.093252, -30.981167, 44.625000
-29.264389, -31.163409, 44.750000
-29.264389, -31.163409, 44.875000
-29.264389, -31.163409, 45.000000
-29.264389, -31.163409, 45.125000
-29.264389, -31.163409, 45.250000
-29.264389, -31.163409, 45.375000
-29.435526, -31.345651, 45.500000
-29.435526, -31.345651, 45.625000
-29.435526, -31.345651, 45.750000
-29.435526, -31.345651, 45.875000
-29.435526, -31.345651, 46.000000
-29.435526, -31.345651, 46.125000
-29.435526, -31.345651, 46.250000
-29.435526, -31.345651, 46.375000
-29.606662, -31.527893, 46.500000
-29.606662, -31.527893, 46.625000
-29.606662, -31.527893, 46.750000
-29.606662, -31.527893, 46.875000
-29.777799, -31.710135, 47.000000
-29.777799, -31.710135, 47.125000
-29.606662, -31.527893, 47.250000
-29.606662, -31.527893, 47.375000
-29.606662, -31.527893, 47.500000
-29.606662, -31.527893, 47.625000
-29.606662, -31.527893, 47.750000
-29.606662, -31.527893, 47.875000
-29.777799, -31.710135, 48.000000
-29.777799, -31.710135, 48.125000
-29.777799, -31.710135, 48.250000
-29.777799, -31.710135, 48.375000
-29.777799, -31.710135, 48.500000
-29.777799, -31.710135, 48.625000
-29.777799, -31.710135, 48.750000
-29.777799, -31.710135, 48.875000
-29.777799, -31.710135, 49.000000
-29.948936, -31.892377, 49.125000
-29.777799, -31.710135, 49.250000
-29.777799, -31.710135, 49.375000
-29.948936, -31.892377, 49.500000
-29.948936, -31.892377, 49.625000
-29.948936, -31.892377, 49.750000
-29.777799, -31.710135, 49.875000
-29.948936, -31.892377, 50.000000
-29.948936, -31.892377, 50.125000
-29.948936, -31.892377, 50.250000
-29.948936, -31.892377, 50.375000
-29.948936, -31.892377, 50.500000
-29.948936, -31.892377, 50.625000
-29.948936, -31.892377, 50.750000
-30.120073, -32.074620, 50.875000
-29.948936, -31.892377, 51.000000
-29.948936, -31.892377, 51.125000
-30.120073, -32.074620, 51.250000
-29.948936, -31.892377, 51.375000
-30.120073, -32.074620, 51.500000
-29.948936, -31.892377, 51.625000
-29.948936, -31.892377, 51.750000
-30.120073, -32.074620, 51.875000
-29.948936, -31.892377, 52.000000
-30.120073, -32.074620, 52.125000
-29.948936, -31.892377, 52.250000
-29.948936, -31.892377, 52.375000
-29.948936, -31.892377, 52.500000
-29.948936, -31.892377, 52.625000
-29.948936, -31.892377, 52.750000
-29.948936, -31.892377, 52.875000
-29.948936, -31.892377, 53.000000
-29.948936, -31.892377, 53.125000
-29.948936, -31.892377, 53.250000
-29.948936, -31.892377, 53.375000
-29.948936, -31.892377, 53.500000
-29.948936, -31.892377, 53.625000
-29.948936, -31.892377, 53.750000
-29.948936, -31.892377, 53.875000
-29.948936, -31.892377, 54.000000
-29.948936, -31.892377, 54.125000
-29.948936, -31.892377, 54.250000
-29.948936, -31.892377, 54.375000
-29.948936, -31.892377, 54.500000
-29.948936, -31.892377, 54.625000
-29.777799, -31.710135, 54.750000
-29.948936, -31.892377, 54.875000
-29.948936, -31.892377, 55.000000
-29.948936, -31.892377, 55.125000
-29.948936, -31.892377, 55.250000
-29.948936, -31.892377, 55.375000
-29.777799, -31.710135, 55.500000
-29.777799, -31.710135, 55.625000
-29.777799, -31.710135, 55.750000
-29.777799, -31.710135, 55.875000
-29.777799, -31.710135, 56.000000
-29.777799, -31.710135, 56.125000
-29.777799, -31.710135, 56.250000
-29.777799, -31.710135, 56.375000
-29.777799, -31.710135, 56.500000
-29.777799, -31.710135, 56.625000
-29.777799, -31.710135, 56.750000
-29.606662, -31.527893, 56.875000
-29.606662, -31.527893, 57.000000
-29.606662, -31.527893, 57.125000
-29.777799, -31.710135, 57.250000
-29.606662, -31.527893, 57.375000
-29.606662, -31.527893, 57.500000
-29.606662, -31.527893, 57.625000
-29.777799, -31.710135, 57.750000
-29.606662, -31.527893, 57.875000
-29.606662, -31.527893, 58.000000
-29.606662, -31.527893, 58.125000
-29.606662, -31.527893, 58.250000
-29.606662, -31.527893, 58.375000
-29.435526, -31.345651, 58.500000
-29.435526, -31.345651, 58.625000
-29.435526, -31.345651, 58.750000
-29.435526, -31.345651, 58.875000
-29.435526, -31.345651, 59.000000
-29.435526, -31.345651, 59.125000
-29.435526, -31.345651, 59.250000
-29.435526, -31.345651, 59.375000
-29.264389, -31.163409, 59.500000
-29.435526, -31.345651, 59.625000
-29.264389, -31.163409, 59.750000
-29.264389, -31.163409, 59.875000
-29.264389, -31.163409, 60.000000
-29.264389, -31.163409, 60.125000
-29.264389, -31.163409, 60.250000
-29.264389, -31.163409, 60.375000
-29.093252, -30.981167, 60.500000
-29.093252, -30.981167, 60.625000
-29.093252, -30.981167, 60.750000
-29.093252, -30.981167, 60.875000
-29.093252, -30.981167, 61.000000
-29.093252, -30.981167, 61.125000
-29.093252, -30.981167, 61.250000
-28.922115, -30.798925, 61.375000
-28.922115, -30.798925, 61.500000
-28.922115, -30.798925, 61.625000
-28.922115, -30.798925, 61.750000
-28.922115, -30.798925, 61.875000
-28.750978, -30.616682, 62.000000
-28.750978, -30.616682, 62.125000
-28.579842, -30.434440, 62.250000
-28.579842, -30.434440, 62.375000
-28.579842, -30.434440, 62.500000
-28.750978, -30.616682, 62.625000
-28.579842, -30.434440, 62.750000
-28.408705, -30.252198, 62.875000
-28.579842, -30.434440, 63.000000
-28.408705, -30.252198, 63.125000
-28.408705, -30.252198, 63.250000
-28.237568, -30.069956, 63.375000
-28.237568, -30.069956, 63.500000
-28.237568, -30.069956, 63.625000
-28.237568, -30.069956, 63.750000
-28.237568, -30.069956, 63.875000
-28.066431, -29.887714, 64.000000
-28.066431, -29.887714, 64.125000
-28.066431, -29.887714, 64.250000
-28.066431, -29.887714, 64.375000
-27.895295, -29.705472, 64.500000
-27.895295, -29.705472, 64.625000
-27.895295, -29.705472, 64.750000
-27.724158, -29.523229, 64.875000
-27.724158, -29.523229, 65.000000
-27.553021, -29.340987, 65.125000
-27.553021, -29.340987, 65.250000
-27.724158, -29.523229, 65.375000
-27.381884, -29.158745, 65.500000
-27.381884, -29.158745, 65.625000
-27.381884, -29.158745, 65.750000
-27.381884, -29.158745, 65.875000
-27.210747, -28.976503, 66.000000
-27.210747, -28.976503, 66.125000
-27.039611, -28.794261, 66.250000
-27.039611, -28.794261, 66.375000
-26.868474, -28.612019, 66.500000
-26.697337, -28.429776, 66.625000
-26.697337, -28.429776, 66.750000
-26.526200, -28.247534, 66.875000
-26.526200, -28.247534, 67.000000
-26.355064, -28.065292, 67.125000
-26.183927, -27.883050, 67.250000
-26.183927, -27.883050, 67.375000
-26.183927, -27.883050, 67.500000
-26.183927, -27.883050, 67.625000
-26.012790, -27.700808, 67.750000
-25.841653, -27.518566, 67.875000
-25.841653, -27.518566, 68.000000
-25.670516, -27.336324, 68.125000
-25.499380, -27.154081, 68.250000
-25.499380, -27.154081, 68.375000
-25.328243, -26.971839, 68.500000
-25.328243, -26.971839, 68.625000
-25.157106, -26.789597, 68.750000
-25.157106, -26.789597, 68.875000
-24.985969, -26.607355, 69.000000
-24.985969, -26.607355, 69.125000
-24.985969, -26.607355, 69.250000
-24.814833, -26.425113, 69.375000
-24.985969, -26.607355, 69.500000
-24.814833, -26.425113, 69.625000
-24.643696, -26.242871, 69.750000
-24.643696, -26.242871, 69.875000
-24.472559, -26.060628, 70.000000
-24.472559, -26.060628, 70.125000
-24.301422, -25.878386, 70.250000
-24.301422, -25.878386, 70.375000
-24.130285, -25.696144, 70.500000
-23.959149, -25.513902, 70.625000
-23.959149, -25.513902, 70.750000
-23.788012, -25.331660, 70.875000
-23.616875, -25.149418, 71.000000
-23.616875, -25.149418, 71.125000
-23.445738, -24.967175, 71.250000
-23.274602, -24.784933, 71.375000
-23.274602, -24.784933, 71.500000
-23.274602, -24.784933, 71.625000
-23.103465, -24.602691, 71.750000
-22.932328, -24.420449, 71.875000
-22.932328, -24.420449, 72.000000
-22.761191, -24.238207, 72.125000
-22.761191, -24.238207, 72.250000
-22.418918, -23.873723, 72.375000
-22.590054, -24.055965, 72.500000
-22.418918, -23.873723, 72.625000
-22.247781, -23.691480, 72.750000
-22.247781, -23.691480, 72.875000
-22.247781, -23.691480, 73.000000
-21.905507, -23.326996, 73.125000
-21.905507, -23.326996, 73.250000
-21.734371, -23.144754, 73.375000
-21.563234, -22.962512, 73.500000
-21.563234, -22.962512, 73.625000
-21.392097, -22.780270, 73.750000
-21.220960, -22.598027, 73.875000
-21.049824, -22.415785, 74.000000
-21.220960, -22.598027, 74.125000
-20.878687, -22.233543, 74.250000
-20.878687, -22.233543, 74.375000
-20.707550, -22.051301, 74.500000
-20.536413, -21.869059, 74.625000
-20.536413, -21.869059, 74.750000
-20.536413, -21.869059, 74.875000
-20.536413, -21.869059, 75.000000
-20.536413, -21.869059, 75.125000
-20.536413, -21.869059, 75.250000
-20.536413, -21.869059, 75.375000
-20.536413, -21.869059, 75.500000
-20.536413, -21.869059, 75.625000
-20.707550, -22.051301, 75.750000
-20.707550, -22.051301, 75.875000
-20.707550, -22.051301, 76.000000
-21.049824, -22.415785, 76.125000
-21.049824, -22.415785, 76.250000
-20.878687, -22.233543, 76.375000
-21.049824, -22.415785, 76.500000
-21.220960, -22.598027, 76.625000
-21.392097, -22.780270, 76.750000
-21.392097, -22.780270, 76.875000
-21.563234, -22.962512, 77.000000
-21.734371, -23.144754, 77.125000
-21.905507, -23.326996, 77.250000
-21.905507, -23.326996, 77.375000
-22.076644, -23.509238, 77.500000
-22.076644, -23.509238, 77.625000
-22.247781, -23.691480, 77.750000
-22.418918, -23.873723, 77.875000
-22.590054, -24.055965, 78.000000
-22.590054, -24.055965, 78.125000
-22.932328, -24.420449, 78.250000
-22.761191, -24.238207, 78.375000
-22.932328, -24.420449, 78.500000
-23.103465, -24.602691, 78.625000
-23.274602, -24.784933, 78.750000
-23.274602, -24.784933, 78.875000
-23.445738, -24.967175, 79.000000
-23.616875, -25.149418, 79.125000
-23.788012, -25.331660, 79.250000
-23.788012, -25.331660, 79.375000
-24.130285, -25.696144, 79.500000
-24.130285, -25.696144, 79.625000
-24.301422, -25.878386, 79.750000
-24.472559, -26.060628, 79.875000
-24.643696, -26.242871, 80.000000
-24.814833, -26.425113, 80.125000
-24.814833, -26.425113, 80.250000
-24.985969, -26.607355, 80.375000
-25.157106, -26.789597, 80.500000
-25.157106, -26.789597, 80.625000
-25.328243, -26.971839, 80.750000
-25.499380, -27.154081, 80.875000
-25.670516, -27.336324, 81.000000
-25.841653, -27.518566, 81.125000
-26.012790, -27.700808, 81.250000
-26.012790, -27.700808, 81.375000
-26.183927, -27.883050, 81.500000
-26.526200, -28.247534, 81.625000
-26.526200, -28.247534, 81.750000
-26.526200, -28.247534, 81.875000
-26.868474, -28.612019, 82.000000
-26.868474, -28.612019, 82.125000
-26.697337, -28.429776, 82.250000
-26.868474, -28.612019, 82.375000
-26.868474, -28.612019, 82.500000
-27.039611, -28.794261, 82.625000
-27.210747, -28.976503, 82.750000
-27.039611, -28.794261, 82.875000
-27.210747, -28.976503, 83.000000
-27.724158, -29.523229, 83.125000
-37.992364, -40.457759, 102.000000
-16.698125, -18.940305, 22.125000
-16.698125, -18.940305, 22.250000
-16.863453, -19.127832, 22.375000
-16.863453, -19.127832, 22.500000
-17.028781, -19.315360, 22.625000
-17.194108, -19.502888, 22.750000
-17.194108, -19.502888, 22.875000
-17.359436, -19.690416, 23.000000
-17.524764, -19.877943, 23.125000
-17.690092, -20.065471, 23.250000
-17.690092, -20.065471, 23.375000
-17.855420, -20.252999, 23.500000
-17.855420, -20.252999, 23.625000
-18.020748, -20.440527, 23.750000
-18.186076, -20.628054, 23.875000
-18.351404, -20.815582, 24.000000
-18.351404, -20.815582, 24.125000
-18.516732, -21.003110, 24.250000
-18.682060, -21.190638, 24.375000
-18.847388, -21.378165, 24.500000
-18.847388, -21.378165, 24.625000
-19.012716, -21.565693, 24.750000
-19.178044, -21.753221, 24.875000
-19.178044, -21.753221, 25.000000
-19.343372, -21.940749, 25.125000
-19.508700, -22.128277, 25.250000
-19.674028, -22.315804, 25.375000
-19.674028, -22.315804, 25.500000
-19.839356, -22.503332, 25.625000
-19.839356, -22.503332, 25.750000
-20.004684, -22.690860, 25.875000
-20.004684, -22.690860, 26.000000
-20.170012, -22.878388, 26.125000
-20.170012, -22.878388, 26.250000
-20.170012, -22.878388, 26.375000
-20.335340, -23.065915, 26.500000
-20.500668, -23.253443, 26.625000
-20.500668, -23.253443, 26.750000
-20.665996, -23.440971, 26.875000
-20.831324, -23.628499, 27.000000
-20.831324, -23.628499, 27.125000
-20.996652, -23.816026, 27.250000
-20.996652, -23.816026, 27.375000
-21.161980, -24.003554, 27.500000
-21.161980, -24.003554, 27.625000
-21.161980, -24.003554, 27.750000
-21.327308, -24.191082, 27.875000
-21.492636, -24.378610, 28.000000
-21.492636, -24.378610, 28.125000
-21.657964, -24.566138, 28.250000
-21.657964, -24.566138, 28.375000
-21.823292, -24.753665, 28.500000
-21.823292, -24.753665, 28.625000
-21.988620, -24.941193, 28.750000
-22.153947, -25.128721, 28.875000
-21.988620, -24.941193, 29.000000
-22.319275, -25.316249, 29.125000
-22.153947, -25.128721, 29.250000
-22.319275, -25.316249, 29.375000
-22.319275, -25.316249, 29.500000
-22.484603, -25.503776, 29.625000
-22.484603, -25.503776, 29.750000
-22.649931, -25.691304, 29.875000
-22.649931, -25.691304, 30.000000
-22.815259, -25.878832, 30.125000
-22.815259, -25.878832, 30.250000
-22.980587, -26.066360, 30.375000
-22.980587, -26.066360, 30.500000
-22.980587, -26.066360, 30.625000
-23.145915, -26.253887, 30.750000
-23.145915, -26.253887, 30.875000
-23.311243, -26.441415, 31.000000
-23.311243, -26.441415, 31.125000
-23.476571, -26.628943, 31.250000
-23.641899, -26.816471, 31.375000
-23.476571, -26.628943, 31.500000
-23.641899, -26.816471, 31.625000
-23.641899, -26.816471, 31.750000
-23.807227, -27.003999, 31.875000
-23.807227, -27.003999, 32.000000
-23.807227, -27.003999, 32.125000
-23.972555, -27.191526, 32.250000
-23.972555, -27.191526, 32.375000
-24.137883, -27.379054, 32.500000
-24.137883, -27.379054, 32.625000
-24.137883, -27.379054, 32.750000
-24.137883, -27.379054, 32.875000
-24.303211, -27.566582, 33.000000
-24.468539, -27.754110, 33.125000
-24.468539, -27.754110, 33.250000
-24.468539, -27.754110, 33.375000
-24.468539, -27.754110, 33.500000
