-4.608215, -48.749827, 42.250000
-4.608215, -48.749827, 42.375000
-4.608215, -48.749827, 42.500000
-4.608215, -48.749827, 42.625000
-4.608215, -48.749827, 42.750000
-4.608215, -48.749827, 42.875000
-4.608215, -48.749827, 43.000000
-4.608215, -48.749827, 43.125000
-4.608215, -48.749827, 43.250000
-4.608215, -48.749827, 43.375000
-4.608215, -48.749827, 43.500000
-4.608215, -48.749827, 43.625000
-4.608215, -48.749827, 43.750000
-4.608215, -48.749827, 43.875000
-4.608215, -48.749827, 44.000000
-4.608215, -48.749827, 44.125000
-4.591579, -48.573835, 44.250000
-4.608215, -48.749827, 44.375000
-4.591579, -48.573835, 44.500000
-4.591579, -48.573835, 44.625000
-4.591579, -48.573835, 44.750000
-4.591579, -48.573835, 44.875000
-4.591579, -48.573835, 45.000000
-4.591579, -48.573835, 45.125000
-4.591579, -48.573835, 45.250000
-4.591579, -48.573835, 45.375000
-4.591579, -48.573835, 45.500000
-4.591579, -48.573835, 45.625000
-4.591579, -48.573835, 45.750000
-4.591579, -48.573835, 45.875000
-4.591579, -48.573835, 46.000000
-4.591579, -48.573835, 46.125000
-4.591579, -48.573835, 46.250000
-4.574943, -48.397842, 46.375000
-4.574943, -48.397842, 46.500000
-4.574943, -48.397842, 46.625000
-4.591579, -48.573835, 46.750000
-4.574943, -48.397842, 46.875000
-4.558307, -48.221850, 47.000000
-4.558307, -48.221850, 47.125000
-4.558307, -48.221850, 47.250000
-4.558307, -48.221850, 47.375000
-4.558307, -48.221850, 47.500000
-4.558307, -48.221850, 47.625000
-4.558307, -48.221850, 47.750000
-4.558307, -48.221850, 47.875000
-4.558307, -48.221850, 48.000000
-4.541671, -48.045858, 48.125000
-4.541671, -48.045858, 48.250000
-4.541671, -48.045858, 48.375000
-4.525035, -47.869866, 48.500000
-4.541671, -48.045858, 48.625000
-4.541671, -48.045858, 48.750000
-4.541671, -48.045858, 48.875000
-4.525035, -47.869866, 49.000000
-4.525035, -47.869866, 49.125000
-4.525035, -47.869866, 49.250000
-4.525035, -47.869866, 49.375000
-4.525035, -47.869866, 49.500000
-4.525035, -47.869866, 49.625000
-4.525035, -47.869866, 49.750000
-4.508398, -47.693874, 49.875000
-4.508398, -47.693874, 50.000000
-4.508398, -47.693874, 50.125000
-4.508398, -47.693874, 50.250000
-4.508398, -47.693874, 50.375000
-4.491762, -47.517882, 50.500000
-4.491762, -47.517882, 50.625000
-4.491762, -47.517882, 50.750000
-4.491762, -47.517882, 50.875000
-4.491762, -47.517882, 51.000000
-4.475126, -47.341889, 51.125000
-4.475126, -47.341889, 51.250000
-4.475126, -47.341889, 51.375000
-4.475126, -47.341889, 51.500000
-4.475126, -47.341889, 51.625000
-4.458490, -47.165897, 51.750000
-4.458490, -47.165897, 51.875000
-4.458490, -47.165897, 52.000000
-4.441854, -46.989905, 52.125000
-4.458490, -47.165897, 52.250000
-4.441854, -46.989905, 52.375000
-4.441854, -46.989905, 52.500000
-4.441854, -46.989905, 52.625000
-4.441854, -46.989905, 52.750000
-4.425218, -46.813913, 52.875000
-4.425218, -46.813913, 53.000000
-4.408582, -46.637921, 53.125000
-4.408582, -46.637921, 53.250000
-4.408582, -46.637921, 53.375000
-4.408582, -46.637921, 53.500000
-4.408582, -46.637921, 53.625000
-4.391945, -46.461929, 53.750000
-4.391945, -46.461929, 53.875000
-4.391945, -46.461929, 54.000000
-4.375309, -46.285937, 54.125000
-4.375309, -46.285937, 54.250000
-4.375309, -46.285937, 54.375000
-4.358673, -46.109944, 54.500000
-4.358673, -46.109944, 54.625000
-4.358673, -46.109944, 54.750000
-4.358673, -46.109944, 54.875000
-4.342037, -45.933952, 55.000000
-4.342037, -45.933952, 55.125000
-4.325401, -45.757960, 55.250000
-4.325401, -45.757960, 55.375000
-4.325401, -45.757960, 55.500000
-4.325401, -45.757960, 55.625000
-4.325401, -45.757960, 55.750000
-4.308765, -45.581968, 55.875000
-4.308765, -45.581968, 56.000000
-4.292128, -45.405976, 56.125000
-4.292128, -45.405976, 56.250000
-4.292128, -45.405976, 56.375000
-4.292128, -45.405976, 56.500000
-4.275492, -45.229984, 56.625000
-4.275492, -45.229984, 56.750000
-4.258856, -45.053991, 56.875000
-4.258856, -45.053991, 57.000000
-4.258856, -45.053991, 57.125000
-4.242220, -44.877999, 57.250000
-4.242220, -44.877999, 57.375000
-4.225584, -44.702007, 57.500000
-4.225584, -44.702007, 57.625000
-4.208948, -44.526015, 57.750000
-4.208948, -44.526015, 57.875000
-4.208948, -44.526015, 58.000000
-4.192311, -44.350023, 58.125000
-4.192311, -44.350023, 58.250000
-4.192311, -44.350023, 58.375000
-4.192311, -44.350023, 58.500000
-4.175675, -44.174031, 58.625000
-4.159039, -43.998039, 58.750000
-4.159039, -43.998039, 58.875000
-4.159039, -43.998039, 59.000000
-4.142403, -43.822046, 59.125000
-4.142403, -43.822046, 59.250000
-4.125767, -43.646054, 59.375000
-4.125767, -43.646054, 59.500000
-4.125767, -43.646054, 59.625000
-4.109131, -43.470062, 59.750000
-4.109131, -43.470062, 59.875000
-4.092495, -43.294070, 60.000000
-4.092495, -43.294070, 60.125000
-4.075858, -43.118078, 60.250000
-4.075858, -43.118078, 60.375000
-4.059222, -42.942086, 60.500000
-4.042586, -42.766093, 60.625000
-4.042586, -42.766093, 60.750000
-4.025950, -42.590101, 60.875000
-4.025950, -42.590101, 61.000000
-4.009314, -42.414109, 61.125000
-4.009314, -42.414109, 61.250000
-3.992678, -42.238117, 61.375000
-3.992678, -42.238117, 61.500000
-3.976041, -42.062125, 61.625000
-3.976041, -42.062125, 61.750000
-3.976041, -42.062125, 61.875000
-3.942769, -41.710141, 62.000000
-3.942769, -41.710141, 62.125000
-3.926133, -41.534148, 62.250000
-3.926133, -41.534148, 62.375000
-3.909497, -41.358156, 62.500000
-3.909497, -41.358156, 62.625000
-3.909497, -41.358156, 62.750000
-3.876224, -41.006172, 62.875000
-3.859588, -40.830180, 63.000000
-3.859588, -40.830180, 63.125000
-3.859588, -40.830180, 63.250000
-3.842952, -40.654188, 63.375000
-3.826316, -40.478195, 63.500000
-3.826316, -40.478195, 63.625000
-3.809680, -40.302203, 63.750000
-3.793044, -40.126211, 63.875000
-3.793044, -40.126211, 64.000000
-3.759771, -39.774227, 64.125000
-3.759771, -39.774227, 64.250000
-3.759771, -39.774227, 64.375000
-3.743135, -39.598235, 64.500000
-3.726499, -39.422243, 64.625000
-3.709863, -39.246250, 64.750000
-3.693227, -39.070258, 64.875000
-3.659954, -38.718274, 65.000000
-3.659954, -38.718274, 65.125000
-3.643318, -38.542282, 65.250000
-3.626682, -38.366290, 65.375000
-3.626682, -38.366290, 65.500000
-3.626682, -38.366290, 65.625000
-3.593410, -38.014305, 65.750000
-3.560138, -37.662321, 65.875000
-3.576774, -37.838313, 66.000000
-3.560138, -37.662321, 66.125000
-3.493593, -36.958352, 66.250000
-3.327231, -35.198431, 67.125000
-3.327231, -35.198431, 67.250000
-3.310595, -35.022439, 67.375000
-3.277323, -34.670454, 67.500000
-3.277323, -34.670454, 67.625000
-3.260687, -34.494462, 67.750000
-3.260687, -34.494462, 67.875000
-3.260687, -34.494462, 68.000000
-3.244051, -34.318470, 68.125000
-3.227414, -34.142478, 68.250000
-3.227414, -34.142478, 68.375000
-3.194142, -33.790494, 68.500000
-3.177506, -33.614501, 68.625000
-3.177506, -33.614501, 68.750000
-3.160870, -33.438509, 68.875000
-3.110961, -32.910533, 69.000000
-3.094325, -32.734541, 69.125000
-3.077689, -32.558549, 69.250000
-3.061053, -32.382556, 69.375000
-3.044417, -32.206564, 69.500000
-3.027781, -32.030572, 69.625000
-3.011144, -31.854580, 69.750000
-2.994508, -31.678588, 69.875000
-2.994508, -31.678588, 70.000000
-2.961236, -31.326603, 70.125000
-2.944600, -31.150611, 70.250000
-2.927964, -30.974619, 70.375000
-2.927964, -30.974619, 70.500000
-2.894691, -30.622635, 70.625000
-2.894691, -30.622635, 70.750000
-2.861419, -30.270650, 70.875000
-2.861419, -30.270650, 71.000000
-2.844783, -30.094658, 71.125000
-2.828147, -29.918666, 71.250000
-2.794874, -29.566682, 71.375000
-2.794874, -29.566682, 71.500000
-2.811510, -29.742674, 71.625000
-2.778238, -29.390690, 71.750000
-2.778238, -29.390690, 71.875000
-2.778238, -29.390690, 72.000000
-2.778238, -29.390690, 72.125000
-2.778238, -29.390690, 72.250000
-2.778238, -29.390690, 72.375000
-2.794874, -29.566682, 72.500000
-2.794874, -29.566682, 72.625000
-2.811510, -29.742674, 72.750000
-2.828147, -29.918666, 72.875000
-2.828147, -29.918666, 73.000000
-2.828147, -29.918666, 73.125000
-2.844783, -30.094658, 73.250000
-2.844783, -30.094658, 73.375000
-2.861419, -30.270650, 73.500000
-2.878055, -30.446643, 73.625000
-2.894691, -30.622635, 73.750000
-2.911327, -30.798627, 73.875000
-2.927964, -30.974619, 74.000000
-2.927964, -30.974619, 74.125000
-2.944600, -31.150611, 74.250000
-2.961236, -31.326603, 74.375000
-2.994508, -31.678588, 74.500000
-2.994508, -31.678588, 74.625000
-3.027781, -32.030572, 74.750000
-3.011144, -31.854580, 74.875000
-3.044417, -32.206564, 75.000000
-3.044417, -32.206564, 75.125000
-3.061053, -32.382556, 75.250000
-3.077689, -32.558549, 75.375000
-3.094325, -32.734541, 75.500000
-3.127597, -33.086525, 75.625000
-3.127597, -33.086525, 75.750000
-3.144234, -33.262517, 75.875000
-3.160870, -33.438509, 76.000000
-3.177506, -33.614501, 76.125000
-3.177506, -33.614501, 76.250000
-3.210778, -33.966486, 76.375000
-3.227414, -34.142478, 76.500000
-3.227414, -34.142478, 76.625000
-3.244051, -34.318470, 76.750000
-3.260687, -34.494462, 76.875000
-3.293959, -34.846447, 77.000000
-3.310595, -35.022439, 77.125000
-3.310595, -35.022439, 77.250000
-3.327231, -35.198431, 77.375000
-3.360504, -35.550415, 77.500000
-3.360504, -35.550415, 77.625000
-3.393776, -35.902399, 77.750000
-3.410412, -36.078392, 77.875000
-3.427048, -36.254384, 78.000000
-3.427048, -36.254384, 78.125000
-3.443684, -36.430376, 78.250000
-3.460321, -36.606368, 78.375000
-3.476957, -36.782360, 78.500000
-3.493593, -36.958352, 78.625000
-3.493593, -36.958352, 78.750000
-3.510229, -37.134345, 78.875000
-3.543501, -37.486329, 79.000000
-3.510229, -37.134345, 79.125000
-3.526865, -37.310337, 79.250000
-3.526865, -37.310337, 79.375000
-3.543501, -37.486329, 79.500000
-3.543501, -37.486329, 79.625000
-3.560138, -37.662321, 79.750000
-3.543501, -37.486329, 79.875000
-2.586277, -41.107693, 22.500000
-2.586277, -41.107693, 22.625000
-2.575177, -40.931265, 22.750000
-2.575177, -40.931265, 22.875000
-2.586277, -41.107693, 23.000000
-2.586277, -41.107693, 23.125000
-2.597377, -41.284121, 23.250000
-2.608477, -41.460549, 23.375000
-2.608477, -41.460549, 23.500000
-2.619577, -41.636977, 23.625000
-2.619577, -41.636977, 23.750000
-2.630676, -41.813404, 23.875000
-2.641776, -41.989832, 24.000000
-2.641776, -41.989832, 24.125000
-2.652876, -42.166260, 24.250000
-2.652876, -42.166260, 24.375000
-2.675076, -42.519116, 24.500000
-2.675076, -42.519116, 24.625000
-2.675076, -42.519116, 24.750000
-2.675076, -42.519116, 24.875000
-2.686176, -42.695544, 25.000000
-2.686176, -42.695544, 25.125000
-2.697276, -42.871972, 25.250000
-2.708376, -43.048400, 25.375000
-2.719476, -43.224827, 25.500000
-2.719476, -43.224827, 25.625000
-2.719476, -43.224827, 25.750000
-2.719476, -43.224827, 25.875000
-2.730576, -43.401255, 26.000000
-2.730576, -43.401255, 26.125000
-2.741675, -43.577683, 26.250000
-2.752775, -43.754111, 26.375000
-2.752775, -43.754111, 26.500000
-2.752775, -43.754111, 26.625000
-2.774975, -44.106967, 26.750000
-2.786075, -44.283395, 26.875000
-2.774975, -44.106967, 27.000000
-2.774975, -44.106967, 27.125000
-2.774975, -44.106967, 27.250000
-2.797175, -44.459822, 27.375000
-2.786075, -44.283395, 27.500000
-2.797175, -44.459822, 27.625000
-2.808275, -44.636250, 27.750000
-2.808275, -44.636250, 27.875000
-2.819375, -44.812678, 28.000000
-2.819375, -44.812678, 28.125000
-2.819375, -44.812678, 28.250000
-2.830475, -44.989106, 28.375000
-2.830475, -44.989106, 28.500000
-2.830475, -44.989106, 28.625000
-2.841575, -45.165534, 28.750000
-2.841575, -45.165534, 28.875000
-2.841575, -45.165534, 29.000000
-2.852674, -45.341962, 29.125000
-2.852674, -45.341962, 29.250000
-2.852674, -45.341962, 29.375000
-2.863774, -45.518390, 29.500000
-2.863774, -45.518390, 29.625000
-2.874874, -45.694818, 29.750000
-2.874874, -45.694818, 29.875000
-2.874874, -45.694818, 30.000000
-2.885974, -45.871245, 30.125000
-2.885974, -45.871245, 30.250000
-2.885974, -45.871245, 30.375000
-2.897074, -46.047673, 30.500000
-2.897074, -46.047673, 30.625000
-2.897074, -46.047673, 30.750000
-2.908174, -46.224101, 30.875000
-2.908174, -46.224101, 31.000000
-2.908174, -46.224101, 31.125000
-2.919274, -46.400529, 31.250000
-2.919274, -46.400529, 31.375000
-2.919274, -46.400529, 31.500000
-2.919274, -46.400529, 31.625000
-2.930374, -46.576957, 31.750000
-2.930374, -46.576957, 31.875000
-2.930374, -46.576957, 32.000000
-2.930374, -46.576957, 32.125000
-2.941474, -46.753385, 32.250000
-2.941474, -46.753385, 32.375000
-2.941474, -46.753385, 32.500000
-2.952574, -46.929813, 32.625000
-2.952574, -46.929813, 32.750000
-2.952574, -46.929813, 32.875000
-2.952574, -46.929813, 33.000000
-2.974773, -47.282668, 33.125000
-2.963673, -47.106240, 33.250000
-2.963673, -47.106240, 33.375000
-2.963673, -47.106240, 33.500000
-2.974773, -47.282668, 33.625000
-2.974773, -47.282668, 33.750000
-2.985873, -47.459096, 33.875000
-2.974773, -47.282668, 34.000000
-2.974773, -47.282668, 34.125000
-2.985873, -47.459096, 34.250000
-2.985873, -47.459096, 34.375000
-2.985873, -47.459096, 34.500000
-2.985873, -47.459096, 34.625000
-2.996973, -47.635524, 34.750000
-2.996973, -47.635524, 34.875000
-2.996973, -47.635524, 35.000000
-2.996973, -47.635524, 35.125000
-2.996973, -47.635524, 35.250000
-2.996973, -47.635524, 35.375000
-2.996973, -47.635524, 35.500000
-3.019173, -47.988380, 35.625000
-3.008073, -47.811952, 35.750000
-3.008073, -47.811952, 35.875000
-3.008073, -47.811952, 36.000000
-3.008073, -47.811952, 36.125000
-3.008073, -47.811952, 36.250000
-3.019173, -47.988380, 36.375000
-3.019173, -47.988380, 36.500000
-3.019173, -47.988380, 36.625000
-3.019173, -47.988380, 36.750000
-3.030273, -48.164808, 36.875000
-3.030273, -48.164808, 37.000000
-3.030273, -48.164808, 37.125000
-3.030273, -48.164808, 37.250000
-3.030273, -48.164808, 37.375000
-3.030273, -48.164808, 37.500000
-3.030273, -48.164808, 37.625000
-3.030273, -48.164808, 37.750000
-3.030273, -48.164808, 37.875000
-3.030273, -48.164808, 38.000000
-3.041373, -48.341236, 38.125000
-3.041373, -48.341236, 38.250000
-3.041373, -48.341236, 38.375000
-3.041373, -48.341236, 38.500000
-3.041373, -48.341236, 38.625000
-3.041373, -48.341236, 38.750000
-3.041373, -48.341236, 38.875000
-3.041373, -48.341236, 39.000000
-3.041373, -48.341236, 39.125000
-3.041373, -48.341236, 39.250000
-3.052473, -48.517663, 39.375000
-3.041373, -48.341236, 39.500000
-3.052473, -48.517663, 39.625000
-3.052473, -48.517663, 39.750000
-3.052473, -48.517663, 39.875000
-3.052473, -48.517663, 40.000000
-3.052473, -48.517663, 40.125000
-3.052473, -48.517663, 40.250000
-3.052473, -48.517663, 40.375000
-3.052473, -48.517663, 40.500000
-3.052473, -48.517663, 40.625000
-3.052473, -48.517663, 40.750000
-3.052473, -48.517663, 40.875000
-3.052473, -48.517663, 41.000000
-3.052473, -48.517663, 41.125000
-3.052473, -48.517663, 41.250000
-3.052473, -48.517663, 41.375000
-3.052473, -48.517663, 41.500000
-3.052473, -48.517663, 41.625000
-3.052473, -48.517663, 41.750000
-3.052473, -48.517663, 41.875000
-3.052473, -48.517663, 42.000000
-3.063573, -48.694091, 42.125000
-3.063573, -48.694091, 42.250000
-3.063573, -48.694091, 42.375000
-3.052473, -48.517663, 42.500000
-3.052473, -48.517663, 42.625000
-3.052473, -48.517663, 42.750000
-3.052473, -48.517663, 42.875000
-3.052473, -48.517663, 43.000000
-3.052473, -48.517663, 43.125000
-3.063573, -48.694091, 43.250000
-3.063573, -48.694091, 43.375000
-3.052473, -48.517663, 43.500000
-3.052473, -48.517663, 43.625000
-3.052473, -48.517663, 43.750000
-3.052473, -48.517663, 43.875000
-3.052473, -48.517663, 44.000000
-3.063573, -48.694091, 44.125000
-3.052473, -48.517663, 44.250000
-3.052473, -48.517663, 44.375000
-3.052473, -48.517663, 44.500000
-3.052473, -48.517663, 44.625000
-3.052473, -48.517663, 44.750000
-3.052473, -48.517663, 44.875000
-3.052473, -48.517663, 45.000000
-3.052473, -48.517663, 45.125000
-3.052473, -48.517663, 45.250000
-3.041373, -48.341236, 45.375000
-3.041373, -48.341236, 45.500000
-3.041373, -48.341236, 45.625000
-3.041373, -48.341236, 45.750000
-3.041373, -48.341236, 45.875000
-3.041373, -48.341236, 46.000000
-3.041373, -48.341236, 46.125000
-3.041373, -48.341236, 46.250000
-3.041373, -48.341236, 46.375000
-3.041373, -48.341236, 46.500000
-3.030273, -48.164808, 46.625000
-3.030273, -48.164808, 46.750000
-3.030273, -48.164808, 46.875000
-3.030273, -48.164808, 47.000000
-3.030273, -48.164808, 47.125000
-3.030273, -48.164808, 47.250000
-3.030273, -48.164808, 47.375000
-3.030273, -48.164808, 47.500000
-3.030273, -48.164808, 47.625000
-3.030273, -48.164808, 47.750000
-3.030273, -48.164808, 47.875000
-3.019173, -47.988380, 48.000000
-3.019173, -47.988380, 48.125000
-3.008073, -47.811952, 48.250000
-3.008073, -47.811952, 48.375000
-3.019173, -47.988380, 48.500000
-3.019173, -47.988380, 48.625000
-3.019173, -47.988380, 48.750000
-3.008073, -47.811952, 48.875000
-3.008073, -47.811952, 49.000000
-3.008073, -47.811952, 49.125000
-3.008073, -47.811952, 49.250000
-3.008073, -47.811952, 49.375000
-2.996973, -47.635524, 49.500000
-2.996973, -47.635524, 49.625000
-2.996973, -47.635524, 49.750000
-2.996973, -47.635524, 49.875000
-2.996973, -47.635524, 50.000000
-2.996973, -47.635524, 50.125000
-2.996973, -47.635524, 50.250000
-2.985873, -47.459096, 50.375000
-2.985873, -47.459096, 50.500000
-2.985873, -47.459096, 50.625000
-2.985873, -47.459096, 50.750000
-2.985873, -47.459096, 50.875000
-2.974773, -47.282668, 51.000000
-2.974773, -47.282668, 51.125000
-2.974773, -47.282668, 51.250000
-2.974773, -47.282668, 51.375000
-2.974773, -47.282668, 51.500000
-2.963673, -47.106240, 51.625000
-2.963673, -47.106240, 51.750000
-2.963673, -47.106240, 51.875000
-2.963673, -47.106240, 52.000000
-2.952574, -46.929813, 52.125000
-2.952574, -46.929813, 52.250000
-2.952574, -46.929813, 52.375000
-2.952574, -46.929813, 52.500000
-2.941474, -46.753385, 52.625000
-2.941474, -46.753385, 52.750000
-2.941474, -46.753385, 52.875000
-2.941474, -46.753385, 53.000000
-2.941474, -46.753385, 53.125000
-2.930374, -46.576957, 53.250000
-2.930374, -46.576957, 53.375000
-2.930374, -46.576957, 53.500000
-2.919274, -46.400529, 53.625000
-2.919274, -46.400529, 53.750000
-2.919274, -46.400529, 53.875000
-2.908174, -46.224101, 54.000000
-2.908174, -46.224101, 54.125000
-2.919274, -46.400529, 54.250000
-2.897074, -46.047673, 54.375000
-2.897074, -46.047673, 54.500000
-2.908174, -46.224101, 54.625000
-2.897074, -46.047673, 54.750000
-2.885974, -45.871245, 54.875000
-2.885974, -45.871245, 55.000000
-2.885974, -45.871245, 55.125000
-2.885974, -45.871245, 55.250000
-2.874874, -45.694818, 55.375000
-2.874874, -45.694818, 55.500000
-2.874874, -45.694818, 55.625000
-2.874874, -45.694818, 55.750000
-2.863774, -45.518390, 55.875000
-2.863774, -45.518390, 56.000000
-2.852674, -45.341962, 56.125000
-2.852674, -45.341962, 56.250000
-2.852674, -45.341962, 56.375000
-2.852674, -45.341962, 56.500000
-2.841575, -45.165534, 56.625000
-2.841575, -45.165534, 56.750000
-2.841575, -45.165534, 56.875000
-2.830475, -44.989106, 57.000000
-2.819375, -44.812678, 57.125000
-2.819375, -44.812678, 57.250000
-2.819375, -44.812678, 57.375000
-2.819375, -44.812678, 57.500000
-2.808275, -44.636250, 57.625000
-2.797175, -44.459822, 57.750000
-2.808275, -44.636250, 57.875000
-2.797175, -44.459822, 58.000000
-2.786075, -44.283395, 58.125000
-2.786075, -44.283395, 58.250000
-2.786075, -44.283395, 58.375000
-2.786075, -44.283395, 58.500000
-2.774975, -44.106967, 58.625000
-2.763875, -43.930539, 58.750000
-2.774975, -44.106967, 58.875000
-2.752775, -43.754111, 59.000000
-2.752775, -43.754111, 59.125000
-2.741675, -43.577683, 59.250000
-2.741675, -43.577683, 59.375000
-2.730576, -43.401255, 59.500000
-2.730576, -43.401255, 59.625000
-2.719476, -43.224827, 59.750000
-2.719476, -43.224827, 59.875000
-2.708376, -43.048400, 60.000000
-2.708376, -43.048400, 60.125000
-2.708376, -43.048400, 60.250000
-2.697276, -42.871972, 60.375000
-2.697276, -42.871972, 60.500000
-2.697276, -42.871972, 60.625000
-2.686176, -42.695544, 60.750000
-2.675076, -42.519116, 60.875000
-2.663976, -42.342688, 61.000000
-2.663976, -42.342688, 61.125000
-2.652876, -42.166260, 61.250000
-2.652876, -42.166260, 61.375000
-2.641776, -41.989832, 61.500000
-2.641776, -41.989832, 61.625000
-2.630676, -41.813404, 61.750000
-2.630676, -41.813404, 61.875000
-2.619577, -41.636977, 62.000000
-2.619577, -41.636977, 62.125000
-2.608477, -41.460549, 62.250000
-2.608477, -41.460549, 62.375000
-2.597377, -41.284121, 62.500000
-2.586277, -41.107693, 62.625000
-2.586277, -41.107693, 62.750000
-2.575177, -40.931265, 62.875000
-2.575177, -40.931265, 63.000000
-2.564077, -40.754837, 63.125000
-2.552977, -40.578409, 63.250000
-2.552977, -40.578409, 63.375000
-2.541877, -40.401982, 63.500000
-2.530777, -40.225554, 63.625000
-2.519677, -40.049126, 63.750000
-2.519677, -40.049126, 63.875000
-2.508578, -39.872698, 64.000000
-2.497478, -39.696270, 64.125000
-2.486378, -39.519842, 64.250000
-2.475278, -39.343414, 64.375000
-2.475278, -39.343414, 64.500000
-2.464178, -39.166986, 64.625000
-2.453078, -38.990559, 64.750000
-2.441978, -38.814131, 64.875000
-2.430878, -38.637703, 65.000000
-2.419778, -38.461275, 65.125000
-2.408678, -38.284847, 65.250000
-2.419778, -38.461275, 65.375000
-2.397579, -38.108419, 65.500000
-2.397579, -38.108419, 65.625000
-2.386479, -37.931991, 65.750000
-2.375379, -37.755564, 65.875000
-2.375379, -37.755564, 66.000000
-2.375379, -37.755564, 66.125000
-2.342079, -37.226280, 66.250000
-2.364279, -37.579136, 66.375000
-2.208880, -35.109146, 67.000000
-2.197780, -34.932718, 67.125000
-2.197780, -34.932718, 67.250000
-2.197780, -34.932718, 67.375000
-2.197780, -34.932718, 67.500000
-2.175581, -34.579862, 67.625000
-2.175581, -34.579862, 67.750000
-2.164481, -34.403434, 67.875000
-2.153381, -34.227006, 68.000000
-2.142281, -34.050578, 68.125000
-2.142281, -34.050578, 68.250000
-2.131181, -33.874150, 68.375000
-2.108981, -33.521295, 68.500000
-2.108981, -33.521295, 68.625000
-2.097881, -33.344867, 68.750000
-2.086781, -33.168439, 68.875000
-2.064582, -32.815583, 69.000000
-2.053482, -32.639155, 69.125000
-2.053482, -32.639155, 69.250000
-2.031282, -32.286300, 69.375000
-2.020182, -32.109872, 69.500000
-1.997982, -31.757016, 69.625000
-1.997982, -31.757016, 69.750000
-1.975782, -31.404160, 69.875000
-1.964682, -31.227732, 70.000000
-1.964682, -31.227732, 70.125000
-1.964682, -31.227732, 70.250000
-1.942483, -30.874877, 70.375000
-1.920283, -30.522021, 70.500000
-1.920283, -30.522021, 70.625000
-1.909183, -30.345593, 70.750000
-1.898083, -30.169165, 70.875000
-1.886983, -29.992737, 71.000000
-1.875883, -29.816310, 71.125000
-1.875883, -29.816310, 71.250000
-1.864783, -29.639882, 71.375000
-1.853683, -29.463454, 71.500000
-1.842583, -29.287026, 71.625000
-1.842583, -29.287026, 71.750000
-1.842583, -29.287026, 71.875000
-1.842583, -29.287026, 72.000000
-1.842583, -29.287026, 72.125000
-1.842583, -29.287026, 72.250000
-1.853683, -29.463454, 72.375000
-1.853683, -29.463454, 72.500000
-1.853683, -29.463454, 72.625000
-1.864783, -29.639882, 72.750000
-1.864783, -29.639882, 72.875000
-1.875883, -29.816310, 73.000000
-1.898083, -30.169165, 73.125000
-1.886983, -29.992737, 73.250000
-1.898083, -30.169165, 73.375000
-1.909183, -30.345593, 73.500000
-1.931383, -30.698449, 73.625000
-1.920283, -30.522021, 73.750000
-1.931383, -30.698449, 73.875000
-1.942483, -30.874877, 74.000000
-1.964682, -31.227732, 74.125000
-1.964682, -31.227732, 74.250000
-1.975782, -31.404160, 74.375000
-1.997982, -31.757016, 74.500000
-1.986882, -31.580588, 74.625000
-2.020182, -32.109872, 74.750000
-2.009082, -31.933444, 74.875000
-2.020182, -32.109872, 75.000000
-2.031282, -32.286300, 75.125000
-2.042382, -32.462728, 75.250000
-2.053482, -32.639155, 75.375000
-2.064582, -32.815583, 75.500000
-2.064582, -32.815583, 75.625000
-2.075681, -32.992011, 75.750000
-2.086781, -33.168439, 75.875000
-2.097881, -33.344867, 76.000000
-2.108981, -33.521295, 76.125000
-2.120081, -33.697723, 76.250000
-2.131181, -33.874150, 76.375000
-2.142281, -34.050578, 76.500000
-2.153381, -34.227006, 76.625000
-2.164481, -34.403434, 76.750000
-2.175581, -34.579862, 76.875000
-2.186680, -34.756290, 77.000000
-2.197780, -34.932718, 77.125000
-2.208880, -35.109146, 77.250000
-2.219980, -35.285573, 77.375000
-2.231080, -35.462001, 77.500000
-2.242180, -35.638429, 77.625000
-2.253280, -35.814857, 77.750000
-2.264380, -35.991285, 77.875000
-2.275480, -36.167713, 78.000000
-2.297679, -36.520568, 78.125000
-2.297679, -36.520568, 78.250000
-2.297679, -36.520568, 78.375000
-2.308779, -36.696996, 78.500000
-2.319879, -36.873424, 78.625000
-2.330979, -37.049852, 78.750000
-2.330979, -37.049852, 78.875000
-2.342079, -37.226280, 79.000000
-2.342079, -37.226280, 79.125000
-2.353179, -37.402708, 79.250000
-2.342079, -37.226280, 79.375000
-2.353179, -37.402708, 79.500000
-2.364279, -37.579136, 79.625000
-2.353179, -37.402708, 79.750000
-2.364279, -37.579136, 79.875000
-1.254908, -39.931819, 22.250000
-1.277119, -40.638577, 22.500000
-1.282671, -40.815267, 22.625000
-1.288224, -40.991956, 22.750000
-1.288224, -40.991956, 22.875000
-1.293777, -41.168646, 23.000000
-1.293777, -41.168646, 23.125000
-1.293777, -41.168646, 23.250000
-1.304882, -41.522025, 23.375000
-1.304882, -41.522025, 23.500000
-1.304882, -41.522025, 23.625000
-1.310435, -41.698714, 23.750000
-1.315988, -41.875404, 23.875000
-1.315988, -41.875404, 24.000000
-1.321540, -42.052093, 24.125000
-1.321540, -42.052093, 24.250000
-1.327093, -42.228783, 24.375000
-1.327093, -42.228783, 24.500000
-1.332646, -42.405472, 24.625000
-1.332646, -42.405472, 24.750000
-1.332646, -42.405472, 24.875000
-1.343751, -42.758851, 25.000000
-1.343751, -42.758851, 25.125000
-1.343751, -42.758851, 25.250000
-1.349304, -42.935540, 25.375000
-1.354856, -43.112230, 25.500000
-1.354856, -43.112230, 25.625000
-1.360409, -43.288919, 25.750000
-1.360409, -43.288919, 25.875000
-1.360409, -43.288919, 26.000000
-1.365962, -43.465609, 26.125000
-1.371514, -43.642298, 26.250000
-1.371514, -43.642298, 26.375000
-1.371514, -43.642298, 26.500000
-1.371514, -43.642298, 26.625000
-1.377067, -43.818988, 26.750000
-1.382620, -43.995677, 26.875000
-1.382620, -43.995677, 27.000000
-1.388173, -44.172367, 27.125000
-1.388173, -44.172367, 27.250000
-1.388173, -44.172367, 27.375000
-1.393725, -44.349056, 27.500000
-1.393725, -44.349056, 27.625000
-1.399278, -44.525746, 27.750000
-1.399278, -44.525746, 27.875000
-1.410383, -44.879125, 28.000000
-1.404831, -44.702435, 28.125000
-1.404831, -44.702435, 28.250000
-1.410383, -44.879125, 28.375000
-1.410383, -44.879125, 28.500000
-1.415936, -45.055814, 28.625000
-1.415936, -45.055814, 28.750000
-1.415936, -45.055814, 28.875000
-1.421489, -45.232503, 29.000000
-1.421489, -45.232503, 29.125000
-1.421489, -45.232503, 29.250000
-1.421489, -45.232503, 29.375000
-1.427041, -45.409193, 29.500000
-1.427041, -45.409193, 29.625000
-1.438147, -45.762572, 29.750000
-1.432594, -45.585882, 29.875000
-1.438147, -45.762572, 30.000000
-1.438147, -45.762572, 30.125000
-1.438147, -45.762572, 30.250000
-1.443699, -45.939261, 30.375000
-1.443699, -45.939261, 30.500000
-1.443699, -45.939261, 30.625000
-1.449252, -46.115951, 30.750000
-1.449252, -46.115951, 30.875000
-1.449252, -46.115951, 31.000000
-1.454805, -46.292640, 31.125000
-1.454805, -46.292640, 31.250000
-1.454805, -46.292640, 31.375000
-1.454805, -46.292640, 31.500000
-1.454805, -46.292640, 31.625000
-1.460358, -46.469330, 31.750000
-1.460358, -46.469330, 31.875000
-1.465910, -46.646019, 32.000000
-1.465910, -46.646019, 32.125000
-1.465910, -46.646019, 32.250000
-1.471463, -46.822709, 32.375000
-1.471463, -46.822709, 32.500000
-1.471463, -46.822709, 32.625000
-1.471463, -46.822709, 32.750000
-1.471463, -46.822709, 32.875000
-1.477016, -46.999398, 33.000000
-1.477016, -46.999398, 33.125000
-1.477016, -46.999398, 33.250000
-1.477016, -46.999398, 33.375000
-1.477016, -46.999398, 33.500000
-1.482568, -47.176088, 33.625000
-1.482568, -47.176088, 33.750000
-1.482568, -47.176088, 33.875000
-1.482568, -47.176088, 34.000000
-1.482568, -47.176088, 34.125000
-1.488121, -47.352777, 34.250000
-1.493674, -47.529467, 34.375000
-1.488121, -47.352777, 34.500000
-1.493674, -47.529467, 34.625000
-1.493674, -47.529467, 34.750000
-1.493674, -47.529467, 34.875000
-1.493674, -47.529467, 35.000000
-1.493674, -47.529467, 35.125000
-1.499226, -47.706156, 35.250000
-1.499226, -47.706156, 35.375000
-1.499226, -47.706156, 35.500000
-1.499226, -47.706156, 35.625000
-1.499226, -47.706156, 35.750000
-1.499226, -47.706156, 35.875000
-1.499226, -47.706156, 36.000000
-1.504779, -47.882845, 36.125000
-1.504779, -47.882845, 36.250000
-1.504779, -47.882845, 36.375000
-1.504779, -47.882845, 36.500000
-1.504779, -47.882845, 36.625000
-1.504779, -47.882845, 36.750000
-1.504779, -47.882845, 36.875000
-1.510332, -48.059535, 37.000000
-1.510332, -48.059535, 37.125000
-1.510332, -48.059535, 37.250000
-1.510332, -48.059535, 37.375000
-1.510332, -48.059535, 37.500000
-1.510332, -48.059535, 37.625000
-1.510332, -48.059535, 37.750000
-1.510332, -48.059535, 37.875000
-1.515884, -48.236224, 38.000000
-1.515884, -48.236224, 38.125000
-1.515884, -48.236224, 38.250000
-1.515884, -48.236224, 38.375000
-1.521437, -48.412914, 38.500000
-1.515884, -48.236224, 38.625000
-1.515884, -48.236224, 38.750000
-1.515884, -48.236224, 38.875000
-1.515884, -48.236224, 39.000000
-1.515884, -48.236224, 39.125000
-1.521437, -48.412914, 39.250000
-1.521437, -48.412914, 39.375000
-1.521437, -48.412914, 39.500000
-1.521437, -48.412914, 39.625000
-1.521437, -48.412914, 39.750000
-1.521437, -48.412914, 39.875000
-1.521437, -48.412914, 40.000000
-1.521437, -48.412914, 40.125000
-1.521437, -48.412914, 40.250000
-1.521437, -48.412914, 40.375000
-1.526990, -48.589603, 40.500000
-1.521437, -48.412914, 40.625000
-1.521437, -48.412914, 40.750000
-1.521437, -48.412914, 40.875000
-1.521437, -48.412914, 41.000000
-1.521437, -48.412914, 41.125000
-1.521437, -48.412914, 41.250000
-1.526990, -48.589603, 41.375000
-1.521437, -48.412914, 41.500000
-1.521437, -48.412914, 41.625000
-1.526990, -48.589603, 41.750000
-1.526990, -48.589603, 41.875000
-1.526990, -48.589603, 42.000000
-1.521437, -48.412914, 42.125000
-1.521437, -48.412914, 42.250000
-1.526990, -48.589603, 42.375000
-1.526990, -48.589603, 42.500000
-1.526990, -48.589603, 42.625000
-1.526990, -48.589603, 42.750000
-1.526990, -48.589603, 42.875000
-1.526990, -48.589603, 43.000000
-1.526990, -48.589603, 43.125000
-1.521437, -48.412914, 43.250000
-1.526990, -48.589603, 43.375000
-1.526990, -48.589603, 43.500000
-1.526990, -48.589603, 43.625000
-1.526990, -48.589603, 43.750000
-1.521437, -48.412914, 43.875000
-1.521437, -48.412914, 44.000000
-1.521437, -48.412914, 44.125000
-1.521437, -48.412914, 44.250000
-1.521437, -48.412914, 44.375000
-1.521437, -48.412914, 44.500000
-1.521437, -48.412914, 44.625000
-1.521437, -48.412914, 44.750000
-1.521437, -48.412914, 44.875000
-1.521437, -48.412914, 45.000000
-1.521437, -48.412914, 45.125000
-1.521437, -48.412914, 45.250000
-1.521437, -48.412914, 45.375000
-1.521437, -48.412914, 45.500000
-1.515884, -48.236224, 45.625000
-1.515884, -48.236224, 45.750000
-1.515884, -48.236224, 45.875000
-1.515884, -48.236224, 46.000000
-1.515884, -48.236224, 46.125000
-1.515884, -48.236224, 46.250000
-1.515884, -48.236224, 46.375000
-1.515884, -48.236224, 46.500000
-1.515884, -48.236224, 46.625000
-1.515884, -48.236224, 46.750000
-1.510332, -48.059535, 46.875000
-1.510332, -48.059535, 47.000000
-1.510332, -48.059535, 47.125000
-1.510332, -48.059535, 47.250000
-1.510332, -48.059535, 47.375000
-1.510332, -48.059535, 47.500000
-1.510332, -48.059535, 47.625000
-1.510332, -48.059535, 47.750000
-1.504779, -47.882845, 47.875000
-1.510332, -48.059535, 48.000000
-1.504779, -47.882845, 48.125000
-1.504779, -47.882845, 48.250000
-1.504779, -47.882845, 48.375000
-1.504779, -47.882845, 48.500000
-1.504779, -47.882845, 48.625000
-1.499226, -47.706156, 48.750000
-1.499226, -47.706156, 48.875000
-1.499226, -47.706156, 49.000000
-1.499226, -47.706156, 49.125000
-1.499226, -47.706156, 49.250000
-1.499226, -47.706156, 49.375000
-1.499226, -47.706156, 49.500000
-1.499226, -47.706156, 49.625000
-1.493674, -47.529467, 49.750000
-1.493674, -47.529467, 49.875000
-1.493674, -47.529467, 50.000000
-1.493674, -47.529467, 50.125000
-1.493674, -47.529467, 50.250000
-1.488121, -47.352777, 50.375000
-1.488121, -47.352777, 50.500000
-1.488121, -47.352777, 50.625000
-1.488121, -47.352777, 50.750000
-1.488121, -47.352777, 50.875000
-1.488121, -47.352777, 51.000000
-1.488121, -47.352777, 51.125000
-1.482568, -47.176088, 51.250000
-1.482568, -47.176088, 51.375000
-1.482568, -47.176088, 51.500000
-1.477016, -46.999398, 51.625000
-1.477016, -46.999398, 51.750000
-1.477016, -46.999398, 51.875000
-1.477016, -46.999398, 52.000000
-1.471463, -46.822709, 52.125000
-1.471463, -46.822709, 52.250000
-1.471463, -46.822709, 52.375000
-1.471463, -46.822709, 52.500000
-1.471463, -46.822709, 52.625000
-1.471463, -46.822709, 52.750000
-1.465910, -46.646019, 52.875000
-1.460358, -46.469330, 53.000000
-1.460358, -46.469330, 53.125000
-1.460358, -46.469330, 53.250000
-1.460358, -46.469330, 53.375000
-1.460358, -46.469330, 53.500000
-1.460358, -46.469330, 53.625000
-1.454805, -46.292640, 53.750000
-1.454805, -46.292640, 53.875000
-1.454805, -46.292640, 54.000000
-1.454805, -46.292640, 54.125000
-1.449252, -46.115951, 54.250000
-1.443699, -45.939261, 54.375000
-1.443699, -45.939261, 54.500000
-1.443699, -45.939261, 54.625000
-1.443699, -45.939261, 54.750000
-1.443699, -45.939261, 54.875000
-1.443699, -45.939261, 55.000000
-1.438147, -45.762572, 55.125000
-1.438147, -45.762572, 55.250000
-1.438147, -45.762572, 55.375000
-1.432594, -45.585882, 55.500000
-1.432594, -45.585882, 55.625000
-1.432594, -45.585882, 55.750000
-1.427041, -45.409193, 55.875000
-1.427041, -45.409193, 56.000000
-1.427041, -45.409193, 56.125000
-1.421489, -45.232503, 56.250000
-1.421489, -45.232503, 56.375000
-1.421489, -45.232503, 56.500000
-1.415936, -45.055814, 56.625000
-1.415936, -45.055814, 56.750000
-1.410383, -44.879125, 56.875000
-1.415936, -45.055814, 57.000000
-1.410383, -44.879125, 57.125000
-1.404831, -44.702435, 57.250000
-1.399278, -44.525746, 57.375000
-1.399278, -44.525746, 57.500000
-1.399278, -44.525746, 57.625000
-1.399278, -44.525746, 57.750000
-1.399278, -44.525746, 57.875000
-1.393725, -44.349056, 58.000000
-1.393725, -44.349056, 58.125000
-1.388173, -44.172367, 58.250000
-1.388173, -44.172367, 58.375000
-1.388173, -44.172367, 58.500000
-1.382620, -43.995677, 58.625000
-1.382620, -43.995677, 58.750000
-1.377067, -43.818988, 58.875000
-1.371514, -43.642298, 59.000000
-1.371514, -43.642298, 59.125000
-1.365962, -43.465609, 59.250000
-1.365962, -43.465609, 59.375000
-1.365962, -43.465609, 59.500000
-1.360409, -43.288919, 59.625000
-1.360409, -43.288919, 59.750000
-1.354856, -43.112230, 59.875000
-1.354856, -43.112230, 60.000000
-1.349304, -42.935540, 60.125000
-1.349304, -42.935540, 60.250000
-1.343751, -42.758851, 60.375000
-1.343751, -42.758851, 60.500000
-1.343751, -42.758851, 60.625000
-1.338198, -42.582161, 60.750000
-1.338198, -42.582161, 60.875000
-1.338198, -42.582161, 61.000000
-1.332646, -42.405472, 61.125000
-1.327093, -42.228783, 61.250000
-1.327093, -42.228783, 61.375000
-1.321540, -42.052093, 61.500000
-1.315988, -41.875404, 61.625000
-1.310435, -41.698714, 61.750000
-1.310435, -41.698714, 61.875000
-1.304882, -41.522025, 62.000000
-1.304882, -41.522025, 62.125000
-1.299330, -41.345335, 62.250000
-1.293777, -41.168646, 62.375000
-1.299330, -41.345335, 62.500000
-1.293777, -41.168646, 62.625000
-1.288224, -40.991956, 62.750000
-1.282671, -40.815267, 62.875000
-1.282671, -40.815267, 63.000000
-1.277119, -40.638577, 63.125000
-1.271566, -40.461888, 63.250000
-1.266013, -40.285198, 63.375000
-1.271566, -40.461888, 63.500000
-1.266013, -40.285198, 63.625000
-1.254908, -39.931819, 63.750000
-1.254908, -39.931819, 63.875000
-1.254908, -39.931819, 64.000000
-1.243803, -39.578441, 64.125000
-1.238250, -39.401751, 64.250000
-1.238250, -39.401751, 64.375000
-1.227145, -39.048372, 64.500000
-1.227145, -39.048372, 64.625000
-1.227145, -39.048372, 64.750000
-1.210486, -38.518304, 64.875000
-1.210486, -38.518304, 65.000000
-1.204934, -38.341614, 65.125000
-1.199381, -38.164925, 65.250000
-1.199381, -38.164925, 65.375000
-1.193828, -37.988235, 65.500000
-1.188276, -37.811546, 65.625000
-1.188276, -37.811546, 65.750000
-1.182723, -37.634856, 65.875000
-1.182723, -37.634856, 66.000000
-1.177170, -37.458167, 66.125000
-1.177170, -37.458167, 66.250000
-1.166065, -37.104788, 66.375000
-1.127196, -35.867962, 66.500000
-1.121643, -35.691272, 66.625000
-1.104985, -35.161204, 66.875000
-1.099433, -34.984514, 67.000000
-1.093880, -34.807825, 67.125000
-1.099433, -34.984514, 67.250000
-1.093880, -34.807825, 67.375000
-1.088327, -34.631135, 67.500000
-1.088327, -34.631135, 67.625000
-1.088327, -34.631135, 67.750000
-1.088327, -34.631135, 67.875000
-1.077222, -34.277757, 68.000000
-1.060564, -33.747688, 68.125000
-1.055011, -33.570999, 68.250000
-1.055011, -33.570999, 68.375000
-1.055011, -33.570999, 68.500000
-1.049458, -33.394309, 68.625000
-1.043906, -33.217620, 68.750000
-1.032800, -32.864241, 68.875000
-1.027248, -32.687551, 69.000000
-1.027248, -32.687551, 69.125000
-1.010590, -32.157483, 69.250000
-1.010590, -32.157483, 69.375000
-1.010590, -32.157483, 69.500000
-0.999484, -31.804104, 69.625000
-0.993932, -31.627415, 69.750000
-0.993932, -31.627415, 69.875000
-0.977273, -31.097346, 70.000000
-0.977273, -31.097346, 70.125000
-0.971721, -30.920657, 70.250000
-0.966168, -30.743967, 70.375000
-0.960615, -30.567278, 70.500000
-0.955063, -30.390588, 70.625000
-0.955063, -30.390588, 70.750000
-0.943957, -30.037209, 70.875000
-0.943957, -30.037209, 71.000000
-0.932852, -29.683830, 71.125000
-0.932852, -29.683830, 71.250000
-0.932852, -29.683830, 71.375000
-0.921747, -29.330451, 71.500000
-0.921747, -29.330451, 71.625000
-0.921747, -29.330451, 71.750000
-0.916194, -29.153762, 71.875000
-0.921747, -29.330451, 72.000000
-0.921747, -29.330451, 72.125000
-0.916194, -29.153762, 72.250000
-0.921747, -29.330451, 72.375000
-0.921747, -29.330451, 72.500000
-0.927299, -29.507141, 72.625000
-0.927299, -29.507141, 72.750000
-0.932852, -29.683830, 72.875000
-0.938405, -29.860520, 73.000000
-0.938405, -29.860520, 73.125000
-0.943957, -30.037209, 73.250000
-0.943957, -30.037209, 73.375000
-0.949510, -30.213899, 73.500000
-0.955063, -30.390588, 73.625000
-0.960615, -30.567278, 73.750000
-0.966168, -30.743967, 73.875000
-0.971721, -30.920657, 74.000000
-0.971721, -30.920657, 74.125000
-0.977273, -31.097346, 74.250000
-0.982826, -31.274036, 74.375000
-0.988379, -31.450725, 74.500000
-0.993932, -31.627415, 74.625000
-0.999484, -31.804104, 74.750000
-1.005037, -31.980793, 74.875000
-1.010590, -32.157483, 75.000000
-1.016142, -32.334172, 75.125000
-1.016142, -32.334172, 75.250000
-1.021695, -32.510862, 75.375000
-1.027248, -32.687551, 75.500000
-1.032800, -32.864241, 75.625000
-1.038353, -33.040930, 75.750000
-1.038353, -33.040930, 75.875000
-1.043906, -33.217620, 76.000000
-1.049458, -33.394309, 76.125000
-1.055011, -33.570999, 76.250000
-1.066117, -33.924378, 76.375000
-1.071669, -34.101067, 76.500000
-1.071669, -34.101067, 76.625000
-1.077222, -34.277757, 76.750000
-1.082775, -34.454446, 76.875000
-1.088327, -34.631135, 77.000000
-1.093880, -34.807825, 77.125000
-1.104985, -35.161204, 77.250000
-1.104985, -35.161204, 77.375000
-1.110538, -35.337893, 77.500000
-1.116091, -35.514583, 77.625000
-1.121643, -35.691272, 77.750000
-1.127196, -35.867962, 77.875000
-1.132749, -36.044651, 78.000000
-1.143854, -36.398030, 78.125000
-1.143854, -36.398030, 78.250000
-1.149407, -36.574720, 78.375000
-1.154960, -36.751409, 78.500000
-1.160512, -36.928099, 78.625000
-1.160512, -36.928099, 78.750000
-1.160512, -36.928099, 78.875000
-1.166065, -37.104788, 79.000000
-1.166065, -37.104788, 79.125000
-1.171618, -37.281477, 79.250000
-1.171618, -37.281477, 79.375000
-1.182723, -37.634856, 79.500000
-1.177170, -37.458167, 79.625000
-1.188276, -37.811546, 79.750000
-0.000000, -40.305087, 22.625000
-0.000000, -40.481863, 22.750000
-0.000000, -40.481863, 22.875000
-0.000000, -40.835417, 23.000000
-0.000000, -40.658640, 23.125000
-0.000000, -40.835417, 23.250000
-0.000000, -41.188970, 23.375000
-0.000000, -41.188970, 23.500000
-0.000000, -41.012193, 23.625000
-0.000000, -41.188970, 23.750000
-0.000000, -41.365747, 23.875000
-0.000000, -41.542523, 24.000000
-0.000000, -41.542523, 24.125000
-0.000000, -41.719300, 24.250000
-0.000000, -41.719300, 24.375000
-0.000000, -41.896077, 24.500000
-0.000000, -41.896077, 24.625000
-0.000000, -42.072853, 24.750000
-0.000000, -42.249630, 24.875000
-0.000000, -42.249630, 25.000000
-0.000000, -42.249630, 25.125000
-0.000000, -42.426407, 25.250000
-0.000000, -42.426407, 25.375000
-0.000000, -42.603184, 25.500000
-0.000000, -42.779960, 25.625000
-0.000000, -42.779960, 25.750000
-0.000000, -42.956737, 25.875000
-0.000000, -42.956737, 26.000000
-0.000000, -42.956737, 26.125000
-0.000000, -43.133514, 26.250000
-0.000000, -43.310290, 26.375000
-0.000000, -43.310290, 26.500000
-0.000000, -43.487067, 26.625000
-0.000000, -43.487067, 26.750000
-0.000000, -43.487067, 26.875000
-0.000000, -43.487067, 27.000000
-0.000000, -43.663844, 27.125000
-0.000000, -43.840620, 27.250000
-0.000000, -43.840620, 27.375000
-0.000000, -44.017397, 27.500000
-0.000000, -44.017397, 27.625000
-0.000000, -44.017397, 27.750000
-0.000000, -44.194174, 27.875000
-0.000000, -44.194174, 28.000000
-0.000000, -44.370951, 28.125000
-0.000000, -44.370951, 28.250000
-0.000000, -44.547727, 28.375000
-0.000000, -44.547727, 28.500000
-0.000000, -44.547727, 28.625000
-0.000000, -44.724504, 28.750000
-0.000000, -44.724504, 28.875000
-0.000000, -44.901281, 29.000000
-0.000000, -44.901281, 29.125000
-0.000000, -44.901281, 29.250000
-0.000000, -44.901281, 29.375000
-0.000000, -45.078057, 29.500000
-0.000000, -45.078057, 29.625000
-0.000000, -45.254834, 29.750000
-0.000000, -45.254834, 29.875000
-0.000000, -45.254834, 30.000000
-0.000000, -45.254834, 30.125000
-0.000000, -45.431611, 30.250000
-0.000000, -45.431611, 30.375000
-0.000000, -45.431611, 30.500000
-0.000000, -45.608387, 30.625000
-0.000000, -45.608387, 30.750000
-0.000000, -45.608387, 30.875000
-0.000000, -45.785164, 31.000000
-0.000000, -45.785164, 31.125000
-0.000000, -45.961941, 31.250000
-0.000000, -45.961941, 31.375000
-0.000000, -45.961941, 31.500000
-0.000000, -46.138717, 31.625000
-0.000000, -46.138717, 31.750000
-0.000000, -46.138717, 31.875000
-0.000000, -46.138717, 32.000000
-0.000000, -46.315494, 32.125000
-0.000000, -46.315494, 32.250000
-0.000000, -46.315494, 32.375000
-0.000000, -46.315494, 32.500000
-0.000000, -46.492271, 32.625000
-0.000000, -46.492271, 32.750000
-0.000000, -46.669048, 32.875000
-0.000000, -46.669048, 33.000000
-0.000000, -46.669048, 33.125000
-0.000000, -46.845824, 33.250000
-0.000000, -46.669048, 33.375000
-0.000000, -46.669048, 33.500000
-0.000000, -46.845824, 33.625000
-0.000000, -46.845824, 33.750000
-0.000000, -46.845824, 33.875000
-0.000000, -46.845824, 34.000000
-0.000000, -46.845824, 34.125000
-0.000000, -47.022601, 34.250000
-0.000000, -47.199378, 34.375000
-0.000000, -47.022601, 34.500000
-0.000000, -47.199378, 34.625000
-0.000000, -47.022601, 34.750000
-0.000000, -47.199378, 34.875000
-0.000000, -47.199378, 35.000000
-0.000000, -47.199378, 35.125000
-0.000000, -47.199378, 35.250000
-0.000000, -47.199378, 35.375000
-0.000000, -47.376154, 35.500000
-0.000000, -47.376154, 35.625000
-0.000000, -47.376154, 35.750000
-0.000000, -47.376154, 35.875000
-0.000000, -47.376154, 36.000000
-0.000000, -47.376154, 36.125000
-0.000000, -47.376154, 36.250000
-0.000000, -47.729708, 36.375000
-0.000000, -47.552931, 36.500000
-0.000000, -47.552931, 36.625000
-0.000000, -47.552931, 36.750000
-0.000000, -47.552931, 36.875000
-0.000000, -47.552931, 37.000000
-0.000000, -47.729708, 37.125000
-0.000000, -47.729708, 37.250000
-0.000000, -47.729708, 37.375000
-0.000000, -47.729708, 37.500000
-0.000000, -47.729708, 37.625000
-0.000000, -47.729708, 37.750000
-0.000000, -47.729708, 37.875000
-0.000000, -47.729708, 38.000000
-0.000000, -47.906484, 38.125000
-0.000000, -47.906484, 38.250000
-0.000000, -47.906484, 38.375000
-0.000000, -47.906484, 38.500000
-0.000000, -47.906484, 38.625000
-0.000000, -47.906484, 38.750000
-0.000000, -47.906484, 38.875000
-0.000000, -47.906484, 39.000000
-0.000000, -47.906484, 39.125000
-0.000000, -47.906484, 39.250000
-0.000000, -47.906484, 39.375000
-0.000000, -48.083261, 39.500000
-0.000000, -48.083261, 39.625000
-0.000000, -48.083261, 39.750000
-0.000000, -48.083261, 39.875000
-0.000000, -48.083261, 40.000000
-0.000000, -48.083261, 40.125000
-0.000000, -48.083261, 40.250000
-0.000000, -48.083261, 40.375000
-0.000000, -48.083261, 40.500000
-0.000000, -48.083261, 40.625000
-0.000000, -48.083261, 40.750000
-0.000000, -48.083261, 40.875000
-0.000000, -48.083261, 41.000000
-0.000000, -48.083261, 41.125000
-0.000000, -48.083261, 41.250000
-0.000000, -48.083261, 41.375000
-0.000000, -48.083261, 41.500000
-0.000000, -48.083261, 41.625000
-0.000000, -48.083261, 41.750000
-0.000000, -48.083261, 41.875000
-0.000000, -48.083261, 42.000000
-0.000000, -48.083261, 42.125000
-0.000000, -48.083261, 42.250000
-0.000000, -48.083261, 42.375000
-0.000000, -48.083261, 42.500000
-0.000000, -48.083261, 42.625000
-0.000000, -48.083261, 42.750000
-0.000000, -48.083261, 42.875000
-0.000000, -48.083261, 43.000000
-0.000000, -48.083261, 43.125000
-0.000000, -48.083261, 43.250000
-0.000000, -48.083261, 43.375000
-0.000000, -48.083261, 43.500000
-0.000000, -48.083261, 43.625000
-0.000000, -48.083261, 43.750000
-0.000000, -48.083261, 43.875000
-0.000000, -48.083261, 44.000000
-0.000000, -48.083261, 44.125000
-0.000000, -48.083261, 44.250000
-0.000000, -48.083261, 44.375000
-0.000000, -48.083261, 44.500000
-0.000000, -48.083261, 44.625000
-0.000000, -48.083261, 44.750000
-0.000000, -48.083261, 44.875000
-0.000000, -48.083261, 45.000000
-0.000000, -47.906484, 45.125000
-0.000000, -47.906484, 45.250000
-0.000000, -48.083261, 45.375000
-0.000000, -47.906484, 45.500000
-0.000000, -47.906484, 45.625000
-0.000000, -47.906484, 45.750000
-0.000000, -47.906484, 45.875000
-0.000000, -47.906484, 46.000000
-0.000000, -47.906484, 46.125000
-0.000000, -47.906484, 46.250000
-0.000000, -47.906484, 46.375000
-0.000000, -47.906484, 46.500000
-0.000000, -47.729708, 46.625000
-0.000000, -47.729708, 46.750000
-0.000000, -47.729708, 46.875000
-0.000000, -47.906484, 47.000000
-0.000000, -47.906484, 47.125000
-0.000000, -47.729708, 47.250000
-0.000000, -47.729708, 47.375000
-0.000000, -47.729708, 47.500000
-0.000000, -47.729708, 47.625000
-0.000000, -47.729708, 47.750000
-0.000000, -47.729708, 47.875000
-0.000000, -47.729708, 48.000000
-0.000000, -47.552931, 48.125000
-0.000000, -47.552931, 48.250000
-0.000000, -47.552931, 48.375000
-0.000000, -47.729708, 48.500000
-0.000000, -47.552931, 48.625000
-0.000000, -47.376154, 48.750000
-0.000000, -47.376154, 48.875000
-0.000000, -47.376154, 49.000000
-0.000000, -47.552931, 49.125000
-0.000000, -47.376154, 49.250000
-0.000000, -47.376154, 49.375000
-0.000000, -47.376154, 49.500000
-0.000000, -47.199378, 49.625000
-0.000000, -47.199378, 49.750000
-0.000000, -47.199378, 49.875000
-0.000000, -47.199378, 50.000000
-0.000000, -47.199378, 50.125000
-0.000000, -47.022601, 50.250000
-0.000000, -47.022601, 50.375000
-0.000000, -47.022601, 50.500000
-0.000000, -47.199378, 50.625000
-0.000000, -47.022601, 50.750000
-0.000000, -47.022601, 50.875000
-0.000000, -46.845824, 51.000000
-0.000000, -46.845824, 51.125000
-0.000000, -46.845824, 51.250000
-0.000000, -46.669048, 51.375000
-0.000000, -46.845824, 51.500000
-0.000000, -46.669048, 51.625000
-0.000000, -46.669048, 51.750000
-0.000000, -46.492271, 51.875000
-0.000000, -46.492271, 52.000000
-0.000000, -46.492271, 52.125000
-0.000000, -46.492271, 52.250000
-0.000000, -46.492271, 52.375000
-0.000000, -46.669048, 52.500000
-0.000000, -46.315494, 52.625000
-0.000000, -46.315494, 52.750000
-0.000000, -46.315494, 52.875000
