-21.253947, 19.958785, 76.875000
-21.464382, 20.156396, 77.000000
-21.569599, 20.255202, 77.125000
-21.780035, 20.452814, 77.250000
-21.885252, 20.551620, 77.375000
-21.990470, 20.650426, 77.500000
-22.200905, 20.848037, 77.625000
-22.306122, 20.946843, 77.750000
-22.411340, 21.045649, 77.875000
-22.621775, 21.243261, 78.000000
-22.726993, 21.342067, 78.125000
-22.832210, 21.440872, 78.250000
-23.042645, 21.638484, 78.375000
-23.147863, 21.737290, 78.500000
-23.358298, 21.934902, 78.625000
-23.463516, 22.033708, 78.750000
-23.673951, 22.231319, 78.875000
-23.673951, 22.231319, 79.000000
-23.779168, 22.330125, 79.125000
-23.884386, 22.428931, 79.250000
-23.989603, 22.527737, 79.375000
-23.989603, 22.527737, 79.500000
-24.200038, 22.725349, 79.625000
-24.200038, 22.725349, 79.750000
-24.305256, 22.824155, 79.875000
-24.305256, 22.824155, 80.000000
-22.086918, 19.472238, 25.625000
-22.086918, 19.472238, 25.750000
-21.870380, 19.281333, 25.875000
-22.086918, 19.472238, 26.000000
-22.195187, 19.567690, 26.125000
-22.303457, 19.663142, 26.250000
-22.411726, 19.758594, 26.375000
-22.519995, 19.854046, 26.500000
-22.628264, 19.949498, 26.625000
-22.736533, 20.044951, 26.750000
-22.844803, 20.140403, 26.875000
-22.844803, 20.140403, 27.000000
-22.953072, 20.235855, 27.125000
-22.953072, 20.235855, 27.250000
-23.061341, 20.331307, 27.375000
-23.169610, 20.426759, 27.500000
-23.277880, 20.522211, 27.625000
-23.277880, 20.522211, 27.750000
-23.494418, 20.713116, 27.875000
-23.494418, 20.713116, 28.000000
-23.602687, 20.808568, 28.125000
-23.710956, 20.904020, 28.250000
-23.819226, 20.999472, 28.375000
-23.927495, 21.094924, 28.500000
-23.927495, 21.094924, 28.625000
-24.035764, 21.190376, 28.750000
-24.035764, 21.190376, 28.875000
-24.144033, 21.285829, 29.000000
-24.252302, 21.381281, 29.125000
-24.252302, 21.381281, 29.250000
-24.360572, 21.476733, 29.375000
-24.360572, 21.476733, 29.500000
-24.468841, 21.572185, 29.625000
-24.685379, 21.763089, 29.750000
-24.685379, 21.763089, 29.875000
-24.685379, 21.763089, 30.000000
-24.793648, 21.858541, 30.125000
-24.901918, 21.953994, 30.250000
-24.901918, 21.953994, 30.375000
-25.010187, 22.049446, 30.500000
-25.010187, 22.049446, 30.625000
-25.118456, 22.144898, 30.750000
-25.226725, 22.240350, 30.875000
-25.334994, 22.335802, 31.000000
-25.334994, 22.335802, 31.125000
-25.334994, 22.335802, 31.250000
-25.443264, 22.431254, 31.375000
-25.551533, 22.526706, 31.500000
-25.551533, 22.526706, 31.625000
-25.659802, 22.622159, 31.750000
-25.659802, 22.622159, 31.875000
-25.768071, 22.717611, 32.000000
-25.768071, 22.717611, 32.125000
-25.876340, 22.813063, 32.250000
-25.984610, 22.908515, 32.375000
-25.984610, 22.908515, 32.500000
-26.092879, 23.003967, 32.625000
-26.092879, 23.003967, 32.750000
-26.201148, 23.099419, 32.875000
-26.201148, 23.099419, 33.000000
-26.309417, 23.194871, 33.125000
-26.309417, 23.194871, 33.250000
-26.417687, 23.290324, 33.375000
-26.417687, 23.290324, 33.500000
-26.525956, 23.385776, 33.625000
-26.525956, 23.385776, 33.750000
-26.634225, 23.481228, 33.875000
-26.634225, 23.481228, 34.000000
-26.742494, 23.576680, 34.125000
-26.742494, 23.576680, 34.250000
-26.850763, 23.672132, 34.375000
-26.850763, 23.672132, 34.500000
-26.959033, 23.767584, 34.625000
-26.959033, 23.767584, 34.750000
-27.067302, 23.863036, 34.875000
-27.067302, 23.863036, 35.000000
-27.175571, 23.958489, 35.125000
-27.175571, 23.958489, 35.250000
-27.283840, 24.053941, 35.375000
-27.283840, 24.053941, 35.500000
-27.283840, 24.053941, 35.625000
-27.392109, 24.149393, 35.750000
-27.392109, 24.149393, 35.875000
-27.500379, 24.244845, 36.000000
-27.500379, 24.244845, 36.125000
-27.500379, 24.244845, 36.250000
-27.608648, 24.340297, 36.375000
-27.608648, 24.340297, 36.500000
-27.716917, 24.435749, 36.625000
-27.716917, 24.435749, 36.750000
-27.825186, 24.531201, 36.875000
-27.825186, 24.531201, 37.000000
-27.825186, 24.531201, 37.125000
-27.825186, 24.531201, 37.250000
-27.933455, 24.626654, 37.375000
-27.933455, 24.626654, 37.500000
-28.041725, 24.722106, 37.625000
-28.041725, 24.722106, 37.750000
-28.041725, 24.722106, 37.875000
-28.149994, 24.817558, 38.000000
-28.149994, 24.817558, 38.125000
-28.258263, 24.913010, 38.250000
-28.258263, 24.913010, 38.375000
-28.258263, 24.913010, 38.500000
-28.258263, 24.913010, 38.625000
-28.366532, 25.008462, 38.750000
-28.366532, 25.008462, 38.875000
-28.366532, 25.008462, 39.000000
-28.474801, 25.103914, 39.125000
-28.366532, 25.008462, 39.250000
-28.366532, 25.008462, 39.375000
-28.474801, 25.103914, 39.500000
-28.474801, 25.103914, 39.625000
-28.583071, 25.199367, 39.750000
-28.583071, 25.199367, 39.875000
-28.583071, 25.199367, 40.000000
-28.583071, 25.199367, 40.125000
-28.691340, 25.294819, 40.250000
-28.691340, 25.294819, 40.375000
-28.691340, 25.294819, 40.500000
-28.691340, 25.294819, 40.625000
-28.691340, 25.294819, 40.750000
-28.799609, 25.390271, 40.875000
-28.799609, 25.390271, 41.000000
-28.799609, 25.390271, 41.125000
-28.799609, 25.390271, 41.250000
-28.907878, 25.485723, 41.375000
-28.907878, 25.485723, 41.500000
-28.907878, 25.485723, 41.625000
-29.016147, 25.581175, 41.750000
-29.016147, 25.581175, 41.875000
-29.016147, 25.581175, 42.000000
-29.016147, 25.581175, 42.125000
-29.016147, 25.581175, 42.250000
-29.016147, 25.581175, 42.375000
-29.016147, 25.581175, 42.500000
-29.124417, 25.676627, 42.625000
-29.124417, 25.676627, 42.750000
-29.124417, 25.676627, 42.875000
-29.124417, 25.676627, 43.000000
-29.124417, 25.676627, 43.125000
-29.232686, 25.772079, 43.250000
-29.232686, 25.772079, 43.375000
-29.232686, 25.772079, 43.500000
-29.232686, 25.772079, 43.625000
-29.232686, 25.772079, 43.750000
-29.232686, 25.772079, 43.875000
-29.232686, 25.772079, 44.000000
-29.340955, 25.867532, 44.125000
-29.340955, 25.867532, 44.250000
-29.340955, 25.867532, 44.375000
-29.340955, 25.867532, 44.500000
-29.340955, 25.867532, 44.625000
-29.449224, 25.962984, 44.750000
-29.340955, 25.867532, 44.875000
-29.449224, 25.962984, 45.000000
-29.449224, 25.962984, 45.125000
-29.449224, 25.962984, 45.250000
-29.449224, 25.962984, 45.375000
-29.449224, 25.962984, 45.500000
-29.449224, 25.962984, 45.625000
-29.449224, 25.962984, 45.750000
-29.449224, 25.962984, 45.875000
-29.449224, 25.962984, 46.000000
-29.557494, 26.058436, 46.125000
-29.557494, 26.058436, 46.250000
-29.557494, 26.058436, 46.375000
-29.557494, 26.058436, 46.500000
-29.557494, 26.058436, 46.625000
-29.557494, 26.058436, 46.750000
-29.557494, 26.058436, 46.875000
-29.557494, 26.058436, 47.000000
-29.557494, 26.058436, 47.125000
-29.557494, 26.058436, 47.250000
-29.557494, 26.058436, 47.375000
-29.557494, 26.058436, 47.500000
-29.557494, 26.058436, 47.625000
-29.557494, 26.058436, 47.750000
-29.557494, 26.058436, 47.875000
-29.557494, 26.058436, 48.000000
-29.557494, 26.058436, 48.125000
-29.557494, 26.058436, 48.250000
-29.557494, 26.058436, 48.375000
-29.557494, 26.058436, 48.500000
-29.557494, 26.058436, 48.625000
-29.557494, 26.058436, 48.750000
-29.557494, 26.058436, 48.875000
-29.557494, 26.058436, 49.000000
-29.557494, 26.058436, 49.125000
-29.557494, 26.058436, 49.250000
-29.557494, 26.058436, 49.375000
-29.557494, 26.058436, 49.500000
-29.557494, 26.058436, 49.625000
-29.557494, 26.058436, 49.750000
-29.557494, 26.058436, 49.875000
-29.557494, 26.058436, 50.000000
-29.557494, 26.058436, 50.125000
-29.557494, 26.058436, 50.250000
-29.557494, 26.058436, 50.375000
-29.557494, 26.058436, 50.500000
-29.557494, 26.058436, 50.625000
-29.557494, 26.058436, 50.750000
-29.557494, 26.058436, 50.875000
-29.665763, 26.153888, 51.000000
-29.557494, 26.058436, 51.125000
-29.557494, 26.058436, 51.250000
-29.557494, 26.058436, 51.375000
-29.557494, 26.058436, 51.500000
-29.557494, 26.058436, 51.625000
-29.449224, 25.962984, 51.750000
-29.449224, 25.962984, 51.875000
-29.557494, 26.058436, 52.000000
-29.449224, 25.962984, 52.125000
-29.449224, 25.962984, 52.250000
-29.449224, 25.962984, 52.375000
-29.449224, 25.962984, 52.500000
-29.449224, 25.962984, 52.625000
-29.449224, 25.962984, 52.750000
-29.340955, 25.867532, 52.875000
-29.449224, 25.962984, 53.000000
-29.340955, 25.867532, 53.125000
-29.340955, 25.867532, 53.250000
-29.340955, 25.867532, 53.375000
-29.340955, 25.867532, 53.500000
-29.340955, 25.867532, 53.625000
-29.232686, 25.772079, 53.750000
-29.232686, 25.772079, 53.875000
-29.232686, 25.772079, 54.000000
-29.232686, 25.772079, 54.125000
-29.124417, 25.676627, 54.250000
-29.124417, 25.676627, 54.375000
-29.124417, 25.676627, 54.500000
-29.124417, 25.676627, 54.625000
-29.124417, 25.676627, 54.750000
-29.124417, 25.676627, 54.875000
-29.124417, 25.676627, 55.000000
-29.124417, 25.676627, 55.125000
-29.016147, 25.581175, 55.250000
-29.016147, 25.581175, 55.375000
-29.016147, 25.581175, 55.500000
-28.907878, 25.485723, 55.625000
-28.907878, 25.485723, 55.750000
-28.907878, 25.485723, 55.875000
-28.907878, 25.485723, 56.000000
-28.907878, 25.485723, 56.125000
-28.799609, 25.390271, 56.250000
-28.799609, 25.390271, 56.375000
-28.799609, 25.390271, 56.500000
-28.799609, 25.390271, 56.625000
-28.691340, 25.294819, 56.750000
-28.691340, 25.294819, 56.875000
-28.691340, 25.294819, 57.000000
-28.691340, 25.294819, 57.125000
-28.583071, 25.199367, 57.250000
-28.583071, 25.199367, 57.375000
-28.474801, 25.103914, 57.500000
-28.474801, 25.103914, 57.625000
-28.474801, 25.103914, 57.750000
-28.583071, 25.199367, 57.875000
-28.366532, 25.008462, 58.000000
-28.366532, 25.008462, 58.125000
-28.366532, 25.008462, 58.250000
-28.258263, 24.913010, 58.375000
-28.366532, 25.008462, 58.500000
-28.149994, 24.817558, 58.625000
-28.149994, 24.817558, 58.750000
-28.149994, 24.817558, 58.875000
-28.149994, 24.817558, 59.000000
-28.041725, 24.722106, 59.125000
-28.041725, 24.722106, 59.250000
-28.041725, 24.722106, 59.375000
-27.933455, 24.626654, 59.500000
-27.933455, 24.626654, 59.625000
-27.933455, 24.626654, 59.750000
-27.825186, 24.531201, 59.875000
-27.825186, 24.531201, 60.000000
-27.716917, 24.435749, 60.125000
-27.716917, 24.435749, 60.250000
-27.716917, 24.435749, 60.375000
-27.608648, 24.340297, 60.500000
-27.608648, 24.340297, 60.625000
-27.500379, 24.244845, 60.750000
-27.500379, 24.244845, 60.875000
-27.392109, 24.149393, 61.000000
-27.392109, 24.149393, 61.125000
-27.283840, 24.053941, 61.250000
-27.283840, 24.053941, 61.375000
-27.283840, 24.053941, 61.500000
-27.175571, 23.958489, 61.625000
-27.175571, 23.958489, 61.750000
-27.067302, 23.863036, 61.875000
-27.067302, 23.863036, 62.000000
-26.959033, 23.767584, 62.125000
-26.850763, 23.672132, 62.250000
-26.850763, 23.672132, 62.375000
-26.742494, 23.576680, 62.500000
-26.742494, 23.576680, 62.625000
-26.634225, 23.481228, 62.750000
-26.634225, 23.481228, 62.875000
-26.525956, 23.385776, 63.000000
-26.525956, 23.385776, 63.125000
-26.417687, 23.290324, 63.250000
-26.417687, 23.290324, 63.375000
-26.309417, 23.194871, 63.500000
-26.201148, 23.099419, 63.625000
-26.201148, 23.099419, 63.750000
-26.092879, 23.003967, 63.875000
-26.092879, 23.003967, 64.000000
-26.092879, 23.003967, 64.125000
-25.984610, 22.908515, 64.250000
-25.876340, 22.813063, 64.375000
-25.876340, 22.813063, 64.500000
-25.334994, 22.335802, 64.625000
-25.334994, 22.335802, 64.750000
-22.411726, 19.758594, 68.375000
-22.303457, 19.663142, 68.500000
-22.303457, 19.663142, 68.625000
-22.303457, 19.663142, 68.750000
-22.303457, 19.663142, 68.875000
-22.195187, 19.567690, 69.000000
-21.870380, 19.281333, 69.125000
-21.762111, 19.185881, 69.250000
-20.138073, 17.754099, 71.000000
-20.029803, 17.658647, 71.125000
-20.029803, 17.658647, 71.250000
-19.813265, 17.467743, 71.375000
-19.813265, 17.467743, 71.500000
-19.813265, 17.467743, 71.625000
-19.488457, 17.181386, 71.875000
-19.380188, 17.085934, 72.000000
-19.271919, 16.990482, 72.125000
-19.271919, 16.990482, 72.250000
-19.271919, 16.990482, 72.375000
-19.163650, 16.895030, 72.500000
-19.163650, 16.895030, 72.625000
-19.163650, 16.895030, 72.750000
-19.055380, 16.799578, 72.875000
-19.055380, 16.799578, 73.000000
-19.055380, 16.799578, 73.125000
-19.055380, 16.799578, 73.250000
-19.055380, 16.799578, 73.375000
-18.947111, 16.704126, 73.500000
-19.055380, 16.799578, 73.625000
-19.055380, 16.799578, 73.750000
-19.055380, 16.799578, 73.875000
-19.163650, 16.895030, 74.000000
-19.163650, 16.895030, 74.125000
-19.271919, 16.990482, 74.250000
-19.380188, 17.085934, 74.375000
-19.488457, 17.181386, 74.500000
-19.596726, 17.276838, 74.625000
-19.704996, 17.372291, 74.750000
-19.704996, 17.372291, 74.875000
-19.813265, 17.467743, 75.000000
-19.921534, 17.563195, 75.125000
-20.138073, 17.754099, 75.250000
-20.246342, 17.849551, 75.375000
-20.354611, 17.945003, 75.500000
-20.462880, 18.040456, 75.625000
-20.679419, 18.231360, 75.750000
-20.787688, 18.326812, 75.875000
-20.895957, 18.422264, 76.000000
-21.004226, 18.517716, 76.125000
-21.220765, 18.708621, 76.250000
-21.329034, 18.804073, 76.375000
-21.437303, 18.899525, 76.500000
-21.653841, 19.090429, 76.625000
-21.762111, 19.185881, 76.750000
-21.870380, 19.281333, 76.875000
-22.086918, 19.472238, 77.000000
-22.303457, 19.663142, 77.125000
-22.303457, 19.663142, 77.250000
-22.519995, 19.854046, 77.375000
-22.628264, 19.949498, 77.500000
-22.736533, 20.044951, 77.625000
-22.953072, 20.235855, 77.750000
-23.061341, 20.331307, 77.875000
-23.277880, 20.522211, 78.000000
-23.386149, 20.617664, 78.125000
-23.602687, 20.808568, 78.250000
-23.710956, 20.904020, 78.375000
-23.927495, 21.094924, 78.500000
-24.035764, 21.190376, 78.625000
-24.144033, 21.285829, 78.750000
-24.360572, 21.476733, 78.875000
-24.360572, 21.476733, 79.000000
-24.468841, 21.572185, 79.125000
-24.468841, 21.572185, 79.250000
-24.577110, 21.667637, 79.375000
-24.685379, 21.763089, 79.500000
-24.793648, 21.858541, 79.625000
-24.793648, 21.858541, 79.750000
-24.901918, 21.953994, 79.875000
-25.118456, 22.144898, 80.000000
-22.020373, 18.216837, 25.625000
-22.354015, 18.492850, 25.750000
-22.576443, 18.676858, 25.875000
-22.687657, 18.768863, 26.000000
-22.910085, 18.952871, 26.125000
-22.910085, 18.952871, 26.250000
-23.021299, 19.044875, 26.375000
-23.132513, 19.136879, 26.500000
-23.243727, 19.228884, 26.625000
-23.354941, 19.320888, 26.750000
-23.354941, 19.320888, 26.875000
-23.466155, 19.412892, 27.000000
-23.577369, 19.504896, 27.125000
-23.577369, 19.504896, 27.250000
-23.688583, 19.596901, 27.375000
-23.799798, 19.688905, 27.500000
-23.911012, 19.780909, 27.625000
-23.911012, 19.780909, 27.750000
-24.022226, 19.872913, 27.875000
-24.133440, 19.964917, 28.000000
-24.244654, 20.056922, 28.125000
-24.355868, 20.148926, 28.250000
-24.467082, 20.240930, 28.375000
-24.578296, 20.332934, 28.500000
-24.689510, 20.424939, 28.625000
-24.689510, 20.424939, 28.750000
-24.689510, 20.424939, 28.875000
-24.800724, 20.516943, 29.000000
-24.911938, 20.608947, 29.125000
-24.911938, 20.608947, 29.250000
-25.023152, 20.700951, 29.375000
-25.023152, 20.700951, 29.500000
-25.134366, 20.792956, 29.625000
-25.245580, 20.884960, 29.750000
-25.356794, 20.976964, 29.875000
-25.356794, 20.976964, 30.000000
-25.468008, 21.068968, 30.125000
-25.579222, 21.160972, 30.250000
-25.579222, 21.160972, 30.375000
-25.690436, 21.252977, 30.500000
-25.801650, 21.344981, 30.625000
-25.801650, 21.344981, 30.750000
-25.912864, 21.436985, 30.875000
-26.024078, 21.528989, 31.000000
-26.024078, 21.528989, 31.125000
-26.135292, 21.620994, 31.250000
-26.135292, 21.620994, 31.375000
-26.246506, 21.712998, 31.500000
-26.246506, 21.712998, 31.625000
-26.357720, 21.805002, 31.750000
-26.468934, 21.897006, 31.875000
-26.468934, 21.897006, 32.000000
-26.580148, 21.989010, 32.125000
-26.691362, 22.081015, 32.250000
-26.691362, 22.081015, 32.375000
-26.691362, 22.081015, 32.500000
-26.802576, 22.173019, 32.625000
-26.802576, 22.173019, 32.750000
-26.913790, 22.265023, 32.875000
-27.025004, 22.357027, 33.000000
-27.025004, 22.357027, 33.125000
-27.136218, 22.449032, 33.250000
-27.136218, 22.449032, 33.375000
-27.247432, 22.541036, 33.500000
-27.247432, 22.541036, 33.625000
-27.358646, 22.633040, 33.750000
-27.358646, 22.633040, 33.875000
-27.358646, 22.633040, 34.000000
-27.358646, 22.633040, 34.125000
-27.581074, 22.817049, 34.250000
-27.581074, 22.817049, 34.375000
-27.581074, 22.817049, 34.500000
-27.692288, 22.909053, 34.625000
-27.803502, 23.001057, 34.750000
-27.803502, 23.001057, 34.875000
-27.803502, 23.001057, 35.000000
-27.914716, 23.093061, 35.125000
-27.914716, 23.093061, 35.250000
-27.914716, 23.093061, 35.375000
-28.025930, 23.185065, 35.500000
-28.025930, 23.185065, 35.625000
-28.137144, 23.277070, 35.750000
-28.137144, 23.277070, 35.875000
-28.248358, 23.369074, 36.000000
-28.248358, 23.369074, 36.125000
-28.359572, 23.461078, 36.250000
-28.359572, 23.461078, 36.375000
-28.359572, 23.461078, 36.500000
-28.470786, 23.553082, 36.625000
-28.470786, 23.553082, 36.750000
-28.582000, 23.645087, 36.875000
-28.582000, 23.645087, 37.000000
-28.582000, 23.645087, 37.125000
-28.693214, 23.737091, 37.250000
-28.693214, 23.737091, 37.375000
-28.804428, 23.829095, 37.500000
-28.804428, 23.829095, 37.625000
-28.804428, 23.829095, 37.750000
-28.915642, 23.921099, 37.875000
-28.915642, 23.921099, 38.000000
-28.915642, 23.921099, 38.125000
-29.026856, 24.013104, 38.250000
-29.026856, 24.013104, 38.375000
-29.026856, 24.013104, 38.500000
-29.026856, 24.013104, 38.625000
-29.138070, 24.105108, 38.750000
-29.138070, 24.105108, 38.875000
-29.249284, 24.197112, 39.000000
-29.138070, 24.105108, 39.125000
-29.138070, 24.105108, 39.250000
-29.138070, 24.105108, 39.375000
-29.249284, 24.197112, 39.500000
-29.249284, 24.197112, 39.625000
-29.360498, 24.289116, 39.750000
-29.360498, 24.289116, 39.875000
-29.360498, 24.289116, 40.000000
-29.360498, 24.289116, 40.125000
-29.471712, 24.381120, 40.250000
-29.471712, 24.381120, 40.375000
-29.471712, 24.381120, 40.500000
-29.471712, 24.381120, 40.625000
-29.582926, 24.473125, 40.750000
-29.582926, 24.473125, 40.875000
-29.582926, 24.473125, 41.000000
-29.582926, 24.473125, 41.125000
-29.582926, 24.473125, 41.250000
-29.694140, 24.565129, 41.375000
-29.694140, 24.565129, 41.500000
-29.694140, 24.565129, 41.625000
-29.694140, 24.565129, 41.750000
-29.805354, 24.657133, 41.875000
-29.805354, 24.657133, 42.000000
-29.805354, 24.657133, 42.125000
-29.805354, 24.657133, 42.250000
-29.805354, 24.657133, 42.375000
-29.805354, 24.657133, 42.500000
-29.916568, 24.749137, 42.625000
-29.916568, 24.749137, 42.750000
-30.027782, 24.841142, 42.875000
-29.916568, 24.749137, 43.000000
-30.027782, 24.841142, 43.125000
-30.138996, 24.933146, 43.250000
-30.027782, 24.841142, 43.375000
-30.027782, 24.841142, 43.500000
-30.027782, 24.841142, 43.625000
-30.027782, 24.841142, 43.750000
-30.027782, 24.841142, 43.875000
-30.138996, 24.933146, 44.000000
-30.138996, 24.933146, 44.125000
-30.138996, 24.933146, 44.250000
-30.138996, 24.933146, 44.375000
-30.138996, 24.933146, 44.500000
-30.250210, 25.025150, 44.625000
-30.250210, 25.025150, 44.750000
-30.250210, 25.025150, 44.875000
-30.250210, 25.025150, 45.000000
-30.250210, 25.025150, 45.125000
-30.250210, 25.025150, 45.250000
-30.250210, 25.025150, 45.375000
-30.250210, 25.025150, 45.500000
-30.250210, 25.025150, 45.625000
-30.250210, 25.025150, 45.750000
-30.250210, 25.025150, 45.875000
-30.250210, 25.025150, 46.000000
-30.250210, 25.025150, 46.125000
-30.361424, 25.117154, 46.250000
-30.361424, 25.117154, 46.375000
-30.250210, 25.025150, 46.500000
-30.250210, 25.025150, 46.625000
-30.361424, 25.117154, 46.750000
-30.361424, 25.117154, 46.875000
-30.361424, 25.117154, 47.000000
-30.361424, 25.117154, 47.125000
-30.361424, 25.117154, 47.250000
-30.361424, 25.117154, 47.375000
-30.361424, 25.117154, 47.500000
-30.361424, 25.117154, 47.625000
-30.361424, 25.117154, 47.750000
-30.361424, 25.117154, 47.875000
-30.361424, 25.117154, 48.000000
-30.361424, 25.117154, 48.125000
-30.361424, 25.117154, 48.250000
-30.361424, 25.117154, 48.375000
-30.361424, 25.117154, 48.500000
-30.361424, 25.117154, 48.625000
-30.361424, 25.117154, 48.750000
-30.361424, 25.117154, 48.875000
-30.361424, 25.117154, 49.000000
-30.361424, 25.117154, 49.125000
-30.361424, 25.117154, 49.250000
-30.361424, 25.117154, 49.375000
-30.361424, 25.117154, 49.500000
-30.361424, 25.117154, 49.625000
-30.361424, 25.117154, 49.750000
-30.361424, 25.117154, 49.875000
-30.361424, 25.117154, 50.000000
-30.361424, 25.117154, 50.125000
-30.361424, 25.117154, 50.250000
-30.361424, 25.117154, 50.375000
-30.361424, 25.117154, 50.500000
-30.361424, 25.117154, 50.625000
-30.361424, 25.117154, 50.750000
-30.361424, 25.117154, 50.875000
-30.361424, 25.117154, 51.000000
-30.361424, 25.117154, 51.125000
-30.361424, 25.117154, 51.250000
-30.361424, 25.117154, 51.375000
-30.361424, 25.117154, 51.500000
-30.361424, 25.117154, 51.625000
-30.361424, 25.117154, 51.750000
-30.361424, 25.117154, 51.875000
-30.361424, 25.117154, 52.000000
-30.250210, 25.025150, 52.125000
-30.250210, 25.025150, 52.250000
-30.250210, 25.025150, 52.375000
-30.250210, 25.025150, 52.500000
-30.250210, 25.025150, 52.625000
-30.250210, 25.025150, 52.750000
-30.250210, 25.025150, 52.875000
-30.138996, 24.933146, 53.000000
-30.138996, 24.933146, 53.125000
-30.138996, 24.933146, 53.250000
-30.138996, 24.933146, 53.375000
-30.138996, 24.933146, 53.500000
-30.138996, 24.933146, 53.625000
-30.027782, 24.841142, 53.750000
-30.027782, 24.841142, 53.875000
-30.027782, 24.841142, 54.000000
-30.027782, 24.841142, 54.125000
-30.027782, 24.841142, 54.250000
-29.916568, 24.749137, 54.375000
-29.916568, 24.749137, 54.500000
-29.916568, 24.749137, 54.625000
-29.916568, 24.749137, 54.750000
-29.916568, 24.749137, 54.875000
-29.916568, 24.749137, 55.000000
-29.916568, 24.749137, 55.125000
-29.805354, 24.657133, 55.250000
-29.805354, 24.657133, 55.375000
-29.805354, 24.657133, 55.500000
-29.805354, 24.657133, 55.625000
-29.694140, 24.565129, 55.750000
-29.694140, 24.565129, 55.875000
-29.694140, 24.565129, 56.000000
-29.582926, 24.473125, 56.125000
-29.582926, 24.473125, 56.250000
-29.582926, 24.473125, 56.375000
-29.582926, 24.473125, 56.500000
-29.471712, 24.381120, 56.625000
-29.471712, 24.381120, 56.750000
-29.471712, 24.381120, 56.875000
-29.471712, 24.381120, 57.000000
-29.360498, 24.289116, 57.125000
-29.360498, 24.289116, 57.250000
-29.360498, 24.289116, 57.375000
-29.249284, 24.197112, 57.500000
-29.249284, 24.197112, 57.625000
-29.249284, 24.197112, 57.750000
-29.249284, 24.197112, 57.875000
-29.138070, 24.105108, 58.000000
-29.138070, 24.105108, 58.125000
-29.138070, 24.105108, 58.250000
-29.138070, 24.105108, 58.375000
-29.026856, 24.013104, 58.500000
-29.026856, 24.013104, 58.625000
-28.915642, 23.921099, 58.750000
-28.915642, 23.921099, 58.875000
-28.915642, 23.921099, 59.000000
-28.915642, 23.921099, 59.125000
-28.804428, 23.829095, 59.250000
-28.804428, 23.829095, 59.375000
-28.804428, 23.829095, 59.500000
-28.693214, 23.737091, 59.625000
-28.693214, 23.737091, 59.750000
-28.582000, 23.645087, 59.875000
-28.582000, 23.645087, 60.000000
-28.470786, 23.553082, 60.125000
-28.470786, 23.553082, 60.250000
-28.359572, 23.461078, 60.375000
-28.359572, 23.461078, 60.500000
-28.359572, 23.461078, 60.625000
-28.248358, 23.369074, 60.750000
-28.248358, 23.369074, 60.875000
-28.137144, 23.277070, 61.000000
-28.137144, 23.277070, 61.125000
-28.025930, 23.185065, 61.250000
-28.025930, 23.185065, 61.375000
-27.914716, 23.093061, 61.500000
-27.914716, 23.093061, 61.625000
-27.914716, 23.093061, 61.750000
-27.803502, 23.001057, 61.875000
-27.803502, 23.001057, 62.000000
-27.692288, 22.909053, 62.125000
-27.581074, 22.817049, 62.250000
-27.581074, 22.817049, 62.375000
-27.469860, 22.725044, 62.500000
-27.469860, 22.725044, 62.625000
-27.358646, 22.633040, 62.750000
-27.358646, 22.633040, 62.875000
-27.247432, 22.541036, 63.000000
-27.358646, 22.633040, 63.125000
-27.136218, 22.449032, 63.250000
-27.025004, 22.357027, 63.375000
-27.025004, 22.357027, 63.500000
-26.913790, 22.265023, 63.625000
-26.802576, 22.173019, 63.750000
-26.802576, 22.173019, 63.875000
-26.802576, 22.173019, 64.000000
-26.691362, 22.081015, 64.125000
-26.580148, 21.989010, 64.250000
-26.580148, 21.989010, 64.375000
-26.468934, 21.897006, 64.500000
-26.246506, 21.712998, 64.625000
-26.246506, 21.712998, 64.750000
-26.357720, 21.805002, 64.875000
-22.910085, 18.952871, 68.375000
-22.910085, 18.952871, 68.500000
-22.910085, 18.952871, 68.625000
-22.910085, 18.952871, 68.750000
-22.910085, 18.952871, 68.875000
-22.576443, 18.676858, 69.000000
-22.465229, 18.584854, 69.125000
-20.685805, 17.112786, 71.000000
-20.685805, 17.112786, 71.125000
-20.463377, 16.928778, 71.375000
-20.018521, 16.560761, 71.875000
-20.018521, 16.560761, 72.000000
-19.907307, 16.468757, 72.125000
-19.796093, 16.376753, 72.250000
-19.684879, 16.284748, 72.375000
-19.684879, 16.284748, 72.500000
-19.573665, 16.192744, 72.625000
-19.573665, 16.192744, 72.750000
-19.573665, 16.192744, 72.875000
-19.573665, 16.192744, 73.000000
-19.573665, 16.192744, 73.125000
-19.573665, 16.192744, 73.250000
-19.573665, 16.192744, 73.375000
-19.462451, 16.100740, 73.500000
-19.573665, 16.192744, 73.625000
-19.684879, 16.284748, 73.750000
-19.573665, 16.192744, 73.875000
-19.684879, 16.284748, 74.000000
-19.684879, 16.284748, 74.125000
-19.796093, 16.376753, 74.250000
-19.907307, 16.468757, 74.375000
-19.907307, 16.468757, 74.500000
-20.018521, 16.560761, 74.625000
-20.240949, 16.744769, 74.750000
-20.352163, 16.836774, 74.875000
-20.352163, 16.836774, 75.000000
-20.463377, 16.928778, 75.125000
-20.685805, 17.112786, 75.250000
-20.797019, 17.204791, 75.375000
-20.908233, 17.296795, 75.500000
-21.019447, 17.388799, 75.625000
-21.241875, 17.572808, 75.750000
-21.241875, 17.572808, 75.875000
-21.464303, 17.756816, 76.000000
-21.575517, 17.848820, 76.125000
-21.797945, 18.032829, 76.250000
-21.909159, 18.124833, 76.375000
-22.020373, 18.216837, 76.500000
-22.242801, 18.400846, 76.625000
-22.354015, 18.492850, 76.750000
-22.465229, 18.584854, 76.875000
-22.687657, 18.768863, 77.000000
-22.798871, 18.860867, 77.125000
-23.021299, 19.044875, 77.250000
-23.132513, 19.136879, 77.375000
-23.243727, 19.228884, 77.500000
-23.354941, 19.320888, 77.625000
-23.577369, 19.504896, 77.750000
-23.688583, 19.596901, 77.875000
-23.911012, 19.780909, 78.000000
-24.022226, 19.872913, 78.125000
-24.133440, 19.964917, 78.250000
-24.355868, 20.148926, 78.375000
-24.467082, 20.240930, 78.500000
-24.578296, 20.332934, 78.625000
-24.689510, 20.424939, 78.750000
-24.911938, 20.608947, 78.875000
-24.911938, 20.608947, 79.000000
-25.134366, 20.792956, 79.125000
-25.245580, 20.884960, 79.250000
-25.245580, 20.884960, 79.375000
-25.356794, 20.976964, 79.500000
-25.468008, 21.068968, 79.625000
-25.468008, 21.068968, 79.750000
-25.579222, 21.160972, 79.875000
-25.579222, 21.160972, 80.000000
-21.897418, 16.985379, 24.875000
-23.037909, 17.870034, 25.250000
-23.037909, 17.870034, 25.375000
-23.151958, 17.958499, 25.500000
-23.037909, 17.870034, 25.625000
-23.151958, 17.958499, 25.750000
-23.151958, 17.958499, 25.875000
-23.380056, 18.135430, 26.000000
-23.380056, 18.135430, 26.125000
-23.494105, 18.223896, 26.250000
-23.722203, 18.400827, 26.375000
-23.722203, 18.400827, 26.500000
-23.836252, 18.489292, 26.625000
-23.950301, 18.577758, 26.750000
-23.950301, 18.577758, 26.875000
-24.064350, 18.666223, 27.000000
-24.178399, 18.754689, 27.125000
-24.292448, 18.843154, 27.250000
-24.292448, 18.843154, 27.375000
-24.520546, 19.020085, 27.500000
-24.520546, 19.020085, 27.625000
-24.634595, 19.108551, 27.750000
-24.748644, 19.197016, 27.875000
-24.862693, 19.285482, 28.000000
-24.862693, 19.285482, 28.125000
-24.976742, 19.373947, 28.250000
-25.090792, 19.462413, 28.375000
-25.204841, 19.550878, 28.500000
-25.204841, 19.550878, 28.625000
-25.318890, 19.639344, 28.750000
-25.318890, 19.639344, 28.875000
-25.432939, 19.727809, 29.000000
-25.546988, 19.816275, 29.125000
-25.661037, 19.904740, 29.250000
-25.661037, 19.904740, 29.375000
-25.775086, 19.993206, 29.500000
-25.775086, 19.993206, 29.625000
-25.889135, 20.081671, 29.750000
-26.003184, 20.170137, 29.875000
-26.117233, 20.258603, 30.000000
-26.117233, 20.258603, 30.125000
-26.231282, 20.347068, 30.250000
-26.231282, 20.347068, 30.375000
-26.345331, 20.435534, 30.500000
-26.459380, 20.523999, 30.625000
-26.459380, 20.523999, 30.750000
-26.573429, 20.612465, 30.875000
-26.687478, 20.700930, 31.000000
-26.687478, 20.700930, 31.125000
-26.801527, 20.789396, 31.250000
-26.801527, 20.789396, 31.375000
-26.915576, 20.877861, 31.500000
-27.029625, 20.966327, 31.625000
-27.029625, 20.966327, 31.750000
-27.143674, 21.054792, 31.875000
-27.257723, 21.143258, 32.000000
-27.257723, 21.143258, 32.125000
-27.371773, 21.231723, 32.250000
-27.371773, 21.231723, 32.375000
-27.371773, 21.231723, 32.500000
-27.485822, 21.320189, 32.625000
-27.599871, 21.408654, 32.750000
-27.599871, 21.408654, 32.875000
-27.713920, 21.497120, 33.000000
-27.713920, 21.497120, 33.125000
-27.827969, 21.585585, 33.250000
-27.942018, 21.674051, 33.375000
-27.942018, 21.674051, 33.500000
-27.942018, 21.674051, 33.625000
-28.056067, 21.762516, 33.750000
-28.056067, 21.762516, 33.875000
-28.056067, 21.762516, 34.000000
-28.170116, 21.850982, 34.125000
-28.284165, 21.939447, 34.250000
-28.284165, 21.939447, 34.375000
-28.284165, 21.939447, 34.500000
-28.398214, 22.027913, 34.625000
-28.398214, 22.027913, 34.750000
-28.512263, 22.116378, 34.875000
-28.512263, 22.116378, 35.000000
-28.626312, 22.204844, 35.125000
-28.626312, 22.204844, 35.250000
-28.740361, 22.293309, 35.375000
-28.740361, 22.293309, 35.500000
-28.854410, 22.381775, 35.625000
-28.854410, 22.381775, 35.750000
-28.854410, 22.381775, 35.875000
-28.968459, 22.470240, 36.000000
-28.968459, 22.470240, 36.125000
-29.082508, 22.558706, 36.250000
-29.082508, 22.558706, 36.375000
-29.082508, 22.558706, 36.500000
-29.196557, 22.647171, 36.625000
-29.196557, 22.647171, 36.750000
-29.310606, 22.735637, 36.875000
-29.310606, 22.735637, 37.000000
-29.310606, 22.735637, 37.125000
-29.310606, 22.735637, 37.250000
-29.424655, 22.824102, 37.375000
-29.424655, 22.824102, 37.500000
-29.538705, 22.912568, 37.625000
-29.538705, 22.912568, 37.750000
-29.652754, 23.001033, 37.875000
-29.652754, 23.001033, 38.000000
-29.652754, 23.001033, 38.125000
-29.766803, 23.089499, 38.250000
-29.766803, 23.089499, 38.375000
-29.766803, 23.089499, 38.500000
-29.766803, 23.089499, 38.625000
-29.880852, 23.177964, 38.750000
-29.880852, 23.177964, 38.875000
-29.880852, 23.177964, 39.000000
-29.880852, 23.177964, 39.125000
-29.994901, 23.266430, 39.250000
-29.994901, 23.266430, 39.375000
-30.108950, 23.354895, 39.500000
-29.994901, 23.266430, 39.625000
-30.108950, 23.354895, 39.750000
-30.108950, 23.354895, 39.875000
-30.108950, 23.354895, 40.000000
-30.108950, 23.354895, 40.125000
-30.222999, 23.443361, 40.250000
-30.222999, 23.443361, 40.375000
-30.222999, 23.443361, 40.500000
-30.222999, 23.443361, 40.625000
-30.337048, 23.531826, 40.750000
-30.337048, 23.531826, 40.875000
-30.337048, 23.531826, 41.000000
-30.337048, 23.531826, 41.125000
-30.337048, 23.531826, 41.250000
-30.451097, 23.620292, 41.375000
-30.451097, 23.620292, 41.500000
-30.565146, 23.708758, 41.625000
-30.565146, 23.708758, 41.750000
-30.565146, 23.708758, 41.875000
-30.565146, 23.708758, 42.000000
-30.565146, 23.708758, 42.125000
-30.565146, 23.708758, 42.250000
-30.679195, 23.797223, 42.375000
-30.679195, 23.797223, 42.500000
-30.679195, 23.797223, 42.625000
-30.679195, 23.797223, 42.750000
-30.679195, 23.797223, 42.875000
-30.793244, 23.885689, 43.000000
-30.793244, 23.885689, 43.125000
-30.793244, 23.885689, 43.250000
-30.793244, 23.885689, 43.375000
-30.793244, 23.885689, 43.500000
-30.793244, 23.885689, 43.625000
-30.793244, 23.885689, 43.750000
-30.907293, 23.974154, 43.875000
-30.907293, 23.974154, 44.000000
-30.907293, 23.974154, 44.125000
-30.907293, 23.974154, 44.250000
-30.907293, 23.974154, 44.375000
-31.021342, 24.062620, 44.500000
-31.021342, 24.062620, 44.625000
-31.021342, 24.062620, 44.750000
-31.021342, 24.062620, 44.875000
-31.021342, 24.062620, 45.000000
-31.021342, 24.062620, 45.125000
-31.021342, 24.062620, 45.250000
-31.021342, 24.062620, 45.375000
-31.021342, 24.062620, 45.500000
-31.021342, 24.062620, 45.625000
-31.021342, 24.062620, 45.750000
-31.021342, 24.062620, 45.875000
-31.021342, 24.062620, 46.000000
-31.021342, 24.062620, 46.125000
-31.021342, 24.062620, 46.250000
-31.135391, 24.151085, 46.375000
-31.021342, 24.062620, 46.500000
-31.135391, 24.151085, 46.625000
-31.135391, 24.151085, 46.750000
-31.135391, 24.151085, 46.875000
-31.135391, 24.151085, 47.000000
-31.135391, 24.151085, 47.125000
-31.135391, 24.151085, 47.250000
-31.135391, 24.151085, 47.375000
-31.135391, 24.151085, 47.500000
-31.135391, 24.151085, 47.625000
-31.135391, 24.151085, 47.750000
-31.135391, 24.151085, 47.875000
-31.135391, 24.151085, 48.000000
-31.135391, 24.151085, 48.125000
-31.135391, 24.151085, 48.250000
-31.135391, 24.151085, 48.375000
-31.135391, 24.151085, 48.500000
-31.135391, 24.151085, 48.625000
-31.135391, 24.151085, 48.750000
-31.135391, 24.151085, 48.875000
-31.135391, 24.151085, 49.000000
-31.135391, 24.151085, 49.125000
-31.135391, 24.151085, 49.250000
-31.135391, 24.151085, 49.375000
-31.135391, 24.151085, 49.500000
-31.135391, 24.151085, 49.625000
-31.249440, 24.239551, 49.750000
-31.249440, 24.239551, 49.875000
-31.249440, 24.239551, 50.000000
-31.249440, 24.239551, 50.125000
-31.135391, 24.151085, 50.250000
-31.135391, 24.151085, 50.375000
-31.135391, 24.151085, 50.500000
-31.135391, 24.151085, 50.625000
-31.135391, 24.151085, 50.750000
-31.135391, 24.151085, 50.875000
-31.135391, 24.151085, 51.000000
-31.135391, 24.151085, 51.125000
-31.135391, 24.151085, 51.250000
-31.135391, 24.151085, 51.375000
-31.135391, 24.151085, 51.500000
-31.135391, 24.151085, 51.625000
-31.021342, 24.062620, 51.750000
-31.021342, 24.062620, 51.875000
-31.021342, 24.062620, 52.000000
-31.021342, 24.062620, 52.125000
-31.021342, 24.062620, 52.250000
-31.021342, 24.062620, 52.375000
-31.021342, 24.062620, 52.500000
-31.021342, 24.062620, 52.625000
-31.021342, 24.062620, 52.750000
-31.021342, 24.062620, 52.875000
-30.907293, 23.974154, 53.000000
-30.907293, 23.974154, 53.125000
-30.907293, 23.974154, 53.250000
-30.907293, 23.974154, 53.375000
-30.907293, 23.974154, 53.500000
-30.907293, 23.974154, 53.625000
-30.793244, 23.885689, 53.750000
-30.793244, 23.885689, 53.875000
-30.793244, 23.885689, 54.000000
-30.793244, 23.885689, 54.125000
-30.793244, 23.885689, 54.250000
-30.793244, 23.885689, 54.375000
-30.679195, 23.797223, 54.500000
-30.679195, 23.797223, 54.625000
-30.679195, 23.797223, 54.750000
-30.679195, 23.797223, 54.875000
-30.565146, 23.708758, 55.000000
-30.565146, 23.708758, 55.125000
-30.565146, 23.708758, 55.250000
-30.565146, 23.708758, 55.375000
-30.565146, 23.708758, 55.500000
-30.451097, 23.620292, 55.625000
-30.451097, 23.620292, 55.750000
-30.451097, 23.620292, 55.875000
-30.451097, 23.620292, 56.000000
-30.451097, 23.620292, 56.125000
-30.337048, 23.531826, 56.250000
-30.337048, 23.531826, 56.375000
-30.222999, 23.443361, 56.500000
-30.222999, 23.443361, 56.625000
-30.222999, 23.443361, 56.750000
-30.222999, 23.443361, 56.875000
-30.222999, 23.443361, 57.000000
-30.108950, 23.354895, 57.125000
-30.108950, 23.354895, 57.250000
-30.108950, 23.354895, 57.375000
-30.108950, 23.354895, 57.500000
-29.994901, 23.266430, 57.625000
-29.994901, 23.266430, 57.750000
-29.994901, 23.266430, 57.875000
-29.994901, 23.266430, 58.000000
-29.880852, 23.177964, 58.125000
-29.880852, 23.177964, 58.250000
-29.880852, 23.177964, 58.375000
-29.766803, 23.089499, 58.500000
-29.766803, 23.089499, 58.625000
-29.652754, 23.001033, 58.750000
-29.652754, 23.001033, 58.875000
-29.652754, 23.001033, 59.000000
-29.538705, 22.912568, 59.125000
-29.538705, 22.912568, 59.250000
-29.538705, 22.912568, 59.375000
-29.424655, 22.824102, 59.500000
-29.424655, 22.824102, 59.625000
-29.310606, 22.735637, 59.750000
-29.310606, 22.735637, 59.875000
-29.196557, 22.647171, 60.000000
-29.196557, 22.647171, 60.125000
-29.082508, 22.558706, 60.250000
-29.082508, 22.558706, 60.375000
-29.196557, 22.647171, 60.500000
-28.968459, 22.470240, 60.625000
-28.968459, 22.470240, 60.750000
-29.082508, 22.558706, 60.875000
-28.854410, 22.381775, 61.000000
-28.854410, 22.381775, 61.125000
-28.740361, 22.293309, 61.250000
-28.740361, 22.293309, 61.375000
-28.626312, 22.204844, 61.500000
-28.626312, 22.204844, 61.625000
-28.512263, 22.116378, 61.750000
-28.512263, 22.116378, 61.875000
-28.512263, 22.116378, 62.000000
-28.398214, 22.027913, 62.125000
-28.284165, 21.939447, 62.250000
-28.284165, 21.939447, 62.375000
-28.170116, 21.850982, 62.500000
-28.170116, 21.850982, 62.625000
-28.056067, 21.762516, 62.750000
-28.056067, 21.762516, 62.875000
-28.056067, 21.762516, 63.000000
-27.942018, 21.674051, 63.125000
-27.827969, 21.585585, 63.250000
-27.827969, 21.585585, 63.375000
-27.713920, 21.497120, 63.500000
-27.599871, 21.408654, 63.625000
-27.485822, 21.320189, 63.750000
-27.485822, 21.320189, 63.875000
-27.371773, 21.231723, 64.000000
-27.371773, 21.231723, 64.125000
-27.257723, 21.143258, 64.250000
-27.029625, 20.966327, 64.375000
-27.029625, 20.966327, 64.500000
-27.029625, 20.966327, 64.625000
-26.915576, 20.877861, 64.750000
-26.687478, 20.700930, 64.875000
-23.494105, 18.223896, 68.250000
-23.380056, 18.135430, 68.375000
-23.380056, 18.135430, 68.500000
-23.608154, 18.312361, 68.625000
-23.494105, 18.223896, 68.750000
-23.494105, 18.223896, 68.875000
-23.151958, 17.958499, 69.000000
-23.037909, 17.870034, 69.125000
-22.923860, 17.781568, 69.250000
-21.213124, 16.454585, 71.000000
-20.642878, 16.012258, 71.875000
-20.528829, 15.923792, 72.000000
-20.300731, 15.746861, 72.125000
-20.186682, 15.658396, 72.250000
-20.186682, 15.658396, 72.375000
-20.072633, 15.569930, 72.500000
-20.072633, 15.569930, 72.625000
-20.072633, 15.569930, 72.750000
-20.072633, 15.569930, 72.875000
-20.072633, 15.569930, 73.000000
-20.072633, 15.569930, 73.125000
-19.958584, 15.481465, 73.250000
-20.072633, 15.569930, 73.375000
-19.958584, 15.481465, 73.500000
-20.072633, 15.569930, 73.625000
-20.072633, 15.569930, 73.750000
-20.072633, 15.569930, 73.875000
-20.186682, 15.658396, 74.000000
-20.300731, 15.746861, 74.125000
-20.300731, 15.746861, 74.250000
-20.414780, 15.835327, 74.375000
-20.528829, 15.923792, 74.500000
-20.528829, 15.923792, 74.625000
-20.642878, 16.012258, 74.750000
-20.756928, 16.100723, 74.875000
-20.870977, 16.189189, 75.000000
-21.099075, 16.366120, 75.125000
-21.099075, 16.366120, 75.250000
-21.327173, 16.543051, 75.375000
-21.441222, 16.631516, 75.500000
-21.555271, 16.719982, 75.625000
-21.783369, 16.896913, 75.750000
-21.897418, 16.985379, 75.875000
-22.011467, 17.073844, 76.000000
-22.125516, 17.162310, 76.125000
-22.353614, 17.339241, 76.250000
-22.467663, 17.427706, 76.375000
-22.581712, 17.516172, 76.500000
-22.695761, 17.604637, 76.625000
-22.923860, 17.781568, 76.750000
-23.037909, 17.870034, 76.875000
-23.266007, 18.046965, 77.000000
-23.380056, 18.135430, 77.125000
-23.494105, 18.223896, 77.250000
-23.722203, 18.400827, 77.375000
-23.836252, 18.489292, 77.500000
-24.064350, 18.666223, 77.625000
-24.178399, 18.754689, 77.750000
-24.292448, 18.843154, 77.875000
-24.520546, 19.020085, 78.000000
-24.634595, 19.108551, 78.125000
-24.862693, 19.285482, 78.250000
-24.976742, 19.373947, 78.375000
-25.090792, 19.462413, 78.500000
-25.204841, 19.550878, 78.625000
-25.318890, 19.639344, 78.750000
-25.546988, 19.816275, 78.875000
-25.661037, 19.904740, 79.000000
-25.661037, 19.904740, 79.125000
-25.775086, 19.993206, 79.250000
-25.889135, 20.081671, 79.375000
-26.117233, 20.258603, 79.500000
-26.117233, 20.258603, 79.625000
-26.231282, 20.347068, 79.750000
-26.117233, 20.258603, 79.875000
-26.231282, 20.347068, 80.000000
-22.653680, 16.458862, 25.000000
-23.587852, 17.137578, 25.250000
-23.354309, 16.967899, 25.375000
-23.587852, 17.137578, 25.500000
-23.587852, 17.137578, 25.625000
-23.704624, 17.222417, 25.750000
-23.704624, 17.222417, 25.875000
-23.938167, 17.392096, 26.000000
-23.938167, 17.392096, 26.125000
-24.054938, 17.476936, 26.250000
-24.171710, 17.561775, 26.375000
-24.405253, 17.731454, 26.500000
-24.522024, 17.816294, 26.625000
-24.522024, 17.816294, 26.750000
-24.522024, 17.816294, 26.875000
-24.638796, 17.901133, 27.000000
-24.755568, 17.985973, 27.125000
-24.755568, 17.985973, 27.250000
-24.872339, 18.070812, 27.375000
-24.989111, 18.155652, 27.500000
-25.105882, 18.240491, 27.625000
-25.222654, 18.325331, 27.750000
-25.339425, 18.410170, 27.875000
-25.456197, 18.495010, 28.000000
-25.456197, 18.495010, 28.125000
-25.572968, 18.579849, 28.250000
-25.689740, 18.664689, 28.375000
-25.806511, 18.749528, 28.500000
-25.806511, 18.749528, 28.625000
-25.923283, 18.834368, 28.750000
-26.040055, 18.919207, 28.875000
-26.040055, 18.919207, 29.000000
-26.156826, 19.004047, 29.125000
-26.273598, 19.088886, 29.250000
-26.273598, 19.088886, 29.375000
-26.390369, 19.173726, 29.500000
-26.390369, 19.173726, 29.625000
-26.507141, 19.258565, 29.750000
-26.623912, 19.343404, 29.875000
-26.740684, 19.428244, 30.000000
-26.740684, 19.428244, 30.125000
-26.857455, 19.513083, 30.250000
-26.857455, 19.513083, 30.375000
-26.974227, 19.597923, 30.500000
-27.090998, 19.682762, 30.625000
-27.090998, 19.682762, 30.750000
-27.207770, 19.767602, 30.875000
-27.207770, 19.767602, 31.000000
-27.324541, 19.852441, 31.125000
-27.441313, 19.937281, 31.250000
-27.441313, 19.937281, 31.375000
-27.558085, 20.022120, 31.500000
-27.674856, 20.106960, 31.625000
-27.674856, 20.106960, 31.750000
-27.791628, 20.191799, 31.875000
-27.791628, 20.191799, 32.000000
-27.908399, 20.276639, 32.125000
-27.908399, 20.276639, 32.250000
-28.025171, 20.361478, 32.375000
-28.025171, 20.361478, 32.500000
-28.141942, 20.446318, 32.625000
-28.141942, 20.446318, 32.750000
-28.258714, 20.531157, 32.875000
-28.375485, 20.615997, 33.000000
-28.375485, 20.615997, 33.125000
-28.492257, 20.700836, 33.250000
-28.492257, 20.700836, 33.375000
-28.609028, 20.785676, 33.500000
-28.609028, 20.785676, 33.625000
-28.725800, 20.870515, 33.750000
-28.725800, 20.870515, 33.875000
-28.842572, 20.955355, 34.000000
-28.842572, 20.955355, 34.125000
-28.959343, 21.040194, 34.250000
-28.959343, 21.040194, 34.375000
-28.959343, 21.040194, 34.500000
-29.076115, 21.125034, 34.625000
-29.076115, 21.125034, 34.750000
-29.192886, 21.209873, 34.875000
-29.192886, 21.209873, 35.000000
-29.309658, 21.294713, 35.125000
-29.309658, 21.294713, 35.250000
-29.426429, 21.379552, 35.375000
-29.426429, 21.379552, 35.500000
-29.543201, 21.464392, 35.625000
-29.543201, 21.464392, 35.750000
-29.543201, 21.464392, 35.875000
-29.659972, 21.549231, 36.000000
-29.659972, 21.549231, 36.125000
-29.776744, 21.634071, 36.250000
-29.776744, 21.634071, 36.375000
-29.776744, 21.634071, 36.500000
-29.893515, 21.718910, 36.625000
-29.893515, 21.718910, 36.750000
-30.010287, 21.803750, 36.875000
-30.010287, 21.803750, 37.000000
-30.010287, 21.803750, 37.125000
-30.010287, 21.803750, 37.250000
-30.127059, 21.888589, 37.375000
-30.127059, 21.888589, 37.500000
-30.243830, 21.973429, 37.625000
-30.243830, 21.973429, 37.750000
-30.360602, 22.058268, 37.875000
-30.360602, 22.058268, 38.000000
-30.360602, 22.058268, 38.125000
-30.477373, 22.143108, 38.250000
-30.477373, 22.143108, 38.375000
-30.477373, 22.143108, 38.500000
-30.477373, 22.143108, 38.625000
-30.594145, 22.227947, 38.750000
-30.594145, 22.227947, 38.875000
-30.594145, 22.227947, 39.000000
-30.710916, 22.312787, 39.125000
-30.710916, 22.312787, 39.250000
-30.710916, 22.312787, 39.375000
-30.710916, 22.312787, 39.500000
-30.827688, 22.397626, 39.625000
-30.827688, 22.397626, 39.750000
-30.944459, 22.482466, 39.875000
-30.944459, 22.482466, 40.000000
-30.944459, 22.482466, 40.125000
-30.944459, 22.482466, 40.250000
-30.944459, 22.482466, 40.375000
-31.061231, 22.567305, 40.500000
-31.061231, 22.567305, 40.625000
-31.061231, 22.567305, 40.750000
-31.061231, 22.567305, 40.875000
-31.178002, 22.652145, 41.000000
-31.178002, 22.652145, 41.125000
-31.178002, 22.652145, 41.250000
-31.178002, 22.652145, 41.375000
-31.178002, 22.652145, 41.500000
-31.178002, 22.652145, 41.625000
-31.294774, 22.736984, 41.750000
-31.294774, 22.736984, 41.875000
-31.294774, 22.736984, 42.000000
-31.411546, 22.821824, 42.125000
-31.411546, 22.821824, 42.250000
-31.411546, 22.821824, 42.375000
-31.411546, 22.821824, 42.500000
-31.411546, 22.821824, 42.625000
-31.528317, 22.906663, 42.750000
-31.528317, 22.906663, 42.875000
-31.528317, 22.906663, 43.000000
-31.528317, 22.906663, 43.125000
-31.528317, 22.906663, 43.250000
-31.528317, 22.906663, 43.375000
-31.528317, 22.906663, 43.500000
-31.528317, 22.906663, 43.625000
-31.645089, 22.991503, 43.750000
-31.645089, 22.991503, 43.875000
-31.645089, 22.991503, 44.000000
-31.645089, 22.991503, 44.125000
-31.645089, 22.991503, 44.250000
-31.645089, 22.991503, 44.375000
-31.645089, 22.991503, 44.500000
-31.645089, 22.991503, 44.625000
-31.761860, 23.076342, 44.750000
-31.761860, 23.076342, 44.875000
-31.761860, 23.076342, 45.000000
-31.761860, 23.076342, 45.125000
-31.761860, 23.076342, 45.250000
-31.761860, 23.076342, 45.375000
-31.761860, 23.076342, 45.500000
-31.761860, 23.076342, 45.625000
-31.761860, 23.076342, 45.750000
-31.761860, 23.076342, 45.875000
-31.761860, 23.076342, 46.000000
-31.761860, 23.076342, 46.125000
-31.761860, 23.076342, 46.250000
-31.761860, 23.076342, 46.375000
-31.761860, 23.076342, 46.500000
-31.761860, 23.076342, 46.625000
-31.761860, 23.076342, 46.750000
-31.761860, 23.076342, 46.875000
-31.878632, 23.161182, 47.000000
-31.878632, 23.161182, 47.125000
-31.878632, 23.161182, 47.250000
-31.878632, 23.161182, 47.375000
-31.878632, 23.161182, 47.500000
-31.878632, 23.161182, 47.625000
-31.878632, 23.161182, 47.750000
-31.878632, 23.161182, 47.875000
-31.878632, 23.161182, 48.000000
-31.878632, 23.161182, 48.125000
-31.878632, 23.161182, 48.250000
-31.878632, 23.161182, 48.375000
-31.878632, 23.161182, 48.500000
-31.878632, 23.161182, 48.625000
-31.878632, 23.161182, 48.750000
-31.878632, 23.161182, 48.875000
-31.878632, 23.161182, 49.000000
-31.878632, 23.161182, 49.125000
-31.878632, 23.161182, 49.250000
-31.878632, 23.161182, 49.375000
-31.878632, 23.161182, 49.500000
-31.878632, 23.161182, 49.625000
-31.878632, 23.161182, 49.750000
-31.995403, 23.246021, 49.875000
-31.878632, 23.161182, 50.000000
-31.878632, 23.161182, 50.125000
-31.878632, 23.161182, 50.250000
-31.878632, 23.161182, 50.375000
-31.878632, 23.161182, 50.500000
-31.878632, 23.161182, 50.625000
-31.878632, 23.161182, 50.750000
-31.878632, 23.161182, 50.875000
-31.878632, 23.161182, 51.000000
-31.878632, 23.161182, 51.125000
-31.878632, 23.161182, 51.250000
-31.878632, 23.161182, 51.375000
-31.761860, 23.076342, 51.500000
-31.761860, 23.076342, 51.625000
-31.761860, 23.076342, 51.750000
-31.761860, 23.076342, 51.875000
-31.761860, 23.076342, 52.000000
-31.761860, 23.076342, 52.125000
-31.761860, 23.076342, 52.250000
-31.761860, 23.076342, 52.375000
-31.761860, 23.076342, 52.500000
-31.761860, 23.076342, 52.625000
-31.645089, 22.991503, 52.750000
-31.645089, 22.991503, 52.875000
-31.645089, 22.991503, 53.000000
-31.645089, 22.991503, 53.125000
-31.645089, 22.991503, 53.250000
-31.761860, 23.076342, 53.375000
-31.645089, 22.991503, 53.500000
-31.528317, 22.906663, 53.625000
-31.528317, 22.906663, 53.750000
-31.528317, 22.906663, 53.875000
-31.528317, 22.906663, 54.000000
-31.528317, 22.906663, 54.125000
-31.528317, 22.906663, 54.250000
-31.411546, 22.821824, 54.375000
-31.411546, 22.821824, 54.500000
-31.411546, 22.821824, 54.625000
-31.411546, 22.821824, 54.750000
-31.294774, 22.736984, 54.875000
-31.294774, 22.736984, 55.000000
-31.294774, 22.736984, 55.125000
-31.294774, 22.736984, 55.250000
-31.294774, 22.736984, 55.375000
-31.294774, 22.736984, 55.500000
-31.178002, 22.652145, 55.625000
-31.178002, 22.652145, 55.750000
-31.178002, 22.652145, 55.875000
-31.178002, 22.652145, 56.000000
