20.283673, 8.030874, 27.750000
20.159992, 7.981906, 27.875000
20.036311, 7.932937, 28.000000
20.036311, 7.932937, 28.125000
20.036311, 7.932937, 28.250000
19.912630, 7.883968, 28.375000
19.788949, 7.834999, 28.500000
19.665268, 7.786031, 28.625000
19.541588, 7.737062, 28.750000
19.541588, 7.737062, 28.875000
19.417907, 7.688093, 29.000000
19.294226, 7.639124, 29.125000
19.170545, 7.590156, 29.250000
19.170545, 7.590156, 29.375000
19.046864, 7.541187, 29.500000
18.923183, 7.492218, 29.625000
18.799502, 7.443249, 29.750000
18.799502, 7.443249, 29.875000
18.675821, 7.394281, 30.000000
18.552140, 7.345312, 30.125000
18.552140, 7.345312, 30.250000
18.428459, 7.296343, 30.375000
18.304778, 7.247374, 30.500000
18.181097, 7.198406, 30.625000
18.057416, 7.149437, 30.750000
18.057416, 7.149437, 30.875000
17.933735, 7.100468, 31.000000
17.810054, 7.051499, 31.125000
17.810054, 7.051499, 31.250000
17.686374, 7.002531, 31.375000
17.562693, 6.953562, 31.500000
17.562693, 6.953562, 31.625000
17.439012, 6.904593, 31.750000
17.315331, 6.855624, 31.875000
17.191650, 6.806656, 32.000000
17.191650, 6.806656, 32.125000
17.191650, 6.806656, 32.250000
17.067969, 6.757687, 32.375000
17.067969, 6.757687, 32.500000
16.944288, 6.708718, 32.625000
17.067969, 6.757687, 32.750000
16.820607, 6.659749, 32.875000
16.944288, 6.708718, 33.000000
16.696926, 6.610781, 33.125000
16.696926, 6.610781, 33.250000
16.573245, 6.561812, 33.375000
16.573245, 6.561812, 33.500000
16.449564, 6.512843, 33.625000
16.449564, 6.512843, 33.750000
16.325883, 6.463874, 33.875000
16.202202, 6.414906, 34.000000
16.202202, 6.414906, 34.125000
16.078521, 6.365937, 34.250000
16.078521, 6.365937, 34.375000
16.078521, 6.365937, 34.500000
15.954840, 6.316968, 34.625000
15.954840, 6.316968, 34.750000
15.831160, 6.267999, 34.875000
15.831160, 6.267999, 35.000000
15.707479, 6.219031, 35.125000
15.707479, 6.219031, 35.250000
15.831160, 6.267999, 35.375000
15.583798, 6.170062, 35.500000
15.583798, 6.170062, 35.625000
15.583798, 6.170062, 35.750000
15.460117, 6.121093, 35.875000
15.336436, 6.072124, 36.000000
15.336436, 6.072124, 36.125000
15.336436, 6.072124, 36.250000
15.212755, 6.023156, 36.375000
15.212755, 6.023156, 36.500000
15.212755, 6.023156, 36.625000
15.089074, 5.974187, 36.750000
15.089074, 5.974187, 36.875000
15.089074, 5.974187, 37.000000
15.089074, 5.974187, 37.125000
14.965393, 5.925218, 37.250000
14.965393, 5.925218, 37.375000
14.965393, 5.925218, 37.500000
14.841712, 5.876249, 37.625000
14.841712, 5.876249, 37.750000
14.965393, 5.925218, 37.875000
14.965393, 5.925218, 38.000000
15.089074, 5.974187, 38.125000
15.212755, 6.023156, 38.250000
15.212755, 6.023156, 38.375000
15.336436, 6.072124, 38.500000
15.460117, 6.121093, 38.625000
15.460117, 6.121093, 38.750000
15.583798, 6.170062, 38.875000
15.707479, 6.219031, 39.000000
15.707479, 6.219031, 39.125000
15.707479, 6.219031, 39.250000
15.831160, 6.267999, 39.375000
15.954840, 6.316968, 39.500000
15.954840, 6.316968, 39.625000
16.202202, 6.414906, 39.750000
16.202202, 6.414906, 39.875000
16.325883, 6.463874, 40.000000
16.573245, 6.561812, 40.125000
17.562693, 6.953562, 40.250000
17.686374, 7.002531, 40.375000
17.810054, 7.051499, 40.500000
17.686374, 7.002531, 40.625000
18.057416, 7.149437, 40.750000
18.057416, 7.149437, 40.875000
18.181097, 7.198406, 41.000000
18.304778, 7.247374, 41.125000
18.304778, 7.247374, 41.250000
18.304778, 7.247374, 41.375000
18.428459, 7.296343, 41.500000
18.428459, 7.296343, 41.625000
18.552140, 7.345312, 41.750000
18.552140, 7.345312, 41.875000
18.552140, 7.345312, 42.000000
18.675821, 7.394281, 42.125000
18.675821, 7.394281, 42.250000
18.799502, 7.443249, 42.375000
18.799502, 7.443249, 42.500000
18.799502, 7.443249, 42.625000
18.923183, 7.492218, 42.750000
19.046864, 7.541187, 42.875000
18.923183, 7.492218, 43.000000
18.923183, 7.492218, 43.125000
19.046864, 7.541187, 43.250000
19.046864, 7.541187, 43.375000
19.046864, 7.541187, 43.500000
19.046864, 7.541187, 43.625000
19.046864, 7.541187, 43.750000
19.046864, 7.541187, 43.875000
19.046864, 7.541187, 44.000000
19.170545, 7.590156, 44.125000
19.170545, 7.590156, 44.250000
19.046864, 7.541187, 44.375000
19.046864, 7.541187, 44.500000
19.046864, 7.541187, 44.625000
19.170545, 7.590156, 44.750000
19.170545, 7.590156, 44.875000
19.046864, 7.541187, 45.000000
19.046864, 7.541187, 45.125000
19.170545, 7.590156, 45.250000
19.170545, 7.590156, 45.375000
19.170545, 7.590156, 45.500000
19.170545, 7.590156, 45.625000
19.170545, 7.590156, 45.750000
19.170545, 7.590156, 45.875000
19.170545, 7.590156, 46.000000
19.170545, 7.590156, 46.125000
19.170545, 7.590156, 46.250000
19.170545, 7.590156, 46.375000
19.170545, 7.590156, 46.500000
19.170545, 7.590156, 46.625000
19.170545, 7.590156, 46.750000
19.170545, 7.590156, 46.875000
19.170545, 7.590156, 47.000000
19.170545, 7.590156, 47.125000
19.170545, 7.590156, 47.250000
19.170545, 7.590156, 47.375000
19.046864, 7.541187, 47.500000
19.046864, 7.541187, 47.625000
19.046864, 7.541187, 47.750000
19.046864, 7.541187, 47.875000
18.923183, 7.492218, 48.000000
18.923183, 7.492218, 48.125000
18.799502, 7.443249, 48.250000
18.799502, 7.443249, 48.375000
18.675821, 7.394281, 48.500000
18.552140, 7.345312, 48.625000
18.428459, 7.296343, 48.750000
18.428459, 7.296343, 48.875000
18.304778, 7.247374, 49.000000
18.057416, 7.149437, 49.125000
18.057416, 7.149437, 49.250000
17.810054, 7.051499, 49.375000
17.810054, 7.051499, 49.500000
17.562693, 6.953562, 49.625000
17.315331, 6.855624, 49.750000
14.841712, 5.876249, 49.875000
16.449564, 6.512843, 50.000000
16.325883, 6.463874, 50.125000
16.078521, 6.365937, 50.250000
15.954840, 6.316968, 50.375000
15.831160, 6.267999, 50.500000
15.583798, 6.170062, 50.625000
15.460117, 6.121093, 50.750000
15.336436, 6.072124, 50.875000
15.212755, 6.023156, 51.000000
15.089074, 5.974187, 51.125000
14.965393, 5.925218, 51.250000
14.965393, 5.925218, 51.375000
14.965393, 5.925218, 51.500000
14.841712, 5.876249, 51.625000
14.965393, 5.925218, 51.750000
14.965393, 5.925218, 51.875000
14.965393, 5.925218, 52.000000
14.965393, 5.925218, 52.125000
14.965393, 5.925218, 52.250000
14.965393, 5.925218, 52.375000
15.089074, 5.974187, 52.500000
15.212755, 6.023156, 52.625000
15.212755, 6.023156, 52.750000
15.212755, 6.023156, 52.875000
15.212755, 6.023156, 53.000000
15.336436, 6.072124, 53.125000
15.336436, 6.072124, 53.250000
15.336436, 6.072124, 53.375000
15.460117, 6.121093, 53.500000
15.583798, 6.170062, 53.625000
15.460117, 6.121093, 53.750000
15.583798, 6.170062, 53.875000
15.583798, 6.170062, 54.000000
15.583798, 6.170062, 54.125000
15.707479, 6.219031, 54.250000
15.707479, 6.219031, 54.375000
15.831160, 6.267999, 54.500000
15.831160, 6.267999, 54.625000
15.954840, 6.316968, 54.750000
16.078521, 6.365937, 54.875000
16.202202, 6.414906, 55.000000
16.078521, 6.365937, 55.125000
16.202202, 6.414906, 55.250000
16.202202, 6.414906, 55.375000
16.325883, 6.463874, 55.500000
16.325883, 6.463874, 55.625000
16.449564, 6.512843, 55.750000
16.573245, 6.561812, 55.875000
16.573245, 6.561812, 56.000000
16.573245, 6.561812, 56.125000
16.696926, 6.610781, 56.250000
16.696926, 6.610781, 56.375000
16.820607, 6.659749, 56.500000
16.944288, 6.708718, 56.625000
16.944288, 6.708718, 56.750000
17.067969, 6.757687, 56.875000
17.067969, 6.757687, 57.000000
17.191650, 6.806656, 57.125000
17.315331, 6.855624, 57.250000
17.315331, 6.855624, 57.375000
17.439012, 6.904593, 57.500000
17.439012, 6.904593, 57.625000
17.562693, 6.953562, 57.750000
17.686374, 7.002531, 57.875000
17.810054, 7.051499, 58.000000
17.810054, 7.051499, 58.125000
17.810054, 7.051499, 58.250000
17.933735, 7.100468, 58.375000
18.057416, 7.149437, 58.500000
18.181097, 7.198406, 58.625000
18.181097, 7.198406, 58.750000
18.428459, 7.296343, 58.875000
18.304778, 7.247374, 59.000000
18.428459, 7.296343, 59.125000
18.552140, 7.345312, 59.250000
18.799502, 7.443249, 59.375000
18.799502, 7.443249, 59.500000
18.923183, 7.492218, 59.625000
19.046864, 7.541187, 59.750000
19.170545, 7.590156, 59.875000
19.294226, 7.639124, 60.000000
19.294226, 7.639124, 60.125000
19.541588, 7.737062, 60.250000
19.541588, 7.737062, 60.375000
19.541588, 7.737062, 60.500000
19.665268, 7.786031, 60.625000
19.912630, 7.883968, 60.750000
20.036311, 7.932937, 60.875000
20.036311, 7.932937, 61.000000
20.159992, 7.981906, 61.125000
20.283673, 8.030874, 61.250000
20.407354, 8.079843, 61.375000
20.654716, 8.177781, 61.500000
20.778397, 8.226749, 61.625000
20.902078, 8.275718, 61.750000
21.025759, 8.324687, 61.875000
21.149440, 8.373656, 62.000000
21.273121, 8.422624, 62.125000
21.396802, 8.471593, 62.250000
21.520482, 8.520562, 62.375000
21.644163, 8.569531, 62.500000
21.767844, 8.618499, 62.625000
21.891525, 8.667468, 62.750000
21.891525, 8.667468, 62.875000
22.138887, 8.765405, 63.000000
22.138887, 8.765405, 63.125000
22.138887, 8.765405, 63.250000
22.138887, 8.765405, 63.375000
22.262568, 8.814374, 63.500000
22.262568, 8.814374, 63.625000
22.386249, 8.863343, 63.750000
22.386249, 8.863343, 63.875000
22.509930, 8.912312, 64.000000
22.509930, 8.912312, 64.125000
22.633611, 8.961280, 64.250000
22.633611, 8.961280, 64.375000
22.633611, 8.961280, 64.500000
22.757292, 9.010249, 64.625000
22.757292, 9.010249, 64.750000
22.757292, 9.010249, 64.875000
22.757292, 9.010249, 65.000000
22.509930, 8.912312, 65.125000
22.262568, 8.814374, 65.250000
16.820607, 6.659749, 70.500000
16.820607, 6.659749, 70.625000
16.696926, 6.610781, 70.750000
16.696926, 6.610781, 70.875000
16.820607, 6.659749, 71.000000
16.696926, 6.610781, 71.125000
16.820607, 6.659749, 71.250000
16.820607, 6.659749, 71.375000
16.820607, 6.659749, 71.500000
16.820607, 6.659749, 71.625000
16.944288, 6.708718, 71.750000
16.944288, 6.708718, 71.875000
17.067969, 6.757687, 72.000000
17.067969, 6.757687, 72.125000
17.315331, 6.855624, 72.250000
17.315331, 6.855624, 72.375000
17.439012, 6.904593, 72.500000
17.562693, 6.953562, 72.625000
17.562693, 6.953562, 72.750000
17.810054, 7.051499, 72.875000
17.933735, 7.100468, 73.000000
18.057416, 7.149437, 73.125000
18.181097, 7.198406, 73.250000
18.428459, 7.296343, 73.375000
18.552140, 7.345312, 73.500000
18.675821, 7.394281, 73.625000
18.923183, 7.492218, 73.750000
19.046864, 7.541187, 73.875000
19.170545, 7.590156, 74.000000
19.417907, 7.688093, 74.125000
19.541588, 7.737062, 74.250000
19.788949, 7.834999, 74.375000
19.912630, 7.883968, 74.500000
20.036311, 7.932937, 74.625000
20.283673, 8.030874, 74.750000
20.407354, 8.079843, 74.875000
20.654716, 8.177781, 75.000000
20.902078, 8.275718, 75.125000
21.025759, 8.324687, 75.250000
21.273121, 8.422624, 75.375000
21.396802, 8.471593, 75.500000
21.644163, 8.569531, 75.625000
21.767844, 8.618499, 75.750000
22.015206, 8.716437, 75.875000
22.138887, 8.765405, 76.000000
22.386249, 8.863343, 76.125000
22.509930, 8.912312, 76.250000
22.633611, 8.961280, 76.375000
22.880973, 9.059218, 76.500000
23.004654, 9.108187, 76.625000
23.128335, 9.157155, 76.750000
23.252016, 9.206124, 76.875000
23.375696, 9.255093, 77.000000
23.623058, 9.353030, 77.125000
23.746739, 9.401999, 77.250000
23.623058, 9.353030, 77.375000
23.746739, 9.401999, 77.500000
23.870420, 9.450968, 77.625000
24.117782, 9.548905, 77.750000
17.457692, 7.554618, 22.750000
16.358956, 7.079152, 22.875000
16.969365, 7.343300, 23.000000
17.213528, 7.448959, 23.125000
17.091446, 7.396129, 23.250000
17.091446, 7.396129, 23.375000
17.457692, 7.554618, 23.500000
17.335610, 7.501788, 23.625000
17.701855, 7.660277, 23.750000
17.579773, 7.607447, 23.875000
17.946019, 7.765936, 24.000000
17.946019, 7.765936, 24.125000
18.068100, 7.818765, 24.250000
18.312264, 7.924424, 24.375000
18.434346, 7.977254, 24.500000
18.678509, 8.082913, 24.625000
18.678509, 8.082913, 24.750000
18.800591, 8.135742, 24.875000
19.044754, 8.241401, 25.000000
19.044754, 8.241401, 25.125000
19.166836, 8.294231, 25.250000
19.288918, 8.347060, 25.375000
19.411000, 8.399890, 25.500000
19.533081, 8.452719, 25.625000
19.533081, 8.452719, 25.750000
19.655163, 8.505549, 25.875000
19.777245, 8.558378, 26.000000
19.899327, 8.611208, 26.125000
20.021409, 8.664037, 26.250000
20.021409, 8.664037, 26.375000
20.143490, 8.716867, 26.500000
20.143490, 8.716867, 26.625000
20.265572, 8.769696, 26.750000
20.387654, 8.822526, 26.875000
20.387654, 8.822526, 27.000000
20.265572, 8.769696, 27.125000
20.387654, 8.822526, 27.250000
20.387654, 8.822526, 27.375000
20.265572, 8.769696, 27.500000
20.265572, 8.769696, 27.625000
20.265572, 8.769696, 27.750000
20.143490, 8.716867, 27.875000
20.021409, 8.664037, 28.000000
20.021409, 8.664037, 28.125000
20.021409, 8.664037, 28.250000
19.899327, 8.611208, 28.375000
19.777245, 8.558378, 28.500000
19.655163, 8.505549, 28.625000
19.655163, 8.505549, 28.750000
19.533081, 8.452719, 28.875000
19.411000, 8.399890, 29.000000
19.288918, 8.347060, 29.125000
19.166836, 8.294231, 29.250000
19.166836, 8.294231, 29.375000
19.044754, 8.241401, 29.500000
19.044754, 8.241401, 29.625000
18.922673, 8.188572, 29.750000
18.800591, 8.135742, 29.875000
18.800591, 8.135742, 30.000000
18.556427, 8.030083, 30.125000
18.556427, 8.030083, 30.250000
18.556427, 8.030083, 30.375000
18.312264, 7.924424, 30.500000
18.312264, 7.924424, 30.625000
18.190182, 7.871595, 30.750000
18.068100, 7.818765, 30.875000
18.068100, 7.818765, 31.000000
17.946019, 7.765936, 31.125000
17.823937, 7.713106, 31.250000
17.701855, 7.660277, 31.375000
17.701855, 7.660277, 31.500000
17.579773, 7.607447, 31.625000
17.579773, 7.607447, 31.750000
17.457692, 7.554618, 31.875000
17.335610, 7.501788, 32.000000
17.335610, 7.501788, 32.125000
17.213528, 7.448959, 32.250000
17.213528, 7.448959, 32.375000
17.091446, 7.396129, 32.500000
17.091446, 7.396129, 32.625000
16.969365, 7.343300, 32.750000
16.969365, 7.343300, 32.875000
16.847283, 7.290470, 33.000000
16.725201, 7.237641, 33.125000
16.725201, 7.237641, 33.250000
16.725201, 7.237641, 33.375000
16.603119, 7.184811, 33.500000
16.603119, 7.184811, 33.625000
16.603119, 7.184811, 33.750000
16.358956, 7.079152, 33.875000
16.236874, 7.026323, 34.000000
16.236874, 7.026323, 34.125000
16.358956, 7.079152, 34.250000
16.236874, 7.026323, 34.375000
16.114792, 6.973493, 34.500000
16.114792, 6.973493, 34.625000
15.992710, 6.920664, 34.750000
15.992710, 6.920664, 34.875000
15.870629, 6.867834, 35.000000
15.748547, 6.815005, 35.125000
15.748547, 6.815005, 35.250000
15.748547, 6.815005, 35.375000
15.626465, 6.762175, 35.500000
15.626465, 6.762175, 35.625000
15.626465, 6.762175, 35.750000
15.626465, 6.762175, 35.875000
15.504383, 6.709346, 36.000000
15.504383, 6.709346, 36.125000
15.382302, 6.656516, 36.250000
15.504383, 6.709346, 36.375000
15.260220, 6.603687, 36.500000
15.260220, 6.603687, 36.625000
15.138138, 6.550857, 36.750000
15.138138, 6.550857, 36.875000
15.138138, 6.550857, 37.000000
15.138138, 6.550857, 37.125000
15.138138, 6.550857, 37.250000
15.016056, 6.498028, 37.375000
15.016056, 6.498028, 37.500000
15.016056, 6.498028, 37.625000
14.893975, 6.445198, 37.750000
15.016056, 6.498028, 37.875000
14.893975, 6.445198, 38.000000
15.016056, 6.498028, 38.125000
15.016056, 6.498028, 38.250000
15.138138, 6.550857, 38.375000
15.260220, 6.603687, 38.500000
15.260220, 6.603687, 38.625000
15.382302, 6.656516, 38.750000
15.504383, 6.709346, 38.875000
15.626465, 6.762175, 39.000000
15.626465, 6.762175, 39.125000
15.748547, 6.815005, 39.250000
15.748547, 6.815005, 39.375000
15.992710, 6.920664, 39.500000
16.114792, 6.973493, 39.625000
16.481037, 7.131982, 39.750000
17.091446, 7.396129, 39.875000
17.335610, 7.501788, 40.000000
17.457692, 7.554618, 40.125000
17.579773, 7.607447, 40.250000
17.701855, 7.660277, 40.375000
17.823937, 7.713106, 40.500000
17.823937, 7.713106, 40.625000
17.946019, 7.765936, 40.750000
18.068100, 7.818765, 40.875000
18.190182, 7.871595, 41.000000
18.190182, 7.871595, 41.125000
18.190182, 7.871595, 41.250000
18.312264, 7.924424, 41.375000
18.312264, 7.924424, 41.500000
18.434346, 7.977254, 41.625000
18.434346, 7.977254, 41.750000
18.434346, 7.977254, 41.875000
18.556427, 8.030083, 42.000000
18.678509, 8.082913, 42.125000
18.678509, 8.082913, 42.250000
18.678509, 8.082913, 42.375000
18.800591, 8.135742, 42.500000
18.800591, 8.135742, 42.625000
18.800591, 8.135742, 42.750000
18.800591, 8.135742, 42.875000
18.922673, 8.188572, 43.000000
18.922673, 8.188572, 43.125000
18.922673, 8.188572, 43.250000
18.922673, 8.188572, 43.375000
18.922673, 8.188572, 43.500000
18.922673, 8.188572, 43.625000
18.922673, 8.188572, 43.750000
18.922673, 8.188572, 43.875000
18.922673, 8.188572, 44.000000
18.800591, 8.135742, 44.125000
18.800591, 8.135742, 44.250000
18.800591, 8.135742, 44.375000
18.800591, 8.135742, 44.500000
18.800591, 8.135742, 44.625000
18.800591, 8.135742, 44.750000
18.800591, 8.135742, 44.875000
18.800591, 8.135742, 45.000000
18.800591, 8.135742, 45.125000
18.800591, 8.135742, 45.250000
18.800591, 8.135742, 45.375000
18.922673, 8.188572, 45.500000
18.922673, 8.188572, 45.625000
18.922673, 8.188572, 45.750000
19.044754, 8.241401, 45.875000
19.044754, 8.241401, 46.000000
19.044754, 8.241401, 46.125000
19.166836, 8.294231, 46.250000
19.166836, 8.294231, 46.375000
19.044754, 8.241401, 46.500000
19.044754, 8.241401, 46.625000
19.044754, 8.241401, 46.750000
19.044754, 8.241401, 46.875000
19.044754, 8.241401, 47.000000
18.922673, 8.188572, 47.125000
18.922673, 8.188572, 47.250000
18.922673, 8.188572, 47.375000
18.922673, 8.188572, 47.500000
18.922673, 8.188572, 47.625000
18.800591, 8.135742, 47.750000
18.678509, 8.082913, 47.875000
18.678509, 8.082913, 48.000000
18.678509, 8.082913, 48.125000
18.678509, 8.082913, 48.250000
18.556427, 8.030083, 48.375000
18.434346, 7.977254, 48.500000
18.312264, 7.924424, 48.625000
18.312264, 7.924424, 48.750000
18.190182, 7.871595, 48.875000
18.190182, 7.871595, 49.000000
17.946019, 7.765936, 49.125000
17.823937, 7.713106, 49.250000
17.701855, 7.660277, 49.375000
17.579773, 7.607447, 49.500000
17.457692, 7.554618, 49.625000
17.213528, 7.448959, 49.750000
17.091446, 7.396129, 49.875000
16.725201, 7.237641, 50.000000
16.236874, 7.026323, 50.125000
15.992710, 6.920664, 50.250000
15.748547, 6.815005, 50.375000
15.748547, 6.815005, 50.500000
15.382302, 6.656516, 50.625000
15.382302, 6.656516, 50.750000
15.382302, 6.656516, 50.875000
15.260220, 6.603687, 51.000000
15.138138, 6.550857, 51.125000
15.016056, 6.498028, 51.250000
15.016056, 6.498028, 51.375000
15.016056, 6.498028, 51.500000
15.138138, 6.550857, 51.625000
15.138138, 6.550857, 51.750000
15.138138, 6.550857, 51.875000
15.138138, 6.550857, 52.000000
15.138138, 6.550857, 52.125000
15.138138, 6.550857, 52.250000
15.260220, 6.603687, 52.375000
15.260220, 6.603687, 52.500000
15.260220, 6.603687, 52.625000
15.260220, 6.603687, 52.750000
15.382302, 6.656516, 52.875000
15.382302, 6.656516, 53.000000
15.504383, 6.709346, 53.125000
15.382302, 6.656516, 53.250000
15.382302, 6.656516, 53.375000
15.504383, 6.709346, 53.500000
15.504383, 6.709346, 53.625000
15.748547, 6.815005, 53.750000
15.626465, 6.762175, 53.875000
15.748547, 6.815005, 54.000000
15.748547, 6.815005, 54.125000
15.870629, 6.867834, 54.250000
15.870629, 6.867834, 54.375000
15.992710, 6.920664, 54.500000
15.992710, 6.920664, 54.625000
15.992710, 6.920664, 54.750000
16.114792, 6.973493, 54.875000
16.114792, 6.973493, 55.000000
16.236874, 7.026323, 55.125000
16.236874, 7.026323, 55.250000
16.358956, 7.079152, 55.375000
16.481037, 7.131982, 55.500000
16.481037, 7.131982, 55.625000
16.481037, 7.131982, 55.750000
16.603119, 7.184811, 55.875000
16.725201, 7.237641, 56.000000
16.725201, 7.237641, 56.125000
16.847283, 7.290470, 56.250000
16.847283, 7.290470, 56.375000
16.969365, 7.343300, 56.500000
16.969365, 7.343300, 56.625000
17.091446, 7.396129, 56.750000
17.213528, 7.448959, 56.875000
17.213528, 7.448959, 57.000000
17.335610, 7.501788, 57.125000
17.335610, 7.501788, 57.250000
17.457692, 7.554618, 57.375000
17.579773, 7.607447, 57.500000
17.579773, 7.607447, 57.625000
17.701855, 7.660277, 57.750000
17.701855, 7.660277, 57.875000
17.823937, 7.713106, 58.000000
17.946019, 7.765936, 58.125000
18.068100, 7.818765, 58.250000
18.068100, 7.818765, 58.375000
18.190182, 7.871595, 58.500000
18.312264, 7.924424, 58.625000
18.434346, 7.977254, 58.750000
18.434346, 7.977254, 58.875000
18.556427, 8.030083, 59.000000
18.678509, 8.082913, 59.125000
18.678509, 8.082913, 59.250000
18.922673, 8.188572, 59.375000
18.922673, 8.188572, 59.500000
19.044754, 8.241401, 59.625000
19.166836, 8.294231, 59.750000
19.411000, 8.399890, 59.875000
19.411000, 8.399890, 60.000000
19.533081, 8.452719, 60.125000
19.655163, 8.505549, 60.250000
19.655163, 8.505549, 60.375000
19.899327, 8.611208, 60.500000
20.021409, 8.664037, 60.625000
20.143490, 8.716867, 60.750000
20.265572, 8.769696, 60.875000
20.387654, 8.822526, 61.000000
20.509736, 8.875355, 61.125000
20.631817, 8.928185, 61.250000
20.753899, 8.981014, 61.375000
20.998063, 9.086673, 61.500000
20.998063, 9.086673, 61.625000
21.120144, 9.139503, 61.750000
21.242226, 9.192332, 61.875000
21.486390, 9.297991, 62.000000
21.486390, 9.297991, 62.125000
21.608471, 9.350821, 62.250000
21.730553, 9.403650, 62.375000
21.730553, 9.403650, 62.500000
21.974717, 9.509309, 62.625000
21.974717, 9.509309, 62.750000
21.974717, 9.509309, 62.875000
22.096798, 9.562139, 63.000000
22.218880, 9.614968, 63.125000
22.218880, 9.614968, 63.250000
22.340962, 9.667798, 63.375000
22.340962, 9.667798, 63.500000
22.463044, 9.720627, 63.625000
22.463044, 9.720627, 63.750000
22.463044, 9.720627, 63.875000
22.463044, 9.720627, 64.000000
22.585125, 9.773457, 64.125000
22.585125, 9.773457, 64.250000
22.707207, 9.826286, 64.375000
22.585125, 9.773457, 64.500000
22.707207, 9.826286, 64.625000
22.463044, 9.720627, 64.750000
22.463044, 9.720627, 64.875000
22.096798, 9.562139, 65.000000
21.852635, 9.456480, 65.125000
21.730553, 9.403650, 65.250000
21.242226, 9.192332, 66.000000
21.364308, 9.245162, 66.125000
16.603119, 7.184811, 70.500000
16.603119, 7.184811, 70.625000
16.603119, 7.184811, 70.750000
16.603119, 7.184811, 70.875000
16.603119, 7.184811, 71.000000
16.481037, 7.131982, 71.125000
16.603119, 7.184811, 71.250000
16.603119, 7.184811, 71.375000
16.603119, 7.184811, 71.500000
16.603119, 7.184811, 71.625000
16.725201, 7.237641, 71.750000
16.725201, 7.237641, 71.875000
16.847283, 7.290470, 72.000000
16.847283, 7.290470, 72.125000
17.091446, 7.396129, 72.250000
17.091446, 7.396129, 72.375000
17.213528, 7.448959, 72.500000
17.335610, 7.501788, 72.625000
17.457692, 7.554618, 72.750000
17.579773, 7.607447, 72.875000
17.701855, 7.660277, 73.000000
17.823937, 7.713106, 73.125000
18.068100, 7.818765, 73.250000
18.190182, 7.871595, 73.375000
18.312264, 7.924424, 73.500000
18.556427, 8.030083, 73.625000
18.678509, 8.082913, 73.750000
18.800591, 8.135742, 73.875000
19.044754, 8.241401, 74.000000
19.166836, 8.294231, 74.125000
19.288918, 8.347060, 74.250000
19.533081, 8.452719, 74.375000
19.655163, 8.505549, 74.500000
19.899327, 8.611208, 74.625000
20.021409, 8.664037, 74.750000
20.265572, 8.769696, 74.875000
20.387654, 8.822526, 75.000000
20.509736, 8.875355, 75.125000
20.753899, 8.981014, 75.250000
20.875981, 9.033844, 75.375000
20.998063, 9.086673, 75.500000
21.364308, 9.245162, 75.625000
21.486390, 9.297991, 75.750000
21.730553, 9.403650, 75.875000
21.852635, 9.456480, 76.000000
22.096798, 9.562139, 76.125000
22.218880, 9.614968, 76.250000
22.463044, 9.720627, 76.375000
22.585125, 9.773457, 76.500000
22.707207, 9.826286, 76.625000
22.951371, 9.931945, 76.750000
23.073452, 9.984774, 76.875000
23.195534, 10.037604, 77.000000
23.317616, 10.090433, 77.125000
23.439698, 10.143263, 77.250000
23.561780, 10.196092, 77.375000
23.683861, 10.248922, 77.500000
23.683861, 10.248922, 77.625000
23.805943, 10.301751, 77.750000
23.805943, 10.301751, 77.875000
16.008160, 7.532868, 22.500000
16.730333, 7.872697, 22.625000
16.850695, 7.929335, 22.750000
16.369246, 7.702783, 22.875000
16.489608, 7.759421, 23.000000
16.489608, 7.759421, 23.125000
16.489608, 7.759421, 23.250000
17.211781, 8.099249, 23.375000
17.091419, 8.042611, 23.500000
17.332143, 8.155887, 23.625000
17.572867, 8.269164, 23.750000
17.572867, 8.269164, 23.875000
17.572867, 8.269164, 24.000000
17.693229, 8.325802, 24.125000
18.054316, 8.495716, 24.250000
18.174678, 8.552354, 24.375000
18.295040, 8.608992, 24.500000
18.295040, 8.608992, 24.625000
18.535764, 8.722269, 24.750000
18.535764, 8.722269, 24.875000
18.535764, 8.722269, 25.000000
18.776488, 8.835545, 25.125000
18.896850, 8.892183, 25.250000
19.017213, 8.948821, 25.375000
19.137575, 9.005459, 25.500000
19.257937, 9.062097, 25.625000
19.257937, 9.062097, 25.750000
19.378299, 9.118735, 25.875000
19.619023, 9.232011, 26.000000
19.619023, 9.232011, 26.125000
19.739385, 9.288650, 26.250000
19.859747, 9.345288, 26.375000
19.859747, 9.345288, 26.500000
19.980109, 9.401926, 26.625000
20.100471, 9.458564, 26.750000
20.220834, 9.515202, 26.875000
20.220834, 9.515202, 27.000000
20.220834, 9.515202, 27.125000
20.220834, 9.515202, 27.250000
20.220834, 9.515202, 27.375000
20.220834, 9.515202, 27.500000
20.220834, 9.515202, 27.625000
20.220834, 9.515202, 27.750000
20.100471, 9.458564, 27.875000
20.220834, 9.515202, 28.000000
19.980109, 9.401926, 28.125000
19.980109, 9.401926, 28.250000
19.980109, 9.401926, 28.375000
19.739385, 9.288650, 28.500000
19.739385, 9.288650, 28.625000
19.739385, 9.288650, 28.750000
19.739385, 9.288650, 28.875000
19.619023, 9.232011, 29.000000
19.498661, 9.175373, 29.125000
19.378299, 9.118735, 29.250000
19.257937, 9.062097, 29.375000
19.137575, 9.005459, 29.500000
19.137575, 9.005459, 29.625000
19.017213, 8.948821, 29.750000
18.896850, 8.892183, 29.875000
18.776488, 8.835545, 30.000000
18.656126, 8.778907, 30.125000
18.535764, 8.722269, 30.250000
18.535764, 8.722269, 30.375000
18.656126, 8.778907, 30.500000
18.415402, 8.665630, 30.625000
18.415402, 8.665630, 30.750000
18.174678, 8.552354, 30.875000
18.054316, 8.495716, 31.000000
18.054316, 8.495716, 31.125000
18.054316, 8.495716, 31.250000
17.933954, 8.439078, 31.375000
17.933954, 8.439078, 31.500000
17.693229, 8.325802, 31.625000
17.572867, 8.269164, 31.750000
17.572867, 8.269164, 31.875000
17.452505, 8.212526, 32.000000
17.452505, 8.212526, 32.125000
17.332143, 8.155887, 32.250000
17.211781, 8.099249, 32.375000
17.211781, 8.099249, 32.500000
17.211781, 8.099249, 32.625000
16.971057, 7.985973, 32.750000
16.971057, 7.985973, 32.875000
16.850695, 7.929335, 33.000000
16.850695, 7.929335, 33.125000
16.850695, 7.929335, 33.250000
16.609970, 7.816059, 33.375000
16.609970, 7.816059, 33.500000
16.609970, 7.816059, 33.625000
16.609970, 7.816059, 33.750000
16.489608, 7.759421, 33.875000
16.369246, 7.702783, 34.000000
16.369246, 7.702783, 34.125000
16.248884, 7.646144, 34.250000
16.248884, 7.646144, 34.375000
16.128522, 7.589506, 34.500000
16.128522, 7.589506, 34.625000
16.128522, 7.589506, 34.750000
16.128522, 7.589506, 34.875000
16.008160, 7.532868, 35.000000
15.887798, 7.476230, 35.125000
15.887798, 7.476230, 35.250000
15.767436, 7.419592, 35.375000
15.887798, 7.476230, 35.500000
15.647074, 7.362954, 35.625000
15.647074, 7.362954, 35.750000
15.647074, 7.362954, 35.875000
15.647074, 7.362954, 36.000000
15.647074, 7.362954, 36.125000
15.526711, 7.306316, 36.250000
15.526711, 7.306316, 36.375000
15.406349, 7.249678, 36.500000
15.406349, 7.249678, 36.625000
15.406349, 7.249678, 36.750000
15.285987, 7.193040, 36.875000
15.285987, 7.193040, 37.000000
15.285987, 7.193040, 37.125000
15.285987, 7.193040, 37.250000
15.165625, 7.136402, 37.375000
15.165625, 7.136402, 37.500000
15.045263, 7.079763, 37.625000
15.045263, 7.079763, 37.750000
15.045263, 7.079763, 37.875000
15.045263, 7.079763, 38.000000
15.045263, 7.079763, 38.125000
15.045263, 7.079763, 38.250000
15.045263, 7.079763, 38.375000
15.165625, 7.136402, 38.500000
15.165625, 7.136402, 38.625000
15.165625, 7.136402, 38.750000
15.406349, 7.249678, 38.875000
15.406349, 7.249678, 39.000000
15.647074, 7.362954, 39.125000
15.887798, 7.476230, 39.250000
15.887798, 7.476230, 39.375000
16.369246, 7.702783, 39.500000
16.850695, 7.929335, 39.625000
17.091419, 8.042611, 39.750000
17.091419, 8.042611, 39.875000
17.211781, 8.099249, 40.000000
17.332143, 8.155887, 40.125000
17.452505, 8.212526, 40.250000
17.572867, 8.269164, 40.375000
17.693229, 8.325802, 40.500000
17.693229, 8.325802, 40.625000
17.813591, 8.382440, 40.750000
17.933954, 8.439078, 40.875000
17.933954, 8.439078, 41.000000
17.933954, 8.439078, 41.125000
18.054316, 8.495716, 41.250000
18.054316, 8.495716, 41.375000
18.174678, 8.552354, 41.500000
18.174678, 8.552354, 41.625000
18.295040, 8.608992, 41.750000
18.295040, 8.608992, 41.875000
18.295040, 8.608992, 42.000000
18.295040, 8.608992, 42.125000
18.415402, 8.665630, 42.250000
18.415402, 8.665630, 42.375000
18.535764, 8.722269, 42.500000
18.535764, 8.722269, 42.625000
18.656126, 8.778907, 42.750000
18.656126, 8.778907, 42.875000
18.656126, 8.778907, 43.000000
18.656126, 8.778907, 43.125000
18.656126, 8.778907, 43.250000
18.656126, 8.778907, 43.375000
18.656126, 8.778907, 43.500000
18.656126, 8.778907, 43.625000
18.535764, 8.722269, 43.750000
18.535764, 8.722269, 43.875000
18.535764, 8.722269, 44.000000
18.535764, 8.722269, 44.125000
18.535764, 8.722269, 44.250000
18.535764, 8.722269, 44.375000
18.415402, 8.665630, 44.500000
18.415402, 8.665630, 44.625000
18.415402, 8.665630, 44.750000
18.415402, 8.665630, 44.875000
18.415402, 8.665630, 45.000000
18.535764, 8.722269, 45.125000
18.535764, 8.722269, 45.250000
18.535764, 8.722269, 45.375000
18.535764, 8.722269, 45.500000
18.535764, 8.722269, 45.625000
18.656126, 8.778907, 45.750000
18.656126, 8.778907, 45.875000
18.776488, 8.835545, 46.000000
18.776488, 8.835545, 46.125000
18.776488, 8.835545, 46.250000
18.896850, 8.892183, 46.375000
18.896850, 8.892183, 46.500000
18.776488, 8.835545, 46.625000
18.776488, 8.835545, 46.750000
18.776488, 8.835545, 46.875000
18.776488, 8.835545, 47.000000
18.656126, 8.778907, 47.125000
18.656126, 8.778907, 47.250000
18.656126, 8.778907, 47.375000
18.656126, 8.778907, 47.500000
18.656126, 8.778907, 47.625000
18.656126, 8.778907, 47.750000
18.415402, 8.665630, 47.875000
18.415402, 8.665630, 48.000000
18.415402, 8.665630, 48.125000
18.174678, 8.552354, 48.250000
18.174678, 8.552354, 48.375000
18.054316, 8.495716, 48.500000
18.054316, 8.495716, 48.625000
18.054316, 8.495716, 48.750000
17.813591, 8.382440, 48.875000
17.933954, 8.439078, 49.000000
17.813591, 8.382440, 49.125000
17.452505, 8.212526, 49.250000
17.572867, 8.269164, 49.375000
17.211781, 8.099249, 49.500000
17.091419, 8.042611, 49.625000
16.971057, 7.985973, 49.750000
16.730333, 7.872697, 49.875000
16.489608, 7.759421, 50.000000
16.369246, 7.702783, 50.125000
15.647074, 7.362954, 50.250000
15.526711, 7.306316, 50.375000
15.406349, 7.249678, 50.500000
15.285987, 7.193040, 50.625000
15.285987, 7.193040, 50.750000
15.406349, 7.249678, 50.875000
15.285987, 7.193040, 51.000000
15.165625, 7.136402, 51.125000
15.165625, 7.136402, 51.250000
15.045263, 7.079763, 51.375000
15.165625, 7.136402, 51.500000
15.165625, 7.136402, 51.625000
15.165625, 7.136402, 51.750000
15.165625, 7.136402, 51.875000
15.165625, 7.136402, 52.000000
15.165625, 7.136402, 52.125000
15.285987, 7.193040, 52.250000
15.285987, 7.193040, 52.375000
15.285987, 7.193040, 52.500000
15.285987, 7.193040, 52.625000
15.406349, 7.249678, 52.750000
15.406349, 7.249678, 52.875000
15.406349, 7.249678, 53.000000
15.526711, 7.306316, 53.125000
15.526711, 7.306316, 53.250000
15.647074, 7.362954, 53.375000
15.647074, 7.362954, 53.500000
15.767436, 7.419592, 53.625000
15.767436, 7.419592, 53.750000
15.887798, 7.476230, 53.875000
16.008160, 7.532868, 54.000000
15.887798, 7.476230, 54.125000
15.887798, 7.476230, 54.250000
16.128522, 7.589506, 54.375000
16.008160, 7.532868, 54.500000
16.128522, 7.589506, 54.625000
16.128522, 7.589506, 54.750000
16.248884, 7.646144, 54.875000
16.369246, 7.702783, 55.000000
16.489608, 7.759421, 55.125000
16.369246, 7.702783, 55.250000
16.489608, 7.759421, 55.375000
16.489608, 7.759421, 55.500000
16.609970, 7.816059, 55.625000
16.730333, 7.872697, 55.750000
16.730333, 7.872697, 55.875000
16.850695, 7.929335, 56.000000
16.971057, 7.985973, 56.125000
16.971057, 7.985973, 56.250000
17.091419, 8.042611, 56.375000
17.091419, 8.042611, 56.500000
17.211781, 8.099249, 56.625000
17.211781, 8.099249, 56.750000
17.332143, 8.155887, 56.875000
17.452505, 8.212526, 57.000000
17.452505, 8.212526, 57.125000
17.452505, 8.212526, 57.250000
17.572867, 8.269164, 57.375000
17.693229, 8.325802, 57.500000
17.813591, 8.382440, 57.625000
17.813591, 8.382440, 57.750000
17.933954, 8.439078, 57.875000
18.054316, 8.495716, 58.000000
18.174678, 8.552354, 58.125000
18.295040, 8.608992, 58.250000
18.295040, 8.608992, 58.375000
18.415402, 8.665630, 58.500000
18.535764, 8.722269, 58.625000
18.656126, 8.778907, 58.750000
18.776488, 8.835545, 58.875000
18.896850, 8.892183, 59.000000
19.017213, 8.948821, 59.125000
19.017213, 8.948821, 59.250000
19.137575, 9.005459, 59.375000
19.137575, 9.005459, 59.500000
19.378299, 9.118735, 59.625000
19.378299, 9.118735, 59.750000
19.498661, 9.175373, 59.875000
19.859747, 9.345288, 60.000000
19.859747, 9.345288, 60.125000
19.980109, 9.401926, 60.250000
20.100471, 9.458564, 60.375000
20.220834, 9.515202, 60.500000
20.341196, 9.571840, 60.625000
20.461558, 9.628478, 60.750000
20.702282, 9.741754, 60.875000
20.702282, 9.741754, 61.000000
20.822644, 9.798393, 61.125000
20.943006, 9.855031, 61.250000
21.183730, 9.968307, 61.375000
21.304093, 10.024945, 61.500000
21.304093, 10.024945, 61.625000
21.424455, 10.081583, 61.750000
21.424455, 10.081583, 61.875000
21.544817, 10.138221, 62.000000
21.785541, 10.251497, 62.125000
21.785541, 10.251497, 62.250000
21.905903, 10.308136, 62.375000
21.905903, 10.308136, 62.500000
22.026265, 10.364774, 62.625000
22.026265, 10.364774, 62.750000
22.146627, 10.421412, 62.875000
22.146627, 10.421412, 63.000000
22.146627, 10.421412, 63.125000
22.266989, 10.478050, 63.250000
22.387351, 10.534688, 63.375000
22.387351, 10.534688, 63.500000
22.507714, 10.591326, 63.625000
22.387351, 10.534688, 63.750000
22.507714, 10.591326, 63.875000
22.507714, 10.591326, 64.000000
22.628076, 10.647964, 64.125000
22.507714, 10.591326, 64.250000
22.387351, 10.534688, 64.375000
22.026265, 10.364774, 64.500000
20.822644, 9.798393, 66.125000
20.702282, 9.741754, 66.250000
20.581920, 9.685116, 66.375000
18.776488, 8.835545, 68.125000
18.656126, 8.778907, 68.250000
18.535764, 8.722269, 68.375000
16.489608, 7.759421, 70.500000
16.369246, 7.702783, 70.625000
16.248884, 7.646144, 70.750000
16.248884, 7.646144, 70.875000
16.369246, 7.702783, 71.000000
16.369246, 7.702783, 71.125000
16.369246, 7.702783, 71.250000
16.369246, 7.702783, 71.375000
16.369246, 7.702783, 71.500000
16.369246, 7.702783, 71.625000
16.489608, 7.759421, 71.750000
16.489608, 7.759421, 71.875000
16.609970, 7.816059, 72.000000
16.730333, 7.872697, 72.125000
16.850695, 7.929335, 72.250000
16.850695, 7.929335, 72.375000
16.971057, 7.985973, 72.500000
17.091419, 8.042611, 72.625000
17.211781, 8.099249, 72.750000
17.332143, 8.155887, 72.875000
17.452505, 8.212526, 73.000000
17.572867, 8.269164, 73.125000
17.813591, 8.382440, 73.250000
17.933954, 8.439078, 73.375000
18.054316, 8.495716, 73.500000
18.295040, 8.608992, 73.625000
18.415402, 8.665630, 73.750000
18.535764, 8.722269, 73.875000
18.776488, 8.835545, 74.000000
18.896850, 8.892183, 74.125000
19.017213, 8.948821, 74.250000
19.257937, 9.062097, 74.375000
19.378299, 9.118735, 74.500000
19.619023, 9.232011, 74.625000
19.739385, 9.288650, 74.750000
19.859747, 9.345288, 74.875000
20.100471, 9.458564, 75.000000
20.341196, 9.571840, 75.125000
20.461558, 9.628478, 75.250000
20.581920, 9.685116, 75.375000
20.822644, 9.798393, 75.500000
21.063368, 9.911669, 75.625000
21.183730, 9.968307, 75.750000
21.424455, 10.081583, 75.875000
21.544817, 10.138221, 76.000000
21.785541, 10.251497, 76.125000
22.026265, 10.364774, 76.250000
22.146627, 10.421412, 76.375000
22.387351, 10.534688, 76.500000
22.387351, 10.534688, 76.625000
22.507714, 10.591326, 76.750000
22.628076, 10.647964, 76.875000
22.868800, 10.761240, 77.000000
22.989162, 10.817878, 77.125000
22.989162, 10.817878, 77.250000
23.109524, 10.874517, 77.375000
23.350248, 10.987793, 77.500000
23.350248, 10.987793, 77.625000
23.350248, 10.987793, 77.750000
23.590973, 11.101069, 77.875000
16.000695, 8.152761, 22.125000
16.000695, 8.152761, 22.250000
15.882171, 8.092371, 22.375000
15.645124, 7.971589, 22.500000
15.526600, 7.911198, 22.625000
15.526600, 7.911198, 22.750000
16.237742, 8.273543, 22.875000
16.237742, 8.273543, 23.000000
16.711837, 8.515106, 23.125000
16.237742, 8.273543, 23.250000
16.830361, 8.575497, 23.375000
16.948884, 8.635888, 23.500000
16.948884, 8.635888, 23.625000
17.422979, 8.877451, 23.750000
17.422979, 8.877451, 23.875000
17.422979, 8.877451, 24.000000
17.660026, 8.998233, 24.125000
17.778550, 9.058624, 24.250000
17.778550, 9.058624, 24.375000
17.897074, 9.119015, 24.500000
18.015597, 9.179405, 24.625000
18.134121, 9.239796, 24.750000
18.252645, 9.300187, 24.875000
18.371168, 9.360578, 25.000000
18.489692, 9.420969, 25.125000
18.608216, 9.481360, 25.250000
18.726739, 9.541750, 25.375000
18.726739, 9.541750, 25.500000
18.963787, 9.662532, 25.625000
18.963787, 9.662532, 25.750000
19.082310, 9.722923, 25.875000
19.200834, 9.783314, 26.000000
19.319358, 9.843704, 26.125000
19.437881, 9.904095, 26.250000
19.556405, 9.964486, 26.375000
19.674929, 10.024877, 26.500000
19.674929, 10.024877, 26.625000
19.793452, 10.085268, 26.750000
19.911976, 10.145659, 26.875000
20.030500, 10.206049, 27.000000
20.030500, 10.206049, 27.125000
20.149023, 10.266440, 27.250000
20.149023, 10.266440, 27.375000
20.030500, 10.206049, 27.500000
20.149023, 10.266440, 27.625000
20.149023, 10.266440, 27.750000
20.149023, 10.266440, 27.875000
20.149023, 10.266440, 28.000000
20.030500, 10.206049, 28.125000
20.030500, 10.206049, 28.250000
20.030500, 10.206049, 28.375000
19.911976, 10.145659, 28.500000
19.911976, 10.145659, 28.625000
19.793452, 10.085268, 28.750000
19.793452, 10.085268, 28.875000
19.674929, 10.024877, 29.000000
19.556405, 9.964486, 29.125000
19.556405, 9.964486, 29.250000
19.437881, 9.904095, 29.375000
19.319358, 9.843704, 29.500000
19.200834, 9.783314, 29.625000
19.200834, 9.783314, 29.750000
19.200834, 9.783314, 29.875000
18.963787, 9.662532, 30.000000
18.845263, 9.602141, 30.125000
18.726739, 9.541750, 30.250000
18.726739, 9.541750, 30.375000
18.726739, 9.541750, 30.500000
18.489692, 9.420969, 30.625000
18.371168, 9.360578, 30.750000
18.371168, 9.360578, 30.875000
18.371168, 9.360578, 31.000000
18.134121, 9.239796, 31.125000
18.134121, 9.239796, 31.250000
18.015597, 9.179405, 31.375000
18.015597, 9.179405, 31.500000
17.778550, 9.058624, 31.625000
17.778550, 9.058624, 31.750000
17.660026, 8.998233, 31.875000
17.660026, 8.998233, 32.000000
17.541503, 8.937842, 32.125000
17.422979, 8.877451, 32.250000
17.422979, 8.877451, 32.375000
17.304455, 8.817060, 32.500000
17.185932, 8.756670, 32.625000
17.185932, 8.756670, 32.750000
17.067408, 8.696279, 32.875000
17.067408, 8.696279, 33.000000
16.948884, 8.635888, 33.125000
16.948884, 8.635888, 33.250000
16.711837, 8.515106, 33.375000
16.711837, 8.515106, 33.500000
16.830361, 8.575497, 33.625000
16.593313, 8.454715, 33.750000
16.593313, 8.454715, 33.875000
16.474790, 8.394325, 34.000000
16.593313, 8.454715, 34.125000
16.356266, 8.333934, 34.250000
16.356266, 8.333934, 34.375000
16.237742, 8.273543, 34.500000
16.237742, 8.273543, 34.625000
16.119219, 8.213152, 34.750000
16.119219, 8.213152, 34.875000
16.119219, 8.213152, 35.000000
16.000695, 8.152761, 35.125000
15.882171, 8.092371, 35.250000
15.882171, 8.092371, 35.375000
15.882171, 8.092371, 35.500000
15.882171, 8.092371, 35.625000
15.645124, 7.971589, 35.750000
15.645124, 7.971589, 35.875000
15.645124, 7.971589, 36.000000
15.526600, 7.911198, 36.125000
15.526600, 7.911198, 36.250000
15.408077, 7.850807, 36.375000
15.408077, 7.850807, 36.500000
15.408077, 7.850807, 36.625000
15.408077, 7.850807, 36.750000
15.408077, 7.850807, 36.875000
15.408077, 7.850807, 37.000000
15.289553, 7.790416, 37.125000
15.289553, 7.790416, 37.250000
15.289553, 7.790416, 37.375000
15.289553, 7.790416, 37.500000
15.289553, 7.790416, 37.625000
15.289553, 7.790416, 37.750000
15.171029, 7.730026, 37.875000
15.171029, 7.730026, 38.000000
15.171029, 7.730026, 38.125000
15.171029, 7.730026, 38.250000
15.171029, 7.730026, 38.375000
15.171029, 7.730026, 38.500000
15.171029, 7.730026, 38.625000
15.171029, 7.730026, 38.750000
15.289553, 7.790416, 38.875000
15.408077, 7.850807, 39.000000
13.511698, 6.884554, 39.125000
15.763648, 8.031980, 39.250000
16.237742, 8.273543, 39.375000
16.474790, 8.394325, 39.500000
16.711837, 8.515106, 39.625000
16.830361, 8.575497, 39.750000
17.067408, 8.696279, 39.875000
17.067408, 8.696279, 40.000000
17.185932, 8.756670, 40.125000
17.185932, 8.756670, 40.250000
17.304455, 8.817060, 40.375000
17.422979, 8.877451, 40.500000
17.422979, 8.877451, 40.625000
17.541503, 8.937842, 40.750000
17.541503, 8.937842, 40.875000
17.660026, 8.998233, 41.000000
17.660026, 8.998233, 41.125000
17.778550, 9.058624, 41.250000
17.778550, 9.058624, 41.375000
17.778550, 9.058624, 41.500000
17.897074, 9.119015, 41.625000
17.897074, 9.119015, 41.750000
18.015597, 9.179405, 41.875000
18.015597, 9.179405, 42.000000
18.015597, 9.179405, 42.125000
18.015597, 9.179405, 42.250000
18.134121, 9.239796, 42.375000
18.252645, 9.300187, 42.500000
18.252645, 9.300187, 42.625000
18.252645, 9.300187, 42.750000
18.252645, 9.300187, 42.875000
18.371168, 9.360578, 43.000000
18.371168, 9.360578, 43.125000
18.371168, 9.360578, 43.250000
18.371168, 9.360578, 43.375000
18.252645, 9.300187, 43.500000
18.252645, 9.300187, 43.625000
18.134121, 9.239796, 43.750000
18.134121, 9.239796, 43.875000
18.134121, 9.239796, 44.000000
18.252645, 9.300187, 44.125000
18.134121, 9.239796, 44.250000
18.134121, 9.239796, 44.375000
18.134121, 9.239796, 44.500000
18.134121, 9.239796, 44.625000
18.134121, 9.239796, 44.750000
18.134121, 9.239796, 44.875000
18.134121, 9.239796, 45.000000
18.252645, 9.300187, 45.125000
18.252645, 9.300187, 45.250000
18.252645, 9.300187, 45.375000
18.252645, 9.300187, 45.500000
18.371168, 9.360578, 45.625000
18.371168, 9.360578, 45.750000
18.371168, 9.360578, 45.875000
18.371168, 9.360578, 46.000000
18.489692, 9.420969, 46.125000
18.489692, 9.420969, 46.250000
18.371168, 9.360578, 46.375000
18.371168, 9.360578, 46.500000
18.371168, 9.360578, 46.625000
18.134121, 9.239796, 46.750000
18.252645, 9.300187, 46.875000
18.134121, 9.239796, 47.000000
18.134121, 9.239796, 47.125000
17.778550, 9.058624, 47.250000
17.778550, 9.058624, 47.375000
17.897074, 9.119015, 47.500000
16.356266, 8.333934, 49.750000
16.356266, 8.333934, 49.875000
16.237742, 8.273543, 50.000000
16.119219, 8.213152, 50.125000
15.763648, 8.031980, 50.250000
15.526600, 7.911198, 50.375000
15.408077, 7.850807, 50.500000
15.408077, 7.850807, 50.625000
15.408077, 7.850807, 50.750000
15.408077, 7.850807, 50.875000
15.289553, 7.790416, 51.000000
15.289553, 7.790416, 51.125000
15.289553, 7.790416, 51.250000
15.289553, 7.790416, 51.375000
15.289553, 7.790416, 51.500000
15.289553, 7.790416, 51.625000
15.289553, 7.790416, 51.750000
15.408077, 7.850807, 51.875000
15.289553, 7.790416, 52.000000
15.289553, 7.790416, 52.125000
15.408077, 7.850807, 52.250000
15.408077, 7.850807, 52.375000
15.408077, 7.850807, 52.500000
15.408077, 7.850807, 52.625000
15.526600, 7.911198, 52.750000
15.526600, 7.911198, 52.875000
15.526600, 7.911198, 53.000000
15.526600, 7.911198, 53.125000
15.645124, 7.971589, 53.250000
15.763648, 8.031980, 53.375000
15.763648, 8.031980, 53.500000
15.763648, 8.031980, 53.625000
15.763648, 8.031980, 53.750000
16.000695, 8.152761, 53.875000
16.000695, 8.152761, 54.000000
16.119219, 8.213152, 54.125000
16.119219, 8.213152, 54.250000
16.119219, 8.213152, 54.375000
16.237742, 8.273543, 54.500000
16.237742, 8.273543, 54.625000
16.356266, 8.333934, 54.750000
16.356266, 8.333934, 54.875000
16.474790, 8.394325, 55.000000
16.474790, 8.394325, 55.125000
16.593313, 8.454715, 55.250000
16.593313, 8.454715, 55.375000
16.711837, 8.515106, 55.500000
16.711837, 8.515106, 55.625000
16.830361, 8.575497, 55.750000
17.067408, 8.696279, 55.875000
17.067408, 8.696279, 56.000000
17.067408, 8.696279, 56.125000
17.185932, 8.756670, 56.250000
17.304455, 8.817060, 56.375000
17.304455, 8.817060, 56.500000
17.422979, 8.877451, 56.625000
17.422979, 8.877451, 56.750000
17.541503, 8.937842, 56.875000
17.541503, 8.937842, 57.000000
17.778550, 9.058624, 57.125000
17.778550, 9.058624, 57.250000
17.897074, 9.119015, 57.375000
17.897074, 9.119015, 57.500000
18.015597, 9.179405, 57.625000
18.134121, 9.239796, 57.750000
18.252645, 9.300187, 57.875000
18.252645, 9.300187, 58.000000
18.371168, 9.360578, 58.125000
18.608216, 9.481360, 58.250000
18.608216, 9.481360, 58.375000
18.726739, 9.541750, 58.500000
18.726739, 9.541750, 58.625000
18.845263, 9.602141, 58.750000
18.963787, 9.662532, 58.875000
19.082310, 9.722923, 59.000000
19.200834, 9.783314, 59.125000
19.319358, 9.843704, 59.250000
19.437881, 9.904095, 59.375000
19.556405, 9.964486, 59.500000
19.674929, 10.024877, 59.625000
19.911976, 10.145659, 59.750000
19.911976, 10.145659, 59.875000
20.030500, 10.206049, 60.000000
20.149023, 10.266440, 60.125000
20.386071, 10.387222, 60.250000
20.386071, 10.387222, 60.375000
20.623118, 10.508004, 60.500000
20.623118, 10.508004, 60.625000
20.741642, 10.568394, 60.750000
20.978689, 10.689176, 60.875000
21.097213, 10.749567, 61.000000
21.215736, 10.809958, 61.125000
21.334260, 10.870348, 61.250000
21.334260, 10.870348, 61.375000
21.452784, 10.930739, 61.500000
21.571307, 10.991130, 61.625000
21.571307, 10.991130, 61.750000
21.689831, 11.051521, 61.875000
21.689831, 11.051521, 62.000000
21.808355, 11.111912, 62.125000
21.808355, 11.111912, 62.250000
21.926878, 11.172303, 62.375000
21.926878, 11.172303, 62.500000
22.163926, 11.293084, 62.625000
22.045402, 11.232693, 62.750000
22.045402, 11.232693, 62.875000
22.163926, 11.293084, 63.000000
22.163926, 11.293084, 63.125000
22.282449, 11.353475, 63.250000
22.400973, 11.413866, 63.375000
22.400973, 11.413866, 63.500000
22.400973, 11.413866, 63.625000
22.400973, 11.413866, 63.750000
22.519497, 11.474257, 63.875000
22.282449, 11.353475, 64.000000
22.163926, 11.293084, 64.125000
16.119219, 8.213152, 70.500000
16.119219, 8.213152, 70.625000
16.119219, 8.213152, 70.750000
16.119219, 8.213152, 70.875000
16.119219, 8.213152, 71.000000
16.119219, 8.213152, 71.125000
16.119219, 8.213152, 71.250000
16.119219, 8.213152, 71.375000
16.119219, 8.213152, 71.500000
16.119219, 8.213152, 71.625000
16.237742, 8.273543, 71.750000
16.237742, 8.273543, 71.875000
16.356266, 8.333934, 72.000000
16.356266, 8.333934, 72.125000
16.593313, 8.454715, 72.250000
16.593313, 8.454715, 72.375000
16.711837, 8.515106, 72.500000
16.830361, 8.575497, 72.625000
16.948884, 8.635888, 72.750000
17.067408, 8.696279, 72.875000
17.185932, 8.756670, 73.000000
17.304455, 8.817060, 73.125000
17.541503, 8.937842, 73.250000
17.660026, 8.998233, 73.375000
17.897074, 9.119015, 73.500000
18.015597, 9.179405, 73.625000
18.134121, 9.239796, 73.750000
18.252645, 9.300187, 73.875000
18.489692, 9.420969, 74.000000
18.608216, 9.481360, 74.125000
18.726739, 9.541750, 74.250000
18.963787, 9.662532, 74.375000
19.200834, 9.783314, 74.500000
19.319358, 9.843704, 74.625000
19.437881, 9.904095, 74.750000
19.674929, 10.024877, 74.875000
19.793452, 10.085268, 75.000000
20.030500, 10.206049, 75.125000
20.149023, 10.266440, 75.250000
20.386071, 10.387222, 75.375000
20.504594, 10.447613, 75.500000
20.741642, 10.568394, 75.625000
20.860165, 10.628785, 75.750000
20.978689, 10.689176, 75.875000
21.215736, 10.809958, 76.000000
21.452784, 10.930739, 76.125000
21.571307, 10.991130, 76.250000
21.808355, 11.111912, 76.375000
21.926878, 11.172303, 76.500000
22.045402, 11.232693, 76.625000
22.163926, 11.293084, 76.750000
22.282449, 11.353475, 76.875000
22.400973, 11.413866, 77.000000
22.519497, 11.474257, 77.125000
22.519497, 11.474257, 77.250000
22.638020, 11.534648, 77.375000
22.756544, 11.595038, 77.500000
22.756544, 11.595038, 77.625000
