14.302428, -33.050960, 41.625000
14.363031, -33.191006, 41.750000
14.363031, -33.191006, 41.875000
14.363031, -33.191006, 42.000000
14.423635, -33.331053, 42.125000
14.423635, -33.331053, 42.250000
14.423635, -33.331053, 42.375000
14.423635, -33.331053, 42.500000
14.423635, -33.331053, 42.625000
14.423635, -33.331053, 42.750000
14.484238, -33.471099, 42.875000
14.484238, -33.471099, 43.000000
14.484238, -33.471099, 43.125000
14.484238, -33.471099, 43.250000
14.484238, -33.471099, 43.375000
14.544842, -33.611146, 43.500000
14.544842, -33.611146, 43.625000
14.544842, -33.611146, 43.750000
14.544842, -33.611146, 43.875000
14.544842, -33.611146, 44.000000
14.544842, -33.611146, 44.125000
14.605445, -33.751192, 44.250000
14.605445, -33.751192, 44.375000
14.605445, -33.751192, 44.500000
14.605445, -33.751192, 44.625000
14.605445, -33.751192, 44.750000
14.605445, -33.751192, 44.875000
14.605445, -33.751192, 45.000000
14.666049, -33.891239, 45.125000
14.666049, -33.891239, 45.250000
14.666049, -33.891239, 45.375000
14.666049, -33.891239, 45.500000
14.666049, -33.891239, 45.625000
14.666049, -33.891239, 45.750000
14.666049, -33.891239, 45.875000
14.726652, -34.031285, 46.000000
14.726652, -34.031285, 46.125000
14.726652, -34.031285, 46.250000
14.726652, -34.031285, 46.375000
14.726652, -34.031285, 46.500000
14.726652, -34.031285, 46.625000
14.726652, -34.031285, 46.750000
14.726652, -34.031285, 46.875000
14.726652, -34.031285, 47.000000
14.726652, -34.031285, 47.125000
14.726652, -34.031285, 47.250000
14.726652, -34.031285, 47.375000
14.726652, -34.031285, 47.500000
14.787256, -34.171332, 47.625000
14.726652, -34.031285, 47.750000
14.726652, -34.031285, 47.875000
14.787256, -34.171332, 48.000000
14.787256, -34.171332, 48.125000
14.787256, -34.171332, 48.250000
14.787256, -34.171332, 48.375000
14.847859, -34.311378, 48.500000
14.787256, -34.171332, 48.625000
14.787256, -34.171332, 48.750000
14.787256, -34.171332, 48.875000
14.787256, -34.171332, 49.000000
14.787256, -34.171332, 49.125000
14.787256, -34.171332, 49.250000
14.787256, -34.171332, 49.375000
14.787256, -34.171332, 49.500000
14.847859, -34.311378, 49.625000
14.847859, -34.311378, 49.750000
14.787256, -34.171332, 49.875000
14.787256, -34.171332, 50.000000
14.787256, -34.171332, 50.125000
14.787256, -34.171332, 50.250000
14.787256, -34.171332, 50.375000
14.787256, -34.171332, 50.500000
14.787256, -34.171332, 50.625000
14.787256, -34.171332, 50.750000
14.787256, -34.171332, 50.875000
14.787256, -34.171332, 51.000000
14.787256, -34.171332, 51.125000
14.787256, -34.171332, 51.250000
14.787256, -34.171332, 51.375000
14.787256, -34.171332, 51.500000
14.787256, -34.171332, 51.625000
14.787256, -34.171332, 51.750000
14.726652, -34.031285, 51.875000
14.787256, -34.171332, 52.000000
14.787256, -34.171332, 52.125000
14.726652, -34.031285, 52.250000
14.787256, -34.171332, 52.375000
14.726652, -34.031285, 52.500000
14.726652, -34.031285, 52.625000
14.726652, -34.031285, 52.750000
14.726652, -34.031285, 52.875000
14.726652, -34.031285, 53.000000
14.726652, -34.031285, 53.125000
14.726652, -34.031285, 53.250000
14.726652, -34.031285, 53.375000
14.726652, -34.031285, 53.500000
14.726652, -34.031285, 53.625000
14.666049, -33.891239, 53.750000
14.666049, -33.891239, 53.875000
14.666049, -33.891239, 54.000000
14.726652, -34.031285, 54.125000
14.666049, -33.891239, 54.250000
14.726652, -34.031285, 54.375000
14.605445, -33.751192, 54.500000
14.605445, -33.751192, 54.625000
14.605445, -33.751192, 54.750000
14.605445, -33.751192, 54.875000
14.605445, -33.751192, 55.000000
14.605445, -33.751192, 55.125000
14.605445, -33.751192, 55.250000
14.605445, -33.751192, 55.375000
14.544842, -33.611146, 55.500000
14.544842, -33.611146, 55.625000
14.605445, -33.751192, 55.750000
14.544842, -33.611146, 55.875000
14.484238, -33.471099, 56.000000
14.484238, -33.471099, 56.125000
14.484238, -33.471099, 56.250000
14.484238, -33.471099, 56.375000
14.484238, -33.471099, 56.500000
14.484238, -33.471099, 56.625000
14.423635, -33.331053, 56.750000
14.423635, -33.331053, 56.875000
14.423635, -33.331053, 57.000000
14.423635, -33.331053, 57.125000
14.423635, -33.331053, 57.250000
14.423635, -33.331053, 57.375000
14.363031, -33.191006, 57.500000
14.363031, -33.191006, 57.625000
14.363031, -33.191006, 57.750000
14.363031, -33.191006, 57.875000
14.302428, -33.050960, 58.000000
14.302428, -33.050960, 58.125000
14.241824, -32.910914, 58.250000
14.241824, -32.910914, 58.375000
14.241824, -32.910914, 58.500000
14.241824, -32.910914, 58.625000
14.181221, -32.770867, 58.750000
14.241824, -32.910914, 58.875000
14.181221, -32.770867, 59.000000
14.181221, -32.770867, 59.125000
14.120617, -32.630821, 59.250000
14.120617, -32.630821, 59.375000
14.120617, -32.630821, 59.500000
14.060014, -32.490774, 59.625000
14.060014, -32.490774, 59.750000
14.060014, -32.490774, 59.875000
14.060014, -32.490774, 60.000000
14.060014, -32.490774, 60.125000
13.999410, -32.350728, 60.250000
13.999410, -32.350728, 60.375000
13.999410, -32.350728, 60.500000
13.938807, -32.210681, 60.625000
13.938807, -32.210681, 60.750000
13.938807, -32.210681, 60.875000
13.878203, -32.070635, 61.000000
13.878203, -32.070635, 61.125000
13.817600, -31.930588, 61.250000
13.817600, -31.930588, 61.375000
13.817600, -31.930588, 61.500000
13.817600, -31.930588, 61.625000
13.756996, -31.790542, 61.750000
13.756996, -31.790542, 61.875000
13.696392, -31.650496, 62.000000
13.696392, -31.650496, 62.125000
13.696392, -31.650496, 62.250000
13.635789, -31.510449, 62.375000
13.635789, -31.510449, 62.500000
13.575185, -31.370403, 62.625000
13.575185, -31.370403, 62.750000
13.575185, -31.370403, 62.875000
13.453978, -31.090310, 63.000000
13.453978, -31.090310, 63.125000
13.453978, -31.090310, 63.250000
13.453978, -31.090310, 63.375000
13.393375, -30.950263, 63.500000
13.332771, -30.810217, 63.625000
13.332771, -30.810217, 63.750000
13.332771, -30.810217, 63.875000
13.332771, -30.810217, 64.000000
13.272168, -30.670171, 64.125000
13.211564, -30.530124, 64.250000
13.150961, -30.390078, 64.375000
13.150961, -30.390078, 64.500000
13.090357, -30.250031, 64.625000
13.090357, -30.250031, 64.750000
13.090357, -30.250031, 64.875000
12.969150, -29.969938, 65.000000
12.969150, -29.969938, 65.125000
12.908547, -29.829892, 65.250000
12.908547, -29.829892, 65.375000
12.847943, -29.689845, 65.500000
12.787340, -29.549799, 65.625000
12.787340, -29.549799, 65.750000
12.787340, -29.549799, 65.875000
12.666133, -29.269706, 66.000000
12.544926, -28.989613, 66.125000
12.544926, -28.989613, 66.250000
12.544926, -28.989613, 66.375000
12.423719, -28.709520, 66.500000
12.363115, -28.569474, 66.625000
12.241908, -28.289381, 66.750000
12.241908, -28.289381, 66.875000
12.302512, -28.429427, 67.000000
12.060098, -27.869242, 67.250000
9.575354, -22.127338, 72.500000
9.514751, -21.987291, 72.625000
9.514751, -21.987291, 72.750000
9.454147, -21.847245, 72.875000
9.393544, -21.707198, 73.000000
9.393544, -21.707198, 73.125000
9.393544, -21.707198, 73.250000
9.393544, -21.707198, 73.375000
9.393544, -21.707198, 73.500000
9.454147, -21.847245, 73.625000
9.393544, -21.707198, 73.750000
9.454147, -21.847245, 73.875000
9.454147, -21.847245, 74.000000
9.514751, -21.987291, 74.125000
9.514751, -21.987291, 74.250000
9.575354, -22.127338, 74.375000
9.635958, -22.267384, 74.500000
9.635958, -22.267384, 74.625000
9.696561, -22.407431, 74.750000
9.817768, -22.687523, 74.875000
9.878372, -22.827570, 75.000000
9.878372, -22.827570, 75.125000
9.938975, -22.967616, 75.250000
9.999579, -23.107663, 75.375000
10.060182, -23.247709, 75.500000
10.120786, -23.387756, 75.625000
10.181389, -23.527802, 75.750000
10.241993, -23.667848, 75.875000
10.302596, -23.807895, 76.000000
10.423803, -24.087988, 76.125000
10.484407, -24.228034, 76.250000
10.545010, -24.368081, 76.375000
10.605614, -24.508127, 76.500000
10.666217, -24.648174, 76.625000
10.787424, -24.928266, 76.750000
10.848028, -25.068313, 76.875000
10.908631, -25.208359, 77.000000
10.969235, -25.348406, 77.125000
11.029838, -25.488452, 77.250000
11.151045, -25.768545, 77.375000
11.211649, -25.908592, 77.500000
11.332856, -26.188684, 77.625000
11.393459, -26.328731, 77.750000
11.454063, -26.468777, 77.875000
11.514666, -26.608824, 78.000000
11.635873, -26.888917, 78.125000
11.757080, -27.169009, 78.250000
11.817684, -27.309056, 78.375000
11.878287, -27.449102, 78.500000
11.999494, -27.729195, 78.625000
12.060098, -27.869242, 78.750000
12.120701, -28.009288, 78.875000
12.241908, -28.289381, 79.000000
12.241908, -28.289381, 79.125000
12.363115, -28.569474, 79.250000
12.363115, -28.569474, 79.375000
12.423719, -28.709520, 79.500000
12.544926, -28.989613, 79.625000
12.544926, -28.989613, 79.750000
12.544926, -28.989613, 79.875000
12.605529, -29.129660, 80.000000
12.605529, -29.129660, 80.125000
12.666133, -29.269706, 80.250000
12.726736, -29.409753, 80.375000
10.525556, -22.367945, 24.500000
10.460583, -22.229871, 24.625000
10.915391, -23.196387, 25.750000
10.980364, -23.334461, 25.875000
11.305227, -24.024830, 26.000000
10.850419, -23.058314, 26.125000
11.370199, -24.162903, 26.250000
11.305227, -24.024830, 26.375000
11.370199, -24.162903, 26.500000
11.500144, -24.439051, 26.625000
11.500144, -24.439051, 26.750000
11.500144, -24.439051, 26.875000
11.630090, -24.715198, 27.000000
11.695062, -24.853272, 27.125000
11.760035, -24.991346, 27.250000
11.825007, -25.129420, 27.375000
11.825007, -25.129420, 27.500000
11.889980, -25.267493, 27.625000
11.889980, -25.267493, 27.750000
11.954952, -25.405567, 27.875000
12.019925, -25.543641, 28.000000
12.084898, -25.681715, 28.125000
12.149870, -25.819788, 28.250000
12.214843, -25.957862, 28.375000
12.214843, -25.957862, 28.500000
12.344788, -26.234009, 28.625000
12.344788, -26.234009, 28.750000
12.409760, -26.372083, 28.875000
12.474733, -26.510157, 29.000000
12.474733, -26.510157, 29.125000
12.539706, -26.648231, 29.250000
12.539706, -26.648231, 29.375000
12.604678, -26.786304, 29.500000
12.604678, -26.786304, 29.625000
12.669651, -26.924378, 29.750000
12.669651, -26.924378, 29.875000
12.734623, -27.062452, 30.000000
12.799596, -27.200526, 30.125000
12.864568, -27.338599, 30.250000
12.864568, -27.338599, 30.375000
12.994513, -27.614747, 30.500000
12.994513, -27.614747, 30.625000
13.059486, -27.752821, 30.750000
13.124459, -27.890894, 30.875000
13.124459, -27.890894, 31.000000
13.124459, -27.890894, 31.125000
13.189431, -28.028968, 31.250000
13.254404, -28.167042, 31.375000
13.319376, -28.305115, 31.500000
13.319376, -28.305115, 31.625000
13.319376, -28.305115, 31.750000
13.384349, -28.443189, 31.875000
13.384349, -28.443189, 32.000000
13.514294, -28.719337, 32.125000
13.514294, -28.719337, 32.250000
13.514294, -28.719337, 32.375000
13.579267, -28.857410, 32.500000
13.644239, -28.995484, 32.625000
13.644239, -28.995484, 32.750000
13.709212, -29.133558, 32.875000
13.709212, -29.133558, 33.000000
13.774184, -29.271632, 33.125000
13.774184, -29.271632, 33.250000
13.839157, -29.409705, 33.375000
13.839157, -29.409705, 33.500000
13.904129, -29.547779, 33.625000
13.904129, -29.547779, 33.750000
13.969102, -29.685853, 33.875000
13.969102, -29.685853, 34.000000
14.034075, -29.823927, 34.125000
14.034075, -29.823927, 34.250000
14.099047, -29.962000, 34.375000
14.099047, -29.962000, 34.500000
14.164020, -30.100074, 34.625000
14.164020, -30.100074, 34.750000
14.228992, -30.238148, 34.875000
14.228992, -30.238148, 35.000000
14.293965, -30.376222, 35.125000
14.293965, -30.376222, 35.250000
14.293965, -30.376222, 35.375000
14.358937, -30.514295, 35.500000
14.358937, -30.514295, 35.625000
14.423910, -30.652369, 35.750000
14.488883, -30.790443, 35.875000
14.488883, -30.790443, 36.000000
14.488883, -30.790443, 36.125000
14.553855, -30.928516, 36.250000
14.553855, -30.928516, 36.375000
14.553855, -30.928516, 36.500000
14.553855, -30.928516, 36.625000
14.618828, -31.066590, 36.750000
14.618828, -31.066590, 36.875000
14.683800, -31.204664, 37.000000
14.683800, -31.204664, 37.125000
14.683800, -31.204664, 37.250000
14.748773, -31.342738, 37.375000
14.748773, -31.342738, 37.500000
14.748773, -31.342738, 37.625000
14.813745, -31.480811, 37.750000
14.813745, -31.480811, 37.875000
14.878718, -31.618885, 38.000000
14.943691, -31.756959, 38.125000
14.878718, -31.618885, 38.250000
14.943691, -31.756959, 38.375000
14.943691, -31.756959, 38.500000
14.943691, -31.756959, 38.625000
14.943691, -31.756959, 38.750000
15.008663, -31.895033, 38.875000
15.073636, -32.033106, 39.000000
15.008663, -31.895033, 39.125000
15.073636, -32.033106, 39.250000
15.073636, -32.033106, 39.375000
15.073636, -32.033106, 39.500000
15.203581, -32.309254, 39.625000
15.138608, -32.171180, 39.750000
15.138608, -32.171180, 39.875000
15.138608, -32.171180, 40.000000
15.203581, -32.309254, 40.125000
15.203581, -32.309254, 40.250000
15.203581, -32.309254, 40.375000
15.203581, -32.309254, 40.500000
15.268553, -32.447328, 40.625000
15.268553, -32.447328, 40.750000
15.268553, -32.447328, 40.875000
15.268553, -32.447328, 41.000000
15.268553, -32.447328, 41.125000
15.333526, -32.585401, 41.250000
15.333526, -32.585401, 41.375000
15.333526, -32.585401, 41.500000
15.333526, -32.585401, 41.625000
15.398498, -32.723475, 41.750000
15.398498, -32.723475, 41.875000
15.398498, -32.723475, 42.000000
15.398498, -32.723475, 42.125000
15.463471, -32.861549, 42.250000
15.463471, -32.861549, 42.375000
15.463471, -32.861549, 42.500000
15.463471, -32.861549, 42.625000
15.463471, -32.861549, 42.750000
15.593416, -33.137696, 42.875000
15.528444, -32.999622, 43.000000
15.528444, -32.999622, 43.125000
15.528444, -32.999622, 43.250000
15.528444, -32.999622, 43.375000
15.528444, -32.999622, 43.500000
15.593416, -33.137696, 43.625000
15.593416, -33.137696, 43.750000
15.593416, -33.137696, 43.875000
15.593416, -33.137696, 44.000000
15.658389, -33.275770, 44.125000
15.593416, -33.137696, 44.250000
15.658389, -33.275770, 44.375000
15.658389, -33.275770, 44.500000
15.658389, -33.275770, 44.625000
15.658389, -33.275770, 44.750000
15.658389, -33.275770, 44.875000
15.658389, -33.275770, 45.000000
15.723361, -33.413844, 45.125000
15.723361, -33.413844, 45.250000
15.723361, -33.413844, 45.375000
15.723361, -33.413844, 45.500000
15.723361, -33.413844, 45.625000
15.723361, -33.413844, 45.750000
15.723361, -33.413844, 45.875000
15.723361, -33.413844, 46.000000
15.788334, -33.551917, 46.125000
15.788334, -33.551917, 46.250000
15.788334, -33.551917, 46.375000
15.788334, -33.551917, 46.500000
15.788334, -33.551917, 46.625000
15.788334, -33.551917, 46.750000
15.788334, -33.551917, 46.875000
15.853306, -33.689991, 47.000000
15.853306, -33.689991, 47.125000
15.853306, -33.689991, 47.250000
15.853306, -33.689991, 47.375000
15.853306, -33.689991, 47.500000
15.918279, -33.828065, 47.625000
15.853306, -33.689991, 47.750000
15.853306, -33.689991, 47.875000
15.853306, -33.689991, 48.000000
15.853306, -33.689991, 48.125000
15.788334, -33.551917, 48.250000
15.853306, -33.689991, 48.375000
15.853306, -33.689991, 48.500000
15.853306, -33.689991, 48.625000
15.853306, -33.689991, 48.750000
15.853306, -33.689991, 48.875000
15.853306, -33.689991, 49.000000
15.853306, -33.689991, 49.125000
15.853306, -33.689991, 49.250000
15.853306, -33.689991, 49.375000
15.853306, -33.689991, 49.500000
15.918279, -33.828065, 49.625000
15.918279, -33.828065, 49.750000
15.853306, -33.689991, 49.875000
15.918279, -33.828065, 50.000000
15.918279, -33.828065, 50.125000
15.853306, -33.689991, 50.250000
15.853306, -33.689991, 50.375000
15.853306, -33.689991, 50.500000
15.853306, -33.689991, 50.625000
15.853306, -33.689991, 50.750000
15.853306, -33.689991, 50.875000
15.853306, -33.689991, 51.000000
15.853306, -33.689991, 51.125000
15.853306, -33.689991, 51.250000
15.853306, -33.689991, 51.375000
15.853306, -33.689991, 51.500000
15.853306, -33.689991, 51.625000
15.853306, -33.689991, 51.750000
15.788334, -33.551917, 51.875000
15.788334, -33.551917, 52.000000
15.788334, -33.551917, 52.125000
15.788334, -33.551917, 52.250000
15.788334, -33.551917, 52.375000
15.788334, -33.551917, 52.500000
15.788334, -33.551917, 52.625000
15.788334, -33.551917, 52.750000
15.788334, -33.551917, 52.875000
15.788334, -33.551917, 53.000000
15.788334, -33.551917, 53.125000
15.788334, -33.551917, 53.250000
15.788334, -33.551917, 53.375000
15.723361, -33.413844, 53.500000
15.723361, -33.413844, 53.625000
15.788334, -33.551917, 53.750000
15.788334, -33.551917, 53.875000
15.788334, -33.551917, 54.000000
15.723361, -33.413844, 54.125000
15.723361, -33.413844, 54.250000
15.723361, -33.413844, 54.375000
15.723361, -33.413844, 54.500000
15.723361, -33.413844, 54.625000
15.658389, -33.275770, 54.750000
15.658389, -33.275770, 54.875000
15.658389, -33.275770, 55.000000
15.658389, -33.275770, 55.125000
15.658389, -33.275770, 55.250000
15.658389, -33.275770, 55.375000
15.593416, -33.137696, 55.500000
15.593416, -33.137696, 55.625000
15.593416, -33.137696, 55.750000
15.593416, -33.137696, 55.875000
15.593416, -33.137696, 56.000000
15.528444, -32.999622, 56.125000
15.593416, -33.137696, 56.250000
15.528444, -32.999622, 56.375000
15.528444, -32.999622, 56.500000
15.528444, -32.999622, 56.625000
15.528444, -32.999622, 56.750000
15.463471, -32.861549, 56.875000
15.463471, -32.861549, 57.000000
15.463471, -32.861549, 57.125000
15.398498, -32.723475, 57.250000
15.398498, -32.723475, 57.375000
15.398498, -32.723475, 57.500000
15.398498, -32.723475, 57.625000
15.398498, -32.723475, 57.750000
15.333526, -32.585401, 57.875000
15.333526, -32.585401, 58.000000
15.333526, -32.585401, 58.125000
15.333526, -32.585401, 58.250000
15.268553, -32.447328, 58.375000
15.268553, -32.447328, 58.500000
15.333526, -32.585401, 58.625000
15.268553, -32.447328, 58.750000
15.268553, -32.447328, 58.875000
15.203581, -32.309254, 59.000000
15.203581, -32.309254, 59.125000
15.203581, -32.309254, 59.250000
15.203581, -32.309254, 59.375000
15.138608, -32.171180, 59.500000
15.138608, -32.171180, 59.625000
15.138608, -32.171180, 59.750000
15.073636, -32.033106, 59.875000
15.073636, -32.033106, 60.000000
15.073636, -32.033106, 60.125000
15.008663, -31.895033, 60.250000
15.008663, -31.895033, 60.375000
15.008663, -31.895033, 60.500000
14.943691, -31.756959, 60.625000
14.943691, -31.756959, 60.750000
14.943691, -31.756959, 60.875000
14.878718, -31.618885, 61.000000
14.878718, -31.618885, 61.125000
14.878718, -31.618885, 61.250000
14.878718, -31.618885, 61.375000
14.748773, -31.342738, 61.500000
14.748773, -31.342738, 61.625000
14.748773, -31.342738, 61.750000
14.748773, -31.342738, 61.875000
14.683800, -31.204664, 62.000000
14.683800, -31.204664, 62.125000
14.683800, -31.204664, 62.250000
14.683800, -31.204664, 62.375000
14.618828, -31.066590, 62.500000
14.553855, -30.928516, 62.625000
14.553855, -30.928516, 62.750000
14.488883, -30.790443, 62.875000
14.488883, -30.790443, 63.000000
14.488883, -30.790443, 63.125000
14.423910, -30.652369, 63.250000
14.423910, -30.652369, 63.375000
14.293965, -30.376222, 63.500000
14.293965, -30.376222, 63.625000
14.293965, -30.376222, 63.750000
14.358937, -30.514295, 63.875000
14.228992, -30.238148, 64.000000
14.228992, -30.238148, 64.125000
14.164020, -30.100074, 64.250000
14.099047, -29.962000, 64.375000
14.099047, -29.962000, 64.500000
14.099047, -29.962000, 64.625000
13.969102, -29.685853, 64.750000
13.969102, -29.685853, 64.875000
13.904129, -29.547779, 65.000000
13.904129, -29.547779, 65.125000
13.904129, -29.547779, 65.250000
13.839157, -29.409705, 65.375000
13.774184, -29.271632, 65.500000
13.579267, -28.857410, 65.625000
13.579267, -28.857410, 65.750000
13.579267, -28.857410, 65.875000
13.644239, -28.995484, 66.000000
13.514294, -28.719337, 66.125000
13.579267, -28.857410, 66.250000
13.449321, -28.581263, 66.375000
13.449321, -28.581263, 66.500000
13.449321, -28.581263, 66.625000
13.124459, -27.890894, 66.875000
13.189431, -28.028968, 67.000000
13.124459, -27.890894, 67.375000
12.799596, -27.200526, 67.500000
10.330638, -21.953724, 72.375000
10.265666, -21.815650, 72.500000
10.200693, -21.677576, 72.625000
10.135721, -21.539503, 72.750000
10.135721, -21.539503, 72.875000
10.070748, -21.401429, 73.000000
10.070748, -21.401429, 73.125000
10.070748, -21.401429, 73.250000
10.070748, -21.401429, 73.375000
10.070748, -21.401429, 73.500000
10.070748, -21.401429, 73.625000
10.070748, -21.401429, 73.750000
10.135721, -21.539503, 73.875000
10.135721, -21.539503, 74.000000
10.200693, -21.677576, 74.125000
10.265666, -21.815650, 74.250000
10.265666, -21.815650, 74.375000
10.330638, -21.953724, 74.500000
10.395611, -22.091797, 74.625000
10.395611, -22.091797, 74.750000
10.460583, -22.229871, 74.875000
10.525556, -22.367945, 75.000000
10.590528, -22.506019, 75.125000
10.655501, -22.644092, 75.250000
10.720474, -22.782166, 75.375000
10.785446, -22.920240, 75.500000
10.850419, -23.058314, 75.625000
10.915391, -23.196387, 75.750000
10.980364, -23.334461, 75.875000
11.045336, -23.472535, 76.000000
11.175282, -23.748682, 76.125000
11.240254, -23.886756, 76.250000
11.305227, -24.024830, 76.375000
11.500144, -24.439051, 76.500000
11.500144, -24.439051, 76.625000
11.565117, -24.577125, 76.750000
11.630090, -24.715198, 76.875000
11.695062, -24.853272, 77.000000
11.825007, -25.129420, 77.125000
11.889980, -25.267493, 77.250000
12.019925, -25.543641, 77.375000
12.019925, -25.543641, 77.500000
12.084898, -25.681715, 77.625000
12.214843, -25.957862, 77.750000
12.279815, -26.095936, 77.875000
12.409760, -26.372083, 78.000000
12.474733, -26.510157, 78.125000
12.539706, -26.648231, 78.250000
12.669651, -26.924378, 78.375000
12.734623, -27.062452, 78.500000
12.799596, -27.200526, 78.625000
12.929541, -27.476673, 78.750000
12.994513, -27.614747, 78.875000
13.059486, -27.752821, 79.000000
13.124459, -27.890894, 79.125000
13.254404, -28.167042, 79.250000
13.319376, -28.305115, 79.375000
13.319376, -28.305115, 79.500000
13.384349, -28.443189, 79.625000
13.449321, -28.581263, 79.750000
13.514294, -28.719337, 79.875000
13.514294, -28.719337, 80.000000
13.579267, -28.857410, 80.125000
13.644239, -28.995484, 80.250000
11.569344, -22.706116, 25.375000
11.846454, -23.249975, 25.875000
11.846454, -23.249975, 26.000000
11.985009, -23.521904, 26.125000
11.985009, -23.521904, 26.250000
12.054286, -23.657869, 26.375000
12.123564, -23.793834, 26.500000
12.192841, -23.929799, 26.625000
12.262119, -24.065763, 26.750000
12.331396, -24.201728, 26.875000
12.400674, -24.337693, 27.000000
12.400674, -24.337693, 27.125000
12.469951, -24.473658, 27.250000
12.539229, -24.609623, 27.375000
12.539229, -24.609623, 27.500000
12.677784, -24.881552, 27.625000
12.677784, -24.881552, 27.750000
12.816339, -25.153482, 27.875000
12.816339, -25.153482, 28.000000
12.885617, -25.289446, 28.125000
12.954894, -25.425411, 28.250000
13.024172, -25.561376, 28.375000
13.024172, -25.561376, 28.500000
13.093449, -25.697341, 28.625000
13.162727, -25.833305, 28.750000
13.162727, -25.833305, 28.875000
13.232004, -25.969270, 29.000000
13.301282, -26.105235, 29.125000
13.301282, -26.105235, 29.250000
13.370559, -26.241200, 29.375000
13.439837, -26.377164, 29.500000
13.439837, -26.377164, 29.625000
13.509114, -26.513129, 29.750000
13.578392, -26.649094, 29.875000
13.647669, -26.785059, 30.000000
13.647669, -26.785059, 30.125000
13.647669, -26.785059, 30.250000
13.716947, -26.921024, 30.375000
13.786224, -27.056988, 30.500000
13.855502, -27.192953, 30.625000
13.924779, -27.328918, 30.750000
13.924779, -27.328918, 30.875000
13.994057, -27.464883, 31.000000
14.063334, -27.600847, 31.125000
14.063334, -27.600847, 31.250000
14.132612, -27.736812, 31.375000
14.132612, -27.736812, 31.500000
14.201889, -27.872777, 31.625000
14.201889, -27.872777, 31.750000
14.271167, -28.008742, 31.875000
14.271167, -28.008742, 32.000000
14.340444, -28.144706, 32.125000
14.340444, -28.144706, 32.250000
14.409722, -28.280671, 32.375000
14.478999, -28.416636, 32.500000
14.478999, -28.416636, 32.625000
14.548277, -28.552601, 32.750000
14.548277, -28.552601, 32.875000
14.617554, -28.688565, 33.000000
14.617554, -28.688565, 33.125000
14.686832, -28.824530, 33.250000
14.756109, -28.960495, 33.375000
14.756109, -28.960495, 33.500000
14.825387, -29.096460, 33.625000
14.825387, -29.096460, 33.750000
14.825387, -29.096460, 33.875000
14.894664, -29.232425, 34.000000
14.894664, -29.232425, 34.125000
15.033219, -29.504354, 34.250000
14.963942, -29.368389, 34.375000
15.033219, -29.504354, 34.500000
15.033219, -29.504354, 34.625000
15.102497, -29.640319, 34.750000
15.102497, -29.640319, 34.875000
15.171774, -29.776284, 35.000000
15.171774, -29.776284, 35.125000
15.241052, -29.912248, 35.250000
15.310329, -30.048213, 35.375000
15.310329, -30.048213, 35.500000
15.379607, -30.184178, 35.625000
15.310329, -30.048213, 35.750000
15.379607, -30.184178, 35.875000
15.379607, -30.184178, 36.000000
15.448884, -30.320143, 36.125000
15.448884, -30.320143, 36.250000
15.448884, -30.320143, 36.375000
15.518162, -30.456107, 36.500000
15.518162, -30.456107, 36.625000
15.587439, -30.592072, 36.750000
15.587439, -30.592072, 36.875000
15.656717, -30.728037, 37.000000
15.656717, -30.728037, 37.125000
15.725994, -30.864002, 37.250000
15.656717, -30.728037, 37.375000
15.725994, -30.864002, 37.500000
15.725994, -30.864002, 37.625000
15.795272, -30.999967, 37.750000
15.795272, -30.999967, 37.875000
15.795272, -30.999967, 38.000000
15.795272, -30.999967, 38.125000
15.864549, -31.135931, 38.250000
15.864549, -31.135931, 38.375000
15.864549, -31.135931, 38.500000
15.933827, -31.271896, 38.625000
15.933827, -31.271896, 38.750000
15.933827, -31.271896, 38.875000
16.003104, -31.407861, 39.000000
16.003104, -31.407861, 39.125000
16.003104, -31.407861, 39.250000
16.072382, -31.543826, 39.375000
16.072382, -31.543826, 39.500000
16.072382, -31.543826, 39.625000
16.141659, -31.679790, 39.750000
16.141659, -31.679790, 39.875000
16.141659, -31.679790, 40.000000
16.141659, -31.679790, 40.125000
16.141659, -31.679790, 40.250000
16.210937, -31.815755, 40.375000
16.210937, -31.815755, 40.500000
16.210937, -31.815755, 40.625000
16.280214, -31.951720, 40.750000
16.280214, -31.951720, 40.875000
16.280214, -31.951720, 41.000000
16.280214, -31.951720, 41.125000
16.280214, -31.951720, 41.250000
16.349492, -32.087685, 41.375000
16.349492, -32.087685, 41.500000
16.349492, -32.087685, 41.625000
16.418769, -32.223649, 41.750000
16.418769, -32.223649, 41.875000
16.418769, -32.223649, 42.000000
16.418769, -32.223649, 42.125000
16.418769, -32.223649, 42.250000
16.418769, -32.223649, 42.375000
16.488047, -32.359614, 42.500000
16.488047, -32.359614, 42.625000
16.488047, -32.359614, 42.750000
16.557324, -32.495579, 42.875000
16.557324, -32.495579, 43.000000
16.557324, -32.495579, 43.125000
16.557324, -32.495579, 43.250000
16.557324, -32.495579, 43.375000
16.557324, -32.495579, 43.500000
16.557324, -32.495579, 43.625000
16.626602, -32.631544, 43.750000
16.626602, -32.631544, 43.875000
16.626602, -32.631544, 44.000000
16.626602, -32.631544, 44.125000
16.626602, -32.631544, 44.250000
16.626602, -32.631544, 44.375000
16.626602, -32.631544, 44.500000
16.695879, -32.767508, 44.625000
16.695879, -32.767508, 44.750000
16.695879, -32.767508, 44.875000
16.695879, -32.767508, 45.000000
16.695879, -32.767508, 45.125000
16.695879, -32.767508, 45.250000
16.695879, -32.767508, 45.375000
16.765157, -32.903473, 45.500000
16.765157, -32.903473, 45.625000
16.765157, -32.903473, 45.750000
16.765157, -32.903473, 45.875000
16.765157, -32.903473, 46.000000
16.765157, -32.903473, 46.125000
16.834434, -33.039438, 46.250000
16.834434, -33.039438, 46.375000
16.834434, -33.039438, 46.500000
16.834434, -33.039438, 46.625000
16.834434, -33.039438, 46.750000
16.834434, -33.039438, 46.875000
16.834434, -33.039438, 47.000000
16.834434, -33.039438, 47.125000
16.834434, -33.039438, 47.250000
16.834434, -33.039438, 47.375000
16.834434, -33.039438, 47.500000
16.834434, -33.039438, 47.625000
16.903712, -33.175403, 47.750000
16.834434, -33.039438, 47.875000
16.903712, -33.175403, 48.000000
16.903712, -33.175403, 48.125000
16.834434, -33.039438, 48.250000
16.903712, -33.175403, 48.375000
16.903712, -33.175403, 48.500000
16.903712, -33.175403, 48.625000
16.903712, -33.175403, 48.750000
16.903712, -33.175403, 48.875000
16.903712, -33.175403, 49.000000
16.903712, -33.175403, 49.125000
16.903712, -33.175403, 49.250000
16.903712, -33.175403, 49.375000
16.903712, -33.175403, 49.500000
16.903712, -33.175403, 49.625000
16.903712, -33.175403, 49.750000
16.903712, -33.175403, 49.875000
16.903712, -33.175403, 50.000000
16.903712, -33.175403, 50.125000
16.903712, -33.175403, 50.250000
16.903712, -33.175403, 50.375000
16.903712, -33.175403, 50.500000
16.903712, -33.175403, 50.625000
16.903712, -33.175403, 50.750000
16.903712, -33.175403, 50.875000
16.903712, -33.175403, 51.000000
16.903712, -33.175403, 51.125000
16.903712, -33.175403, 51.250000
16.903712, -33.175403, 51.375000
16.903712, -33.175403, 51.500000
16.834434, -33.039438, 51.625000
16.903712, -33.175403, 51.750000
16.834434, -33.039438, 51.875000
16.834434, -33.039438, 52.000000
16.834434, -33.039438, 52.125000
16.834434, -33.039438, 52.250000
16.834434, -33.039438, 52.375000
16.834434, -33.039438, 52.500000
16.834434, -33.039438, 52.625000
16.834434, -33.039438, 52.750000
16.834434, -33.039438, 52.875000
16.834434, -33.039438, 53.000000
16.834434, -33.039438, 53.125000
16.903712, -33.175403, 53.250000
16.834434, -33.039438, 53.375000
16.834434, -33.039438, 53.500000
16.765157, -32.903473, 53.625000
16.765157, -32.903473, 53.750000
16.765157, -32.903473, 53.875000
16.765157, -32.903473, 54.000000
16.834434, -33.039438, 54.125000
16.765157, -32.903473, 54.250000
16.765157, -32.903473, 54.375000
16.695879, -32.767508, 54.500000
16.695879, -32.767508, 54.625000
16.695879, -32.767508, 54.750000
16.695879, -32.767508, 54.875000
16.765157, -32.903473, 55.000000
16.695879, -32.767508, 55.125000
16.695879, -32.767508, 55.250000
16.695879, -32.767508, 55.375000
16.695879, -32.767508, 55.500000
16.626602, -32.631544, 55.625000
16.626602, -32.631544, 55.750000
16.626602, -32.631544, 55.875000
16.626602, -32.631544, 56.000000
16.557324, -32.495579, 56.125000
16.557324, -32.495579, 56.250000
16.626602, -32.631544, 56.375000
16.557324, -32.495579, 56.500000
16.557324, -32.495579, 56.625000
16.557324, -32.495579, 56.750000
16.488047, -32.359614, 56.875000
16.488047, -32.359614, 57.000000
16.488047, -32.359614, 57.125000
16.488047, -32.359614, 57.250000
16.488047, -32.359614, 57.375000
16.418769, -32.223649, 57.500000
16.418769, -32.223649, 57.625000
16.418769, -32.223649, 57.750000
16.418769, -32.223649, 57.875000
16.349492, -32.087685, 58.000000
16.349492, -32.087685, 58.125000
16.349492, -32.087685, 58.250000
16.349492, -32.087685, 58.375000
16.280214, -31.951720, 58.500000
16.280214, -31.951720, 58.625000
16.280214, -31.951720, 58.750000
16.210937, -31.815755, 58.875000
16.210937, -31.815755, 59.000000
16.210937, -31.815755, 59.125000
16.210937, -31.815755, 59.250000
16.141659, -31.679790, 59.375000
16.141659, -31.679790, 59.500000
16.141659, -31.679790, 59.625000
16.072382, -31.543826, 59.750000
16.072382, -31.543826, 59.875000
16.003104, -31.407861, 60.000000
16.003104, -31.407861, 60.125000
16.003104, -31.407861, 60.250000
16.003104, -31.407861, 60.375000
15.933827, -31.271896, 60.500000
15.933827, -31.271896, 60.625000
15.933827, -31.271896, 60.750000
15.864549, -31.135931, 60.875000
15.933827, -31.271896, 61.000000
15.864549, -31.135931, 61.125000
15.795272, -30.999967, 61.250000
15.795272, -30.999967, 61.375000
15.795272, -30.999967, 61.500000
15.725994, -30.864002, 61.625000
15.725994, -30.864002, 61.750000
15.725994, -30.864002, 61.875000
15.656717, -30.728037, 62.000000
15.656717, -30.728037, 62.125000
15.656717, -30.728037, 62.250000
15.587439, -30.592072, 62.375000
15.587439, -30.592072, 62.500000
15.518162, -30.456107, 62.625000
15.518162, -30.456107, 62.750000
15.448884, -30.320143, 62.875000
15.448884, -30.320143, 63.000000
15.448884, -30.320143, 63.125000
15.379607, -30.184178, 63.250000
15.379607, -30.184178, 63.375000
15.241052, -29.912248, 63.500000
15.241052, -29.912248, 63.625000
15.241052, -29.912248, 63.750000
15.171774, -29.776284, 63.875000
15.102497, -29.640319, 64.000000
15.102497, -29.640319, 64.125000
15.102497, -29.640319, 64.250000
15.102497, -29.640319, 64.375000
15.102497, -29.640319, 64.500000
15.033219, -29.504354, 64.625000
14.963942, -29.368389, 64.750000
14.894664, -29.232425, 64.875000
14.825387, -29.096460, 65.000000
14.825387, -29.096460, 65.125000
14.756109, -28.960495, 65.250000
14.756109, -28.960495, 65.375000
14.686832, -28.824530, 65.500000
14.686832, -28.824530, 65.625000
14.617554, -28.688565, 65.750000
14.478999, -28.416636, 65.875000
14.409722, -28.280671, 66.000000
14.478999, -28.416636, 66.125000
14.340444, -28.144706, 66.250000
14.271167, -28.008742, 66.375000
14.271167, -28.008742, 66.500000
14.271167, -28.008742, 66.625000
14.063334, -27.600847, 66.750000
14.132612, -27.736812, 66.875000
14.201889, -27.872777, 67.000000
13.786224, -27.056988, 67.125000
10.876569, -21.346468, 72.375000
10.945846, -21.482433, 72.500000
10.807291, -21.210503, 72.625000
10.807291, -21.210503, 72.750000
10.807291, -21.210503, 72.875000
10.807291, -21.210503, 73.000000
10.807291, -21.210503, 73.125000
10.738014, -21.074539, 73.250000
10.807291, -21.210503, 73.375000
10.738014, -21.074539, 73.500000
10.738014, -21.074539, 73.625000
10.738014, -21.074539, 73.750000
10.807291, -21.210503, 73.875000
10.807291, -21.210503, 74.000000
10.876569, -21.346468, 74.125000
10.876569, -21.346468, 74.250000
10.945846, -21.482433, 74.375000
11.015124, -21.618398, 74.500000
11.084401, -21.754362, 74.625000
11.084401, -21.754362, 74.750000
11.153679, -21.890327, 74.875000
11.222956, -22.026292, 75.000000
11.292234, -22.162257, 75.125000
11.361511, -22.298222, 75.250000
11.430789, -22.434186, 75.375000
11.500066, -22.570151, 75.500000
11.569344, -22.706116, 75.625000
11.638621, -22.842081, 75.750000
11.777176, -23.114010, 75.875000
11.846454, -23.249975, 76.000000
11.915731, -23.385940, 76.125000
11.985009, -23.521904, 76.250000
12.054286, -23.657869, 76.375000
12.192841, -23.929799, 76.500000
12.262119, -24.065763, 76.625000
12.331396, -24.201728, 76.750000
12.400674, -24.337693, 76.875000
12.469951, -24.473658, 77.000000
12.677784, -24.881552, 77.125000
12.677784, -24.881552, 77.250000
12.747062, -25.017517, 77.375000
12.885617, -25.289446, 77.500000
13.024172, -25.561376, 77.625000
13.093449, -25.697341, 77.750000
13.162727, -25.833305, 77.875000
13.232004, -25.969270, 78.000000
13.301282, -26.105235, 78.125000
13.439837, -26.377164, 78.250000
13.509114, -26.513129, 78.375000
13.578392, -26.649094, 78.500000
13.716947, -26.921024, 78.625000
13.786224, -27.056988, 78.750000
13.855502, -27.192953, 78.875000
13.994057, -27.464883, 79.000000
14.063334, -27.600847, 79.125000
14.063334, -27.600847, 79.250000
14.132612, -27.736812, 79.375000
14.201889, -27.872777, 79.500000
14.271167, -28.008742, 79.625000
14.340444, -28.144706, 79.750000
14.478999, -28.416636, 79.875000
14.409722, -28.280671, 80.000000
14.409722, -28.280671, 80.125000
14.409722, -28.280671, 80.250000
14.478999, -28.416636, 80.375000
12.864964, -23.401283, 25.875000
12.644422, -23.000118, 26.000000
12.791450, -23.267561, 26.125000
12.791450, -23.267561, 26.250000
12.791450, -23.267561, 26.375000
12.864964, -23.401283, 26.500000
12.938478, -23.535004, 26.625000
13.011992, -23.668726, 26.750000
13.085506, -23.802448, 26.875000
13.085506, -23.802448, 27.000000
13.159020, -23.936169, 27.125000
13.232534, -24.069891, 27.250000
13.306049, -24.203612, 27.375000
13.306049, -24.203612, 27.500000
13.379563, -24.337334, 27.625000
13.453077, -24.471056, 27.750000
13.526591, -24.604777, 27.875000
13.600105, -24.738499, 28.000000
13.673619, -24.872221, 28.125000
13.747133, -25.005942, 28.250000
13.820647, -25.139664, 28.375000
13.894161, -25.273385, 28.500000
13.894161, -25.273385, 28.625000
13.894161, -25.273385, 28.750000
13.967675, -25.407107, 28.875000
14.041189, -25.540829, 29.000000
14.114703, -25.674550, 29.125000
14.114703, -25.674550, 29.250000
14.188218, -25.808272, 29.375000
14.335246, -26.075715, 29.500000
14.261732, -25.941993, 29.625000
14.335246, -26.075715, 29.750000
14.408760, -26.209437, 29.875000
14.408760, -26.209437, 30.000000
14.482274, -26.343158, 30.125000
14.555788, -26.476880, 30.250000
14.555788, -26.476880, 30.375000
14.629302, -26.610602, 30.500000
14.702816, -26.744323, 30.625000
14.776330, -26.878045, 30.750000
14.776330, -26.878045, 30.875000
14.849844, -27.011766, 31.000000
14.923358, -27.145488, 31.125000
14.923358, -27.145488, 31.250000
14.996872, -27.279210, 31.375000
14.996872, -27.279210, 31.500000
15.070386, -27.412931, 31.625000
15.143901, -27.546653, 31.750000
15.143901, -27.546653, 31.875000
15.217415, -27.680374, 32.000000
15.217415, -27.680374, 32.125000
15.290929, -27.814096, 32.250000
15.290929, -27.814096, 32.375000
15.364443, -27.947818, 32.500000
15.437957, -28.081539, 32.625000
15.437957, -28.081539, 32.750000
15.437957, -28.081539, 32.875000
15.511471, -28.215261, 33.000000
15.511471, -28.215261, 33.125000
15.584985, -28.348983, 33.250000
15.658499, -28.482704, 33.375000
15.732013, -28.616426, 33.500000
15.658499, -28.482704, 33.625000
15.732013, -28.616426, 33.750000
15.732013, -28.616426, 33.875000
15.805527, -28.750147, 34.000000
15.879041, -28.883869, 34.125000
15.879041, -28.883869, 34.250000
15.879041, -28.883869, 34.375000
15.952555, -29.017591, 34.500000
16.026070, -29.151312, 34.625000
16.026070, -29.151312, 34.750000
16.026070, -29.151312, 34.875000
16.099584, -29.285034, 35.000000
16.173098, -29.418755, 35.125000
16.173098, -29.418755, 35.250000
16.246612, -29.552477, 35.375000
16.246612, -29.552477, 35.500000
16.246612, -29.552477, 35.625000
16.246612, -29.552477, 35.750000
16.393640, -29.819920, 35.875000
16.393640, -29.819920, 36.000000
16.393640, -29.819920, 36.125000
16.393640, -29.819920, 36.250000
16.393640, -29.819920, 36.375000
16.467154, -29.953642, 36.500000
16.467154, -29.953642, 36.625000
16.540668, -30.087364, 36.750000
16.540668, -30.087364, 36.875000
16.540668, -30.087364, 37.000000
16.687696, -30.354807, 37.125000
16.614182, -30.221085, 37.250000
16.614182, -30.221085, 37.375000
16.687696, -30.354807, 37.500000
16.687696, -30.354807, 37.625000
16.761210, -30.488528, 37.750000
16.761210, -30.488528, 37.875000
16.761210, -30.488528, 38.000000
16.834724, -30.622250, 38.125000
16.834724, -30.622250, 38.250000
16.834724, -30.622250, 38.375000
16.834724, -30.622250, 38.500000
16.908238, -30.755972, 38.625000
16.908238, -30.755972, 38.750000
16.981753, -30.889693, 38.875000
16.981753, -30.889693, 39.000000
16.981753, -30.889693, 39.125000
16.981753, -30.889693, 39.250000
17.055267, -31.023415, 39.375000
17.055267, -31.023415, 39.500000
17.055267, -31.023415, 39.625000
17.055267, -31.023415, 39.750000
17.128781, -31.157136, 39.875000
17.128781, -31.157136, 40.000000
17.128781, -31.157136, 40.125000
17.202295, -31.290858, 40.250000
17.202295, -31.290858, 40.375000
17.202295, -31.290858, 40.500000
17.202295, -31.290858, 40.625000
17.275809, -31.424580, 40.750000
17.275809, -31.424580, 40.875000
17.275809, -31.424580, 41.000000
17.349323, -31.558301, 41.125000
17.349323, -31.558301, 41.250000
17.349323, -31.558301, 41.375000
17.349323, -31.558301, 41.500000
17.349323, -31.558301, 41.625000
17.422837, -31.692023, 41.750000
17.422837, -31.692023, 41.875000
17.422837, -31.692023, 42.000000
17.422837, -31.692023, 42.125000
17.422837, -31.692023, 42.250000
17.422837, -31.692023, 42.375000
17.496351, -31.825745, 42.500000
17.496351, -31.825745, 42.625000
17.496351, -31.825745, 42.750000
17.496351, -31.825745, 42.875000
17.569865, -31.959466, 43.000000
17.569865, -31.959466, 43.125000
17.569865, -31.959466, 43.250000
17.569865, -31.959466, 43.375000
17.569865, -31.959466, 43.500000
17.643379, -32.093188, 43.625000
17.643379, -32.093188, 43.750000
17.643379, -32.093188, 43.875000
17.643379, -32.093188, 44.000000
17.643379, -32.093188, 44.125000
17.643379, -32.093188, 44.250000
17.643379, -32.093188, 44.375000
17.716893, -32.226909, 44.500000
17.716893, -32.226909, 44.625000
17.716893, -32.226909, 44.750000
17.716893, -32.226909, 44.875000
17.716893, -32.226909, 45.000000
17.716893, -32.226909, 45.125000
17.716893, -32.226909, 45.250000
17.790407, -32.360631, 45.375000
17.863922, -32.494353, 45.500000
17.790407, -32.360631, 45.625000
17.790407, -32.360631, 45.750000
17.790407, -32.360631, 45.875000
17.790407, -32.360631, 46.000000
17.863922, -32.494353, 46.125000
17.863922, -32.494353, 46.250000
17.863922, -32.494353, 46.375000
17.863922, -32.494353, 46.500000
17.863922, -32.494353, 46.625000
17.863922, -32.494353, 46.750000
17.863922, -32.494353, 46.875000
17.863922, -32.494353, 47.000000
17.863922, -32.494353, 47.125000
17.863922, -32.494353, 47.250000
17.863922, -32.494353, 47.375000
17.863922, -32.494353, 47.500000
17.863922, -32.494353, 47.625000
17.863922, -32.494353, 47.750000
17.863922, -32.494353, 47.875000
17.863922, -32.494353, 48.000000
17.937436, -32.628074, 48.125000
17.863922, -32.494353, 48.250000
17.937436, -32.628074, 48.375000
17.863922, -32.494353, 48.500000
17.937436, -32.628074, 48.625000
18.010950, -32.761796, 48.750000
18.010950, -32.761796, 48.875000
17.937436, -32.628074, 49.000000
17.937436, -32.628074, 49.125000
17.937436, -32.628074, 49.250000
17.937436, -32.628074, 49.375000
17.937436, -32.628074, 49.500000
17.937436, -32.628074, 49.625000
17.937436, -32.628074, 49.750000
17.937436, -32.628074, 49.875000
18.010950, -32.761796, 50.000000
17.937436, -32.628074, 50.125000
17.937436, -32.628074, 50.250000
17.937436, -32.628074, 50.375000
17.937436, -32.628074, 50.500000
17.937436, -32.628074, 50.625000
17.937436, -32.628074, 50.750000
17.937436, -32.628074, 50.875000
17.937436, -32.628074, 51.000000
17.937436, -32.628074, 51.125000
17.937436, -32.628074, 51.250000
17.937436, -32.628074, 51.375000
17.937436, -32.628074, 51.500000
17.937436, -32.628074, 51.625000
17.937436, -32.628074, 51.750000
17.863922, -32.494353, 51.875000
17.863922, -32.494353, 52.000000
17.863922, -32.494353, 52.125000
17.863922, -32.494353, 52.250000
17.863922, -32.494353, 52.375000
17.863922, -32.494353, 52.500000
17.863922, -32.494353, 52.625000
17.863922, -32.494353, 52.750000
17.863922, -32.494353, 52.875000
17.863922, -32.494353, 53.000000
17.863922, -32.494353, 53.125000
17.863922, -32.494353, 53.250000
17.863922, -32.494353, 53.375000
17.863922, -32.494353, 53.500000
17.790407, -32.360631, 53.625000
17.790407, -32.360631, 53.750000
17.790407, -32.360631, 53.875000
17.790407, -32.360631, 54.000000
17.790407, -32.360631, 54.125000
17.790407, -32.360631, 54.250000
17.790407, -32.360631, 54.375000
17.790407, -32.360631, 54.500000
17.790407, -32.360631, 54.625000
17.716893, -32.226909, 54.750000
17.790407, -32.360631, 54.875000
17.716893, -32.226909, 55.000000
17.716893, -32.226909, 55.125000
17.716893, -32.226909, 55.250000
17.716893, -32.226909, 55.375000
17.643379, -32.093188, 55.500000
17.643379, -32.093188, 55.625000
17.643379, -32.093188, 55.750000
17.643379, -32.093188, 55.875000
17.643379, -32.093188, 56.000000
17.643379, -32.093188, 56.125000
17.569865, -31.959466, 56.250000
17.569865, -31.959466, 56.375000
17.569865, -31.959466, 56.500000
17.569865, -31.959466, 56.625000
17.569865, -31.959466, 56.750000
17.496351, -31.825745, 56.875000
17.496351, -31.825745, 57.000000
17.496351, -31.825745, 57.125000
17.496351, -31.825745, 57.250000
17.496351, -31.825745, 57.375000
17.422837, -31.692023, 57.500000
17.422837, -31.692023, 57.625000
17.422837, -31.692023, 57.750000
17.422837, -31.692023, 57.875000
17.422837, -31.692023, 58.000000
17.349323, -31.558301, 58.125000
17.349323, -31.558301, 58.250000
17.275809, -31.424580, 58.375000
17.275809, -31.424580, 58.500000
17.275809, -31.424580, 58.625000
17.275809, -31.424580, 58.750000
17.275809, -31.424580, 58.875000
17.202295, -31.290858, 59.000000
17.128781, -31.157136, 59.125000
17.202295, -31.290858, 59.250000
17.128781, -31.157136, 59.375000
17.128781, -31.157136, 59.500000
17.128781, -31.157136, 59.625000
17.055267, -31.023415, 59.750000
17.055267, -31.023415, 59.875000
17.055267, -31.023415, 60.000000
17.055267, -31.023415, 60.125000
17.055267, -31.023415, 60.250000
16.981753, -30.889693, 60.375000
16.981753, -30.889693, 60.500000
16.908238, -30.755972, 60.625000
16.908238, -30.755972, 60.750000
16.908238, -30.755972, 60.875000
16.908238, -30.755972, 61.000000
16.834724, -30.622250, 61.125000
16.761210, -30.488528, 61.250000
16.761210, -30.488528, 61.375000
16.761210, -30.488528, 61.500000
16.687696, -30.354807, 61.625000
16.687696, -30.354807, 61.750000
16.687696, -30.354807, 61.875000
16.614182, -30.221085, 62.000000
16.614182, -30.221085, 62.125000
16.614182, -30.221085, 62.250000
16.540668, -30.087364, 62.375000
16.540668, -30.087364, 62.500000
16.467154, -29.953642, 62.625000
16.467154, -29.953642, 62.750000
16.393640, -29.819920, 62.875000
16.393640, -29.819920, 63.000000
16.320126, -29.686199, 63.125000
16.320126, -29.686199, 63.250000
16.320126, -29.686199, 63.375000
16.246612, -29.552477, 63.500000
16.246612, -29.552477, 63.625000
16.173098, -29.418755, 63.750000
16.099584, -29.285034, 63.875000
16.099584, -29.285034, 64.000000
16.026070, -29.151312, 64.125000
16.026070, -29.151312, 64.250000
15.952555, -29.017591, 64.375000
15.952555, -29.017591, 64.500000
15.879041, -28.883869, 64.625000
15.805527, -28.750147, 64.750000
15.879041, -28.883869, 64.875000
15.732013, -28.616426, 65.000000
15.805527, -28.750147, 65.125000
15.732013, -28.616426, 65.250000
15.584985, -28.348983, 65.375000
15.584985, -28.348983, 65.500000
15.511471, -28.215261, 65.625000
15.511471, -28.215261, 65.750000
15.511471, -28.215261, 65.875000
15.437957, -28.081539, 66.000000
15.290929, -27.814096, 66.125000
15.364443, -27.947818, 66.250000
15.143901, -27.546653, 66.375000
15.217415, -27.680374, 66.500000
15.143901, -27.546653, 66.625000
14.923358, -27.145488, 66.750000
14.776330, -26.878045, 66.875000
14.849844, -27.011766, 67.000000
14.849844, -27.011766, 67.125000
14.702816, -26.744323, 67.250000
14.849844, -27.011766, 67.375000
14.408760, -26.209437, 67.625000
11.615225, -21.128015, 72.375000
11.615225, -21.128015, 72.500000
11.541711, -20.994294, 72.625000
11.468197, -20.860572, 72.750000
11.468197, -20.860572, 72.875000
11.468197, -20.860572, 73.000000
11.468197, -20.860572, 73.125000
11.468197, -20.860572, 73.250000
11.394682, -20.726850, 73.375000
11.394682, -20.726850, 73.500000
11.394682, -20.726850, 73.625000
11.394682, -20.726850, 73.750000
11.394682, -20.726850, 73.875000
11.468197, -20.860572, 74.000000
11.541711, -20.994294, 74.125000
11.541711, -20.994294, 74.250000
11.615225, -21.128015, 74.375000
11.688739, -21.261737, 74.500000
11.688739, -21.261737, 74.625000
11.762253, -21.395459, 74.750000
11.835767, -21.529180, 74.875000
11.982795, -21.796623, 75.000000
11.982795, -21.796623, 75.125000
12.056309, -21.930345, 75.250000
12.129823, -22.064067, 75.375000
12.203337, -22.197788, 75.500000
12.276851, -22.331510, 75.625000
12.350366, -22.465231, 75.750000
12.423880, -22.598953, 75.875000
12.570908, -22.866396, 76.000000
12.644422, -23.000118, 76.125000
12.791450, -23.267561, 76.250000
12.864964, -23.401283, 76.375000
12.938478, -23.535004, 76.500000
13.011992, -23.668726, 76.625000
13.085506, -23.802448, 76.750000
13.159020, -23.936169, 76.875000
13.306049, -24.203612, 77.000000
13.379563, -24.337334, 77.125000
13.453077, -24.471056, 77.250000
13.526591, -24.604777, 77.375000
13.673619, -24.872221, 77.500000
13.747133, -25.005942, 77.625000
13.820647, -25.139664, 77.750000
13.894161, -25.273385, 77.875000
14.114703, -25.674550, 78.000000
14.114703, -25.674550, 78.125000
14.188218, -25.808272, 78.250000
14.335246, -26.075715, 78.375000
14.482274, -26.343158, 78.500000
14.555788, -26.476880, 78.625000
14.629302, -26.610602, 78.750000
14.702816, -26.744323, 78.875000
14.923358, -27.145488, 79.000000
14.923358, -27.145488, 79.125000
14.996872, -27.279210, 79.250000
14.996872, -27.279210, 79.375000
