-16.446533, 27.809568, 78.375000
-16.529596, 27.950021, 78.500000
-16.695723, 28.230925, 78.625000
-16.778786, 28.371378, 78.750000
-16.861849, 28.511830, 78.875000
-17.027976, 28.792735, 79.000000
-17.111039, 28.933187, 79.125000
-17.111039, 28.933187, 79.250000
-17.277166, 29.214092, 79.375000
-17.360229, 29.354544, 79.500000
-17.443292, 29.494997, 79.625000
-17.609419, 29.775901, 79.750000
-17.609419, 29.775901, 79.875000
-17.692482, 29.916354, 80.000000
-17.775546, 30.056806, 80.125000
-17.941672, 30.337711, 80.250000
-17.941672, 30.337711, 80.375000
-17.941672, 30.337711, 80.500000
-18.024735, 30.478163, 80.625000
-18.107799, 30.618615, 80.750000
-18.024735, 30.478163, 80.875000
-18.107799, 30.618615, 81.000000
-15.388388, 24.248220, 23.625000
-14.776350, 23.283802, 23.750000
-14.776350, 23.283802, 23.875000
-14.863784, 23.421576, 24.000000
-15.388388, 24.248220, 24.125000
-15.475823, 24.385994, 24.250000
-15.563257, 24.523768, 24.375000
-15.650691, 24.661542, 24.500000
-15.738125, 24.799316, 24.625000
-15.825559, 24.937090, 24.750000
-15.912993, 25.074864, 24.875000
-16.000427, 25.212638, 25.000000
-16.000427, 25.212638, 25.125000
-16.087861, 25.350412, 25.250000
-16.175295, 25.488186, 25.375000
-16.175295, 25.488186, 25.500000
-16.350163, 25.763734, 25.625000
-16.350163, 25.763734, 25.750000
-16.525031, 26.039282, 25.875000
-16.612465, 26.177056, 26.000000
-16.699899, 26.314830, 26.125000
-16.699899, 26.314830, 26.250000
-16.787333, 26.452604, 26.375000
-16.787333, 26.452604, 26.500000
-16.874767, 26.590378, 26.625000
-16.874767, 26.590378, 26.750000
-16.962201, 26.728152, 26.875000
-17.049635, 26.865926, 27.000000
-17.137069, 27.003700, 27.125000
-17.137069, 27.003700, 27.250000
-17.224503, 27.141474, 27.375000
-17.224503, 27.141474, 27.500000
-17.399371, 27.417022, 27.625000
-17.399371, 27.417022, 27.750000
-17.486805, 27.554796, 27.875000
-17.486805, 27.554796, 28.000000
-17.749107, 27.968118, 28.125000
-17.749107, 27.968118, 28.250000
-17.749107, 27.968118, 28.375000
-17.749107, 27.968118, 28.500000
-17.836541, 28.105892, 28.625000
-17.923975, 28.243666, 28.750000
-17.923975, 28.243666, 28.875000
-18.011409, 28.381440, 29.000000
-18.186277, 28.656988, 29.125000
-18.098843, 28.519214, 29.250000
-18.186277, 28.656988, 29.375000
-18.273711, 28.794762, 29.500000
-18.273711, 28.794762, 29.625000
-18.361145, 28.932535, 29.750000
-18.361145, 28.932535, 29.875000
-18.448579, 29.070309, 30.000000
-18.536013, 29.208083, 30.125000
-18.536013, 29.208083, 30.250000
-18.536013, 29.208083, 30.375000
-18.710881, 29.483631, 30.500000
-18.798315, 29.621405, 30.625000
-18.798315, 29.621405, 30.750000
-18.798315, 29.621405, 30.875000
-18.885750, 29.759179, 31.000000
-18.885750, 29.759179, 31.125000
-18.973184, 29.896953, 31.250000
-19.060618, 30.034727, 31.375000
-19.060618, 30.034727, 31.500000
-19.148052, 30.172501, 31.625000
-19.148052, 30.172501, 31.750000
-19.148052, 30.172501, 31.875000
-19.235486, 30.310275, 32.000000
-19.235486, 30.310275, 32.125000
-19.322920, 30.448049, 32.250000
-19.322920, 30.448049, 32.375000
-19.410354, 30.585823, 32.500000
-19.410354, 30.585823, 32.625000
-19.497788, 30.723597, 32.750000
-19.497788, 30.723597, 32.875000
-19.585222, 30.861371, 33.000000
-19.672656, 30.999145, 33.125000
-19.760090, 31.136919, 33.250000
-19.672656, 30.999145, 33.375000
-19.760090, 31.136919, 33.500000
-19.847524, 31.274693, 33.625000
-19.847524, 31.274693, 33.750000
-19.847524, 31.274693, 33.875000
-19.934958, 31.412467, 34.000000
-19.934958, 31.412467, 34.125000
-19.934958, 31.412467, 34.250000
-20.022392, 31.550241, 34.375000
-20.109826, 31.688015, 34.500000
-20.109826, 31.688015, 34.625000
-20.197260, 31.825789, 34.750000
-20.197260, 31.825789, 34.875000
-20.197260, 31.825789, 35.000000
-20.284694, 31.963563, 35.125000
-20.284694, 31.963563, 35.250000
-20.372128, 32.101337, 35.375000
-20.372128, 32.101337, 35.500000
-20.459562, 32.239111, 35.625000
-20.459562, 32.239111, 35.750000
-20.459562, 32.239111, 35.875000
-20.459562, 32.239111, 36.000000
-20.546996, 32.376885, 36.125000
-20.546996, 32.376885, 36.250000
-20.634430, 32.514659, 36.375000
-20.634430, 32.514659, 36.500000
-20.634430, 32.514659, 36.625000
-20.721864, 32.652433, 36.750000
-20.721864, 32.652433, 36.875000
-20.721864, 32.652433, 37.000000
-20.721864, 32.652433, 37.125000
-20.809298, 32.790207, 37.250000
-20.896732, 32.927981, 37.375000
-20.896732, 32.927981, 37.500000
-20.896732, 32.927981, 37.625000
-20.896732, 32.927981, 37.750000
-20.984166, 33.065755, 37.875000
-20.984166, 33.065755, 38.000000
-20.984166, 33.065755, 38.125000
-21.071600, 33.203529, 38.250000
-21.071600, 33.203529, 38.375000
-21.159034, 33.341303, 38.500000
-21.159034, 33.341303, 38.625000
-21.159034, 33.341303, 38.750000
-21.159034, 33.341303, 38.875000
-21.159034, 33.341303, 39.000000
-21.246468, 33.479077, 39.125000
-21.246468, 33.479077, 39.250000
-21.333902, 33.616851, 39.375000
-21.333902, 33.616851, 39.500000
-21.333902, 33.616851, 39.625000
-21.333902, 33.616851, 39.750000
-21.421336, 33.754625, 39.875000
-21.421336, 33.754625, 40.000000
-21.421336, 33.754625, 40.125000
-21.508770, 33.892399, 40.250000
-21.508770, 33.892399, 40.375000
-21.508770, 33.892399, 40.500000
-21.508770, 33.892399, 40.625000
-21.508770, 33.892399, 40.750000
-21.596204, 34.030173, 40.875000
-21.596204, 34.030173, 41.000000
-21.596204, 34.030173, 41.125000
-21.596204, 34.030173, 41.250000
-21.596204, 34.030173, 41.375000
-21.596204, 34.030173, 41.500000
-21.683638, 34.167947, 41.625000
-21.683638, 34.167947, 41.750000
-21.771072, 34.305721, 41.875000
-21.683638, 34.167947, 42.000000
-21.683638, 34.167947, 42.125000
-21.683638, 34.167947, 42.250000
-21.771072, 34.305721, 42.375000
-21.771072, 34.305721, 42.500000
-21.771072, 34.305721, 42.625000
-21.771072, 34.305721, 42.750000
-21.858506, 34.443495, 42.875000
-21.858506, 34.443495, 43.000000
-21.858506, 34.443495, 43.125000
-21.858506, 34.443495, 43.250000
-21.858506, 34.443495, 43.375000
-21.945940, 34.581269, 43.500000
-21.945940, 34.581269, 43.625000
-21.945940, 34.581269, 43.750000
-21.945940, 34.581269, 43.875000
-22.033374, 34.719043, 44.000000
-21.945940, 34.581269, 44.125000
-22.033374, 34.719043, 44.250000
-22.033374, 34.719043, 44.375000
-21.945940, 34.581269, 44.500000
-22.033374, 34.719043, 44.625000
-21.945940, 34.581269, 44.750000
-22.033374, 34.719043, 44.875000
-22.033374, 34.719043, 45.000000
-22.033374, 34.719043, 45.125000
-22.120808, 34.856817, 45.250000
-22.120808, 34.856817, 45.375000
-22.120808, 34.856817, 45.500000
-22.120808, 34.856817, 45.625000
-22.120808, 34.856817, 45.750000
-22.208242, 34.994591, 45.875000
-22.208242, 34.994591, 46.000000
-22.208242, 34.994591, 46.125000
-22.208242, 34.994591, 46.250000
-22.208242, 34.994591, 46.375000
-22.208242, 34.994591, 46.500000
-22.208242, 34.994591, 46.625000
-22.208242, 34.994591, 46.750000
-22.208242, 34.994591, 46.875000
-22.208242, 34.994591, 47.000000
-22.208242, 34.994591, 47.125000
-22.208242, 34.994591, 47.250000
-22.208242, 34.994591, 47.375000
-22.208242, 34.994591, 47.500000
-22.295677, 35.132365, 47.625000
-22.208242, 34.994591, 47.750000
-22.208242, 34.994591, 47.875000
-22.208242, 34.994591, 48.000000
-22.295677, 35.132365, 48.125000
-22.208242, 34.994591, 48.250000
-22.208242, 34.994591, 48.375000
-22.208242, 34.994591, 48.500000
-22.208242, 34.994591, 48.625000
-22.208242, 34.994591, 48.750000
-22.208242, 34.994591, 48.875000
-22.295677, 35.132365, 49.000000
-22.208242, 34.994591, 49.125000
-22.208242, 34.994591, 49.250000
-22.208242, 34.994591, 49.375000
-22.208242, 34.994591, 49.500000
-22.208242, 34.994591, 49.625000
-22.208242, 34.994591, 49.750000
-22.208242, 34.994591, 49.875000
-22.295677, 35.132365, 50.000000
-22.208242, 34.994591, 50.125000
-22.295677, 35.132365, 50.250000
-22.295677, 35.132365, 50.375000
-22.295677, 35.132365, 50.500000
-22.208242, 34.994591, 50.625000
-22.295677, 35.132365, 50.750000
-22.295677, 35.132365, 50.875000
-22.208242, 34.994591, 51.000000
-22.208242, 34.994591, 51.125000
-22.208242, 34.994591, 51.250000
-22.208242, 34.994591, 51.375000
-22.208242, 34.994591, 51.500000
-22.208242, 34.994591, 51.625000
-22.208242, 34.994591, 51.750000
-22.208242, 34.994591, 51.875000
-22.208242, 34.994591, 52.000000
-22.208242, 34.994591, 52.125000
-22.120808, 34.856817, 52.250000
-22.120808, 34.856817, 52.375000
-22.120808, 34.856817, 52.500000
-22.120808, 34.856817, 52.625000
-22.120808, 34.856817, 52.750000
-22.208242, 34.994591, 52.875000
-22.120808, 34.856817, 53.000000
-22.120808, 34.856817, 53.125000
-22.120808, 34.856817, 53.250000
-22.033374, 34.719043, 53.375000
-22.120808, 34.856817, 53.500000
-22.033374, 34.719043, 53.625000
-22.033374, 34.719043, 53.750000
-22.033374, 34.719043, 53.875000
-22.033374, 34.719043, 54.000000
-22.033374, 34.719043, 54.125000
-22.033374, 34.719043, 54.250000
-21.945940, 34.581269, 54.375000
-21.945940, 34.581269, 54.500000
-21.945940, 34.581269, 54.625000
-21.945940, 34.581269, 54.750000
-21.945940, 34.581269, 54.875000
-21.945940, 34.581269, 55.000000
-21.945940, 34.581269, 55.125000
-21.945940, 34.581269, 55.250000
-21.858506, 34.443495, 55.375000
-21.858506, 34.443495, 55.500000
-21.858506, 34.443495, 55.625000
-21.858506, 34.443495, 55.750000
-21.771072, 34.305721, 55.875000
-21.771072, 34.305721, 56.000000
-21.771072, 34.305721, 56.125000
-21.771072, 34.305721, 56.250000
-21.771072, 34.305721, 56.375000
-21.771072, 34.305721, 56.500000
-21.771072, 34.305721, 56.625000
-21.683638, 34.167947, 56.750000
-21.683638, 34.167947, 56.875000
-21.683638, 34.167947, 57.000000
-21.683638, 34.167947, 57.125000
-21.683638, 34.167947, 57.250000
-21.596204, 34.030173, 57.375000
-21.596204, 34.030173, 57.500000
-21.596204, 34.030173, 57.625000
-21.596204, 34.030173, 57.750000
-21.508770, 33.892399, 57.875000
-21.508770, 33.892399, 58.000000
-21.508770, 33.892399, 58.125000
-21.508770, 33.892399, 58.250000
-21.421336, 33.754625, 58.375000
-21.421336, 33.754625, 58.500000
-21.333902, 33.616851, 58.625000
-21.333902, 33.616851, 58.750000
-21.333902, 33.616851, 58.875000
-21.246468, 33.479077, 59.000000
-21.246468, 33.479077, 59.125000
-21.246468, 33.479077, 59.250000
-21.333902, 33.616851, 59.375000
-21.159034, 33.341303, 59.500000
-21.159034, 33.341303, 59.625000
-21.159034, 33.341303, 59.750000
-21.071600, 33.203529, 59.875000
-21.071600, 33.203529, 60.000000
-21.071600, 33.203529, 60.125000
-20.984166, 33.065755, 60.250000
-20.984166, 33.065755, 60.375000
-21.071600, 33.203529, 60.500000
-20.984166, 33.065755, 60.625000
-20.896732, 32.927981, 60.750000
-20.896732, 32.927981, 60.875000
-20.896732, 32.927981, 61.000000
-20.809298, 32.790207, 61.125000
-20.809298, 32.790207, 61.250000
-20.721864, 32.652433, 61.375000
-20.721864, 32.652433, 61.500000
-20.721864, 32.652433, 61.625000
-20.634430, 32.514659, 61.750000
-20.634430, 32.514659, 61.875000
-20.546996, 32.376885, 62.000000
-20.546996, 32.376885, 62.125000
-20.459562, 32.239111, 62.250000
-20.546996, 32.376885, 62.375000
-20.372128, 32.101337, 62.500000
-20.372128, 32.101337, 62.625000
-20.372128, 32.101337, 62.750000
-20.372128, 32.101337, 62.875000
-20.284694, 31.963563, 63.000000
-20.197260, 31.825789, 63.125000
-20.109826, 31.688015, 63.250000
-20.197260, 31.825789, 63.375000
-20.109826, 31.688015, 63.500000
-20.022392, 31.550241, 63.625000
-20.022392, 31.550241, 63.750000
-19.934958, 31.412467, 63.875000
-19.934958, 31.412467, 64.000000
-19.847524, 31.274693, 64.125000
-19.847524, 31.274693, 64.250000
-19.760090, 31.136919, 64.375000
-19.760090, 31.136919, 64.500000
-19.760090, 31.136919, 64.625000
-19.672656, 30.999145, 64.750000
-19.672656, 30.999145, 64.875000
-19.497788, 30.723597, 65.000000
-19.497788, 30.723597, 65.125000
-19.410354, 30.585823, 65.250000
-19.322920, 30.448049, 65.375000
-19.235486, 30.310275, 65.500000
-19.235486, 30.310275, 65.625000
-19.235486, 30.310275, 65.750000
-19.235486, 30.310275, 65.875000
-19.060618, 30.034727, 66.000000
-18.973184, 29.896953, 66.125000
-18.885750, 29.759179, 66.250000
-18.973184, 29.896953, 66.375000
-18.710881, 29.483631, 66.500000
-18.011409, 28.381440, 66.875000
-18.011409, 28.381440, 67.000000
-18.098843, 28.519214, 67.125000
-18.011409, 28.381440, 67.250000
-18.011409, 28.381440, 67.375000
-17.923975, 28.243666, 67.500000
-17.923975, 28.243666, 67.625000
-17.836541, 28.105892, 67.750000
-17.661673, 27.830344, 67.875000
-17.661673, 27.830344, 68.000000
-17.661673, 27.830344, 68.125000
-17.574239, 27.692570, 68.250000
-17.574239, 27.692570, 68.375000
-17.399371, 27.417022, 68.500000
-17.399371, 27.417022, 68.625000
-17.399371, 27.417022, 68.750000
-17.311937, 27.279248, 68.875000
-17.311937, 27.279248, 69.000000
-17.137069, 27.003700, 69.125000
-17.049635, 26.865926, 69.250000
-16.962201, 26.728152, 69.375000
-17.049635, 26.865926, 69.500000
-16.962201, 26.728152, 69.625000
-17.137069, 27.003700, 69.750000
-16.262729, 25.625960, 69.875000
-16.262729, 25.625960, 70.000000
-16.262729, 25.625960, 70.125000
-16.262729, 25.625960, 70.250000
-16.262729, 25.625960, 70.500000
-15.738125, 24.799316, 70.625000
-15.738125, 24.799316, 70.750000
-15.912993, 25.074864, 70.875000
-15.825559, 24.937090, 71.000000
-15.738125, 24.799316, 71.125000
-15.738125, 24.799316, 71.250000
-15.650691, 24.661542, 71.375000
-15.650691, 24.661542, 71.500000
-15.650691, 24.661542, 71.625000
-15.475823, 24.385994, 71.750000
-15.388388, 24.248220, 71.875000
-15.388388, 24.248220, 72.000000
-15.300954, 24.110446, 72.125000
-15.300954, 24.110446, 72.250000
-15.213520, 23.972672, 72.375000
-15.126086, 23.834898, 72.500000
-15.038652, 23.697124, 72.625000
-14.951218, 23.559350, 72.750000
-14.951218, 23.559350, 72.875000
-14.776350, 23.283802, 73.000000
-14.776350, 23.283802, 73.125000
-14.776350, 23.283802, 73.250000
-14.688916, 23.146028, 73.375000
-14.601482, 23.008254, 73.500000
-14.514048, 22.870480, 73.625000
-14.514048, 22.870480, 73.750000
-14.426614, 22.732706, 73.875000
-14.426614, 22.732706, 74.000000
-14.426614, 22.732706, 74.125000
-14.426614, 22.732706, 74.250000
-14.514048, 22.870480, 74.375000
-14.514048, 22.870480, 74.500000
-14.601482, 23.008254, 74.625000
-14.601482, 23.008254, 74.750000
-14.688916, 23.146028, 74.875000
-14.776350, 23.283802, 75.000000
-14.863784, 23.421576, 75.125000
-14.863784, 23.421576, 75.250000
-14.951218, 23.559350, 75.375000
-15.038652, 23.697124, 75.500000
-15.126086, 23.834898, 75.625000
-15.213520, 23.972672, 75.750000
-15.300954, 24.110446, 75.875000
-15.388388, 24.248220, 76.000000
-15.475823, 24.385994, 76.125000
-15.563257, 24.523768, 76.250000
-15.650691, 24.661542, 76.375000
-15.825559, 24.937090, 76.500000
-15.825559, 24.937090, 76.625000
-15.912993, 25.074864, 76.750000
-16.087861, 25.350412, 76.875000
-16.175295, 25.488186, 77.000000
-16.262729, 25.625960, 77.125000
-16.350163, 25.763734, 77.250000
-16.437597, 25.901508, 77.375000
-16.525031, 26.039282, 77.500000
-16.699899, 26.314830, 77.625000
-16.787333, 26.452604, 77.750000
-16.962201, 26.728152, 77.875000
-17.049635, 26.865926, 78.000000
-17.137069, 27.003700, 78.125000
-17.224503, 27.141474, 78.250000
-17.224503, 27.141474, 78.375000
-17.399371, 27.417022, 78.500000
-17.574239, 27.692570, 78.625000
-17.574239, 27.692570, 78.750000
-17.749107, 27.968118, 78.875000
-17.836541, 28.105892, 79.000000
-17.923975, 28.243666, 79.125000
-18.098843, 28.519214, 79.250000
-18.186277, 28.656988, 79.375000
-18.273711, 28.794762, 79.500000
-18.361145, 28.932535, 79.625000
-18.448579, 29.070309, 79.750000
-18.536013, 29.208083, 79.875000
-18.623447, 29.345857, 80.000000
-18.623447, 29.345857, 80.125000
-18.798315, 29.621405, 80.250000
-18.798315, 29.621405, 80.375000
-18.885750, 29.759179, 80.500000
-18.885750, 29.759179, 80.625000
-18.973184, 29.896953, 80.750000
-18.973184, 29.896953, 80.875000
-19.322920, 30.448049, 81.000000
-16.050732, 23.617935, 23.625000
-16.050732, 23.617935, 23.750000
-16.050732, 23.617935, 23.875000
-15.683858, 23.078096, 24.000000
-16.142450, 23.752894, 24.125000
-16.234169, 23.887854, 24.250000
-16.325887, 24.022813, 24.375000
-16.417606, 24.157773, 24.500000
-16.417606, 24.157773, 24.625000
-16.509324, 24.292733, 24.750000
-16.509324, 24.292733, 24.875000
-16.784480, 24.697612, 25.000000
-16.784480, 24.697612, 25.125000
-16.876198, 24.832571, 25.250000
-16.967916, 24.967531, 25.375000
-17.059635, 25.102490, 25.500000
-17.151353, 25.237450, 25.625000
-17.151353, 25.237450, 25.750000
-17.243072, 25.372410, 25.875000
-17.334790, 25.507369, 26.000000
-17.426509, 25.642329, 26.125000
-17.518227, 25.777289, 26.250000
-17.518227, 25.777289, 26.375000
-17.609946, 25.912248, 26.500000
-17.701664, 26.047208, 26.625000
-17.701664, 26.047208, 26.750000
-17.793383, 26.182168, 26.875000
-17.885101, 26.317127, 27.000000
-17.976820, 26.452087, 27.125000
-18.068538, 26.587046, 27.250000
-18.068538, 26.587046, 27.375000
-18.160257, 26.722006, 27.500000
-18.251975, 26.856966, 27.625000
-18.343693, 26.991925, 27.750000
-18.343693, 26.991925, 27.875000
-18.435412, 27.126885, 28.000000
-18.435412, 27.126885, 28.125000
-18.527130, 27.261845, 28.250000
-18.710567, 27.531764, 28.375000
-18.710567, 27.531764, 28.500000
-18.710567, 27.531764, 28.625000
-18.802286, 27.666723, 28.750000
-18.802286, 27.666723, 28.875000
-18.894004, 27.801683, 29.000000
-18.985723, 27.936643, 29.125000
-18.985723, 27.936643, 29.250000
-19.077441, 28.071602, 29.375000
-19.169160, 28.206562, 29.500000
-19.169160, 28.206562, 29.625000
-19.260878, 28.341522, 29.750000
-19.260878, 28.341522, 29.875000
-19.352597, 28.476481, 30.000000
-19.444315, 28.611441, 30.125000
-19.444315, 28.611441, 30.250000
-19.536034, 28.746400, 30.375000
-19.627752, 28.881360, 30.500000
-19.627752, 28.881360, 30.625000
-19.627752, 28.881360, 30.750000
-19.719470, 29.016320, 30.875000
-19.811189, 29.151279, 31.000000
-19.902907, 29.286239, 31.125000
-19.902907, 29.286239, 31.250000
-19.902907, 29.286239, 31.375000
-19.994626, 29.421199, 31.500000
-19.994626, 29.421199, 31.625000
-20.086344, 29.556158, 31.750000
-20.086344, 29.556158, 31.875000
-20.269781, 29.826077, 32.000000
-20.178063, 29.691118, 32.125000
-20.269781, 29.826077, 32.250000
-20.269781, 29.826077, 32.375000
-20.361500, 29.961037, 32.500000
-20.361500, 29.961037, 32.625000
-20.453218, 30.095997, 32.750000
-20.453218, 30.095997, 32.875000
-20.636655, 30.365916, 33.000000
-20.544937, 30.230956, 33.125000
-20.636655, 30.365916, 33.250000
-20.636655, 30.365916, 33.375000
-20.820092, 30.635835, 33.500000
-20.728374, 30.500876, 33.625000
-20.911811, 30.770795, 33.750000
-20.820092, 30.635835, 33.875000
-20.911811, 30.770795, 34.000000
-20.911811, 30.770795, 34.125000
-20.911811, 30.770795, 34.250000
-21.003529, 30.905754, 34.375000
-21.003529, 30.905754, 34.500000
-21.095247, 31.040714, 34.625000
-21.095247, 31.040714, 34.750000
-21.186966, 31.175674, 34.875000
-21.186966, 31.175674, 35.000000
-21.186966, 31.175674, 35.125000
-21.278684, 31.310633, 35.250000
-21.278684, 31.310633, 35.375000
-21.370403, 31.445593, 35.500000
-21.370403, 31.445593, 35.625000
-21.462121, 31.580553, 35.750000
-21.462121, 31.580553, 35.875000
-21.462121, 31.580553, 36.000000
-21.553840, 31.715512, 36.125000
-21.553840, 31.715512, 36.250000
-21.645558, 31.850472, 36.375000
-21.645558, 31.850472, 36.500000
-21.645558, 31.850472, 36.625000
-21.645558, 31.850472, 36.750000
-21.737277, 31.985431, 36.875000
-21.737277, 31.985431, 37.000000
-21.737277, 31.985431, 37.125000
-21.828995, 32.120391, 37.250000
-21.920714, 32.255351, 37.375000
-21.920714, 32.255351, 37.500000
-21.920714, 32.255351, 37.625000
-21.920714, 32.255351, 37.750000
-21.920714, 32.255351, 37.875000
-22.012432, 32.390310, 38.000000
-22.012432, 32.390310, 38.125000
-22.012432, 32.390310, 38.250000
-22.104151, 32.525270, 38.375000
-22.104151, 32.525270, 38.500000
-22.104151, 32.525270, 38.625000
-22.195869, 32.660230, 38.750000
-22.195869, 32.660230, 38.875000
-22.287588, 32.795189, 39.000000
-22.287588, 32.795189, 39.125000
-22.287588, 32.795189, 39.250000
-22.287588, 32.795189, 39.375000
-22.379306, 32.930149, 39.500000
-22.379306, 32.930149, 39.625000
-22.379306, 32.930149, 39.750000
-22.379306, 32.930149, 39.875000
-22.471024, 33.065108, 40.000000
-22.471024, 33.065108, 40.125000
-22.471024, 33.065108, 40.250000
-22.471024, 33.065108, 40.375000
-22.471024, 33.065108, 40.500000
-22.562743, 33.200068, 40.625000
-22.562743, 33.200068, 40.750000
-22.562743, 33.200068, 40.875000
-22.654461, 33.335028, 41.000000
-22.654461, 33.335028, 41.125000
-22.654461, 33.335028, 41.250000
-22.654461, 33.335028, 41.375000
-22.746180, 33.469987, 41.500000
-22.746180, 33.469987, 41.625000
-22.746180, 33.469987, 41.750000
-22.746180, 33.469987, 41.875000
-22.746180, 33.469987, 42.000000
-22.746180, 33.469987, 42.125000
-22.746180, 33.469987, 42.250000
-22.837898, 33.604947, 42.375000
-22.837898, 33.604947, 42.500000
-22.837898, 33.604947, 42.625000
-22.837898, 33.604947, 42.750000
-22.929617, 33.739907, 42.875000
-22.929617, 33.739907, 43.000000
-22.929617, 33.739907, 43.125000
-22.929617, 33.739907, 43.250000
-22.929617, 33.739907, 43.375000
-22.929617, 33.739907, 43.500000
-22.929617, 33.739907, 43.625000
-23.021335, 33.874866, 43.750000
-23.021335, 33.874866, 43.875000
-23.021335, 33.874866, 44.000000
-23.021335, 33.874866, 44.125000
-23.021335, 33.874866, 44.250000
-23.113054, 34.009826, 44.375000
-23.113054, 34.009826, 44.500000
-23.113054, 34.009826, 44.625000
-23.113054, 34.009826, 44.750000
-23.113054, 34.009826, 44.875000
-23.113054, 34.009826, 45.000000
-23.113054, 34.009826, 45.125000
-23.113054, 34.009826, 45.250000
-23.113054, 34.009826, 45.375000
-23.204772, 34.144785, 45.500000
-23.204772, 34.144785, 45.625000
-23.204772, 34.144785, 45.750000
-23.296491, 34.279745, 45.875000
-23.296491, 34.279745, 46.000000
-23.296491, 34.279745, 46.125000
-23.296491, 34.279745, 46.250000
-23.296491, 34.279745, 46.375000
-23.296491, 34.279745, 46.500000
-23.296491, 34.279745, 46.625000
-23.296491, 34.279745, 46.750000
-23.296491, 34.279745, 46.875000
-23.296491, 34.279745, 47.000000
-23.296491, 34.279745, 47.125000
-23.296491, 34.279745, 47.250000
-23.296491, 34.279745, 47.375000
-23.296491, 34.279745, 47.500000
-23.296491, 34.279745, 47.625000
-23.296491, 34.279745, 47.750000
-23.296491, 34.279745, 47.875000
-23.296491, 34.279745, 48.000000
-23.296491, 34.279745, 48.125000
-23.296491, 34.279745, 48.250000
-23.296491, 34.279745, 48.375000
-23.296491, 34.279745, 48.500000
-23.296491, 34.279745, 48.625000
-23.296491, 34.279745, 48.750000
-23.296491, 34.279745, 48.875000
-23.296491, 34.279745, 49.000000
-23.296491, 34.279745, 49.125000
-23.296491, 34.279745, 49.250000
-23.296491, 34.279745, 49.375000
-23.296491, 34.279745, 49.500000
-23.296491, 34.279745, 49.625000
-23.296491, 34.279745, 49.750000
-23.296491, 34.279745, 49.875000
-23.296491, 34.279745, 50.000000
-23.296491, 34.279745, 50.125000
-23.296491, 34.279745, 50.250000
-23.296491, 34.279745, 50.375000
-23.296491, 34.279745, 50.500000
-23.296491, 34.279745, 50.625000
-23.296491, 34.279745, 50.750000
-23.296491, 34.279745, 50.875000
-23.296491, 34.279745, 51.000000
-23.296491, 34.279745, 51.125000
-23.296491, 34.279745, 51.250000
-23.296491, 34.279745, 51.375000
-23.296491, 34.279745, 51.500000
-23.296491, 34.279745, 51.625000
-23.296491, 34.279745, 51.750000
-23.296491, 34.279745, 51.875000
-23.296491, 34.279745, 52.000000
-23.296491, 34.279745, 52.125000
-23.204772, 34.144785, 52.250000
-23.204772, 34.144785, 52.375000
-23.204772, 34.144785, 52.500000
-23.204772, 34.144785, 52.625000
-23.204772, 34.144785, 52.750000
-23.204772, 34.144785, 52.875000
-23.204772, 34.144785, 53.000000
-23.204772, 34.144785, 53.125000
-23.204772, 34.144785, 53.250000
-23.113054, 34.009826, 53.375000
-23.113054, 34.009826, 53.500000
-23.113054, 34.009826, 53.625000
-23.113054, 34.009826, 53.750000
-23.113054, 34.009826, 53.875000
-23.113054, 34.009826, 54.000000
-23.113054, 34.009826, 54.125000
-23.113054, 34.009826, 54.250000
-23.021335, 33.874866, 54.375000
-23.021335, 33.874866, 54.500000
-23.021335, 33.874866, 54.625000
-23.021335, 33.874866, 54.750000
-23.021335, 33.874866, 54.875000
-23.021335, 33.874866, 55.000000
-22.929617, 33.739907, 55.125000
-22.929617, 33.739907, 55.250000
-22.929617, 33.739907, 55.375000
-22.929617, 33.739907, 55.500000
-22.929617, 33.739907, 55.625000
-22.929617, 33.739907, 55.750000
-22.929617, 33.739907, 55.875000
-22.837898, 33.604947, 56.000000
-22.837898, 33.604947, 56.125000
-22.837898, 33.604947, 56.250000
-22.837898, 33.604947, 56.375000
-22.746180, 33.469987, 56.500000
-22.746180, 33.469987, 56.625000
-22.746180, 33.469987, 56.750000
-22.746180, 33.469987, 56.875000
-22.654461, 33.335028, 57.000000
-22.654461, 33.335028, 57.125000
-22.746180, 33.469987, 57.250000
-22.654461, 33.335028, 57.375000
-22.654461, 33.335028, 57.500000
-22.654461, 33.335028, 57.625000
-22.654461, 33.335028, 57.750000
-22.562743, 33.200068, 57.875000
-22.562743, 33.200068, 58.000000
-22.471024, 33.065108, 58.125000
-22.471024, 33.065108, 58.250000
-22.471024, 33.065108, 58.375000
-22.471024, 33.065108, 58.500000
-22.471024, 33.065108, 58.625000
-22.471024, 33.065108, 58.750000
-22.379306, 32.930149, 58.875000
-22.379306, 32.930149, 59.000000
-22.287588, 32.795189, 59.125000
-22.287588, 32.795189, 59.250000
-22.195869, 32.660230, 59.375000
-22.195869, 32.660230, 59.500000
-22.195869, 32.660230, 59.625000
-22.195869, 32.660230, 59.750000
-22.104151, 32.525270, 59.875000
-22.104151, 32.525270, 60.000000
-22.104151, 32.525270, 60.125000
-22.012432, 32.390310, 60.250000
-22.012432, 32.390310, 60.375000
-22.012432, 32.390310, 60.500000
-21.920714, 32.255351, 60.625000
-21.920714, 32.255351, 60.750000
-21.920714, 32.255351, 60.875000
-21.828995, 32.120391, 61.000000
-21.737277, 31.985431, 61.125000
-21.737277, 31.985431, 61.250000
-21.737277, 31.985431, 61.375000
-21.737277, 31.985431, 61.500000
-21.645558, 31.850472, 61.625000
-21.645558, 31.850472, 61.750000
-21.645558, 31.850472, 61.875000
-21.553840, 31.715512, 62.000000
-21.553840, 31.715512, 62.125000
-21.553840, 31.715512, 62.250000
-21.462121, 31.580553, 62.375000
-21.370403, 31.445593, 62.500000
-21.370403, 31.445593, 62.625000
-21.370403, 31.445593, 62.750000
-21.278684, 31.310633, 62.875000
-21.278684, 31.310633, 63.000000
-21.186966, 31.175674, 63.125000
-21.186966, 31.175674, 63.250000
-21.186966, 31.175674, 63.375000
-21.095247, 31.040714, 63.500000
-21.003529, 30.905754, 63.625000
-21.003529, 30.905754, 63.750000
-20.911811, 30.770795, 63.875000
-20.911811, 30.770795, 64.000000
-20.911811, 30.770795, 64.125000
-20.820092, 30.635835, 64.250000
-20.728374, 30.500876, 64.375000
-20.728374, 30.500876, 64.500000
-20.636655, 30.365916, 64.625000
-20.636655, 30.365916, 64.750000
-20.544937, 30.230956, 64.875000
-20.544937, 30.230956, 65.000000
-20.453218, 30.095997, 65.125000
-20.361500, 29.961037, 65.250000
-20.453218, 30.095997, 65.375000
-20.361500, 29.961037, 65.500000
-20.178063, 29.691118, 65.625000
-20.086344, 29.556158, 65.750000
-19.994626, 29.421199, 65.875000
-19.902907, 29.286239, 66.000000
-19.902907, 29.286239, 66.125000
-19.719470, 29.016320, 66.250000
-19.627752, 28.881360, 66.375000
-19.444315, 28.611441, 66.500000
-19.169160, 28.206562, 66.625000
-19.169160, 28.206562, 66.750000
-19.077441, 28.071602, 66.875000
-19.077441, 28.071602, 67.000000
-18.894004, 27.801683, 67.125000
-18.894004, 27.801683, 67.250000
-18.894004, 27.801683, 67.375000
-18.802286, 27.666723, 67.500000
-18.710567, 27.531764, 67.625000
-18.618849, 27.396804, 67.750000
-18.527130, 27.261845, 67.875000
-18.527130, 27.261845, 68.000000
-18.435412, 27.126885, 68.125000
-18.435412, 27.126885, 68.250000
-18.343693, 26.991925, 68.375000
-18.343693, 26.991925, 68.500000
-18.343693, 26.991925, 68.625000
-18.251975, 26.856966, 68.750000
-18.160257, 26.722006, 68.875000
-18.068538, 26.587046, 69.000000
-18.068538, 26.587046, 69.125000
-17.976820, 26.452087, 69.250000
-17.976820, 26.452087, 69.375000
-17.885101, 26.317127, 69.500000
-17.701664, 26.047208, 69.625000
-16.876198, 24.832571, 70.375000
-16.876198, 24.832571, 70.500000
-16.692761, 24.562652, 70.625000
-16.692761, 24.562652, 70.750000
-16.692761, 24.562652, 70.875000
-16.509324, 24.292733, 71.000000
-16.509324, 24.292733, 71.125000
-16.417606, 24.157773, 71.250000
-16.417606, 24.157773, 71.375000
-16.417606, 24.157773, 71.500000
-16.417606, 24.157773, 71.625000
-16.234169, 23.887854, 71.750000
-16.142450, 23.752894, 71.875000
-16.142450, 23.752894, 72.000000
-16.050732, 23.617935, 72.125000
-16.050732, 23.617935, 72.250000
-15.959013, 23.482975, 72.375000
-15.867295, 23.348015, 72.500000
-15.775576, 23.213056, 72.625000
-15.683858, 23.078096, 72.750000
-15.592139, 22.943136, 72.875000
-15.592139, 22.943136, 73.000000
-15.500421, 22.808177, 73.125000
-15.408703, 22.673217, 73.250000
-15.316984, 22.538258, 73.375000
-15.316984, 22.538258, 73.500000
-15.225266, 22.403298, 73.625000
-15.225266, 22.403298, 73.750000
-15.133547, 22.268338, 73.875000
-15.133547, 22.268338, 74.000000
-15.225266, 22.403298, 74.125000
-15.133547, 22.268338, 74.250000
-15.225266, 22.403298, 74.375000
-15.225266, 22.403298, 74.500000
-15.316984, 22.538258, 74.625000
-15.316984, 22.538258, 74.750000
-15.408703, 22.673217, 74.875000
-15.500421, 22.808177, 75.000000
-15.500421, 22.808177, 75.125000
-15.592139, 22.943136, 75.250000
-15.683858, 23.078096, 75.375000
-15.775576, 23.213056, 75.500000
-15.867295, 23.348015, 75.625000
-15.959013, 23.482975, 75.750000
-16.050732, 23.617935, 75.875000
-16.142450, 23.752894, 76.000000
-16.234169, 23.887854, 76.125000
-16.325887, 24.022813, 76.250000
-16.417606, 24.157773, 76.375000
-16.509324, 24.292733, 76.500000
-16.601043, 24.427692, 76.625000
-16.784480, 24.697612, 76.750000
-16.784480, 24.697612, 76.875000
-16.876198, 24.832571, 77.000000
-16.967916, 24.967531, 77.125000
-17.059635, 25.102490, 77.250000
-17.243072, 25.372410, 77.375000
-17.334790, 25.507369, 77.500000
-17.518227, 25.777289, 77.625000
-17.609946, 25.912248, 77.750000
-17.793383, 26.182168, 77.875000
-17.793383, 26.182168, 78.000000
-17.976820, 26.452087, 78.125000
-18.068538, 26.587046, 78.250000
-18.160257, 26.722006, 78.375000
-18.251975, 26.856966, 78.500000
-18.343693, 26.991925, 78.625000
-18.527130, 27.261845, 78.750000
-18.618849, 27.396804, 78.875000
-18.710567, 27.531764, 79.000000
-18.802286, 27.666723, 79.125000
-18.985723, 27.936643, 79.250000
-19.077441, 28.071602, 79.375000
-19.169160, 28.206562, 79.500000
-19.260878, 28.341522, 79.625000
-19.352597, 28.476481, 79.750000
-19.444315, 28.611441, 79.875000
-19.536034, 28.746400, 80.000000
-19.719470, 29.016320, 80.125000
-19.719470, 29.016320, 80.250000
-19.719470, 29.016320, 80.375000
-19.811189, 29.151279, 80.500000
-19.902907, 29.286239, 80.625000
-19.902907, 29.286239, 80.750000
-19.811189, 29.151279, 80.875000
-19.902907, 29.286239, 81.000000
-16.592844, 22.838091, 23.625000
-16.688757, 22.970103, 23.750000
-16.784669, 23.102115, 23.875000
-16.784669, 23.102115, 24.000000
-16.784669, 23.102115, 24.125000
-16.880581, 23.234127, 24.250000
-16.592844, 22.838091, 24.375000
-17.072406, 23.498151, 24.500000
-17.072406, 23.498151, 24.625000
-17.360143, 23.894187, 24.750000
-17.360143, 23.894187, 24.875000
-17.551968, 24.158212, 25.000000
-17.647881, 24.290224, 25.125000
-17.647881, 24.290224, 25.250000
-17.647881, 24.290224, 25.375000
-17.839705, 24.554248, 25.500000
-17.935618, 24.686260, 25.625000
-17.935618, 24.686260, 25.750000
-18.031530, 24.818272, 25.875000
-18.127442, 24.950284, 26.000000
-18.223355, 25.082296, 26.125000
-18.319267, 25.214308, 26.250000
-18.415180, 25.346320, 26.375000
-18.415180, 25.346320, 26.500000
-18.511092, 25.478332, 26.625000
-18.511092, 25.478332, 26.750000
-18.607004, 25.610345, 26.875000
-18.702917, 25.742357, 27.000000
-18.798829, 25.874369, 27.125000
-18.894742, 26.006381, 27.250000
-18.990654, 26.138393, 27.375000
-18.990654, 26.138393, 27.500000
-19.086566, 26.270405, 27.625000
-19.182479, 26.402417, 27.750000
-19.182479, 26.402417, 27.875000
-19.278391, 26.534429, 28.000000
-19.374304, 26.666441, 28.125000
-19.470216, 26.798453, 28.250000
-19.566128, 26.930465, 28.375000
-19.566128, 26.930465, 28.500000
-19.566128, 26.930465, 28.625000
-19.662041, 27.062477, 28.750000
-19.662041, 27.062477, 28.875000
-19.757953, 27.194490, 29.000000
-19.853866, 27.326502, 29.125000
-19.853866, 27.326502, 29.250000
-19.949778, 27.458514, 29.375000
-20.045690, 27.590526, 29.500000
-20.045690, 27.590526, 29.625000
-20.141603, 27.722538, 29.750000
-20.141603, 27.722538, 29.875000
-20.237515, 27.854550, 30.000000
-20.333428, 27.986562, 30.125000
-20.333428, 27.986562, 30.250000
-20.429340, 28.118574, 30.375000
-20.429340, 28.118574, 30.500000
-20.525252, 28.250586, 30.625000
-20.621165, 28.382598, 30.750000
-20.621165, 28.382598, 30.875000
-20.717077, 28.514610, 31.000000
-20.717077, 28.514610, 31.125000
-20.812990, 28.646622, 31.250000
-20.812990, 28.646622, 31.375000
-20.908902, 28.778635, 31.500000
-20.908902, 28.778635, 31.625000
-21.004814, 28.910647, 31.750000
-21.004814, 28.910647, 31.875000
-21.100727, 29.042659, 32.000000
-21.100727, 29.042659, 32.125000
-21.196639, 29.174671, 32.250000
-21.292551, 29.306683, 32.375000
-21.292551, 29.306683, 32.500000
-21.292551, 29.306683, 32.625000
-21.388464, 29.438695, 32.750000
-21.388464, 29.438695, 32.875000
-21.484376, 29.570707, 33.000000
-21.484376, 29.570707, 33.125000
-21.580289, 29.702719, 33.250000
-21.580289, 29.702719, 33.375000
-21.676201, 29.834731, 33.500000
-21.676201, 29.834731, 33.625000
-21.772113, 29.966743, 33.750000
-21.772113, 29.966743, 33.875000
-21.868026, 30.098755, 34.000000
-21.868026, 30.098755, 34.125000
-21.963938, 30.230768, 34.250000
-21.963938, 30.230768, 34.375000
-22.059851, 30.362780, 34.500000
-22.059851, 30.362780, 34.625000
-22.059851, 30.362780, 34.750000
-22.155763, 30.494792, 34.875000
-22.155763, 30.494792, 35.000000
-22.155763, 30.494792, 35.125000
-22.251675, 30.626804, 35.250000
-22.347588, 30.758816, 35.375000
-22.347588, 30.758816, 35.500000
-22.347588, 30.758816, 35.625000
-22.539413, 31.022840, 35.750000
-22.443500, 30.890828, 35.875000
-22.635325, 31.154852, 36.000000
-22.539413, 31.022840, 36.125000
-22.539413, 31.022840, 36.250000
-22.635325, 31.154852, 36.375000
-22.635325, 31.154852, 36.500000
-22.635325, 31.154852, 36.625000
-22.731237, 31.286864, 36.750000
-22.731237, 31.286864, 36.875000
-22.731237, 31.286864, 37.000000
-22.827150, 31.418876, 37.125000
-22.827150, 31.418876, 37.250000
-22.923062, 31.550888, 37.375000
-22.923062, 31.550888, 37.500000
-22.923062, 31.550888, 37.625000
-23.018975, 31.682900, 37.750000
-23.018975, 31.682900, 37.875000
-23.018975, 31.682900, 38.000000
-23.018975, 31.682900, 38.125000
-23.114887, 31.814913, 38.250000
-23.114887, 31.814913, 38.375000
-23.114887, 31.814913, 38.500000
-23.210799, 31.946925, 38.625000
-23.210799, 31.946925, 38.750000
-23.306712, 32.078937, 38.875000
-23.306712, 32.078937, 39.000000
-23.306712, 32.078937, 39.125000
-23.306712, 32.078937, 39.250000
-23.306712, 32.078937, 39.375000
-23.402624, 32.210949, 39.500000
-23.402624, 32.210949, 39.625000
-23.402624, 32.210949, 39.750000
-23.498537, 32.342961, 39.875000
-23.498537, 32.342961, 40.000000
-23.498537, 32.342961, 40.125000
-23.498537, 32.342961, 40.250000
-23.498537, 32.342961, 40.375000
-23.594449, 32.474973, 40.500000
-23.594449, 32.474973, 40.625000
-23.594449, 32.474973, 40.750000
-23.690361, 32.606985, 40.875000
-23.690361, 32.606985, 41.000000
-23.690361, 32.606985, 41.125000
-23.690361, 32.606985, 41.250000
-23.690361, 32.606985, 41.375000
-23.786274, 32.738997, 41.500000
-23.786274, 32.738997, 41.625000
-23.786274, 32.738997, 41.750000
-23.882186, 32.871009, 41.875000
-23.786274, 32.738997, 42.000000
-23.786274, 32.738997, 42.125000
-23.882186, 32.871009, 42.250000
-23.882186, 32.871009, 42.375000
-23.882186, 32.871009, 42.500000
-23.882186, 32.871009, 42.625000
-23.882186, 32.871009, 42.750000
-23.978099, 33.003021, 42.875000
-23.978099, 33.003021, 43.000000
-23.978099, 33.003021, 43.125000
-23.978099, 33.003021, 43.250000
-24.074011, 33.135033, 43.375000
-23.978099, 33.003021, 43.500000
-24.074011, 33.135033, 43.625000
-24.074011, 33.135033, 43.750000
-24.169923, 33.267045, 43.875000
-24.074011, 33.135033, 44.000000
-24.074011, 33.135033, 44.125000
-24.074011, 33.135033, 44.250000
-24.169923, 33.267045, 44.375000
-24.169923, 33.267045, 44.500000
-24.169923, 33.267045, 44.625000
-24.169923, 33.267045, 44.750000
-24.169923, 33.267045, 44.875000
-24.169923, 33.267045, 45.000000
-24.265836, 33.399058, 45.125000
-24.265836, 33.399058, 45.250000
-24.265836, 33.399058, 45.375000
-24.265836, 33.399058, 45.500000
-24.265836, 33.399058, 45.625000
-24.361748, 33.531070, 45.750000
-24.361748, 33.531070, 45.875000
-24.361748, 33.531070, 46.000000
-24.361748, 33.531070, 46.125000
-24.361748, 33.531070, 46.250000
-24.361748, 33.531070, 46.375000
-24.361748, 33.531070, 46.500000
-24.361748, 33.531070, 46.625000
-24.361748, 33.531070, 46.750000
-24.361748, 33.531070, 46.875000
-24.361748, 33.531070, 47.000000
-24.361748, 33.531070, 47.125000
-24.361748, 33.531070, 47.250000
-24.361748, 33.531070, 47.375000
-24.361748, 33.531070, 47.500000
-24.361748, 33.531070, 47.625000
-24.361748, 33.531070, 47.750000
-24.361748, 33.531070, 47.875000
-24.361748, 33.531070, 48.000000
-24.361748, 33.531070, 48.125000
-24.361748, 33.531070, 48.250000
-24.361748, 33.531070, 48.375000
-24.457660, 33.663082, 48.500000
-24.361748, 33.531070, 48.625000
-24.361748, 33.531070, 48.750000
-24.457660, 33.663082, 48.875000
-24.361748, 33.531070, 49.000000
-24.361748, 33.531070, 49.125000
-24.457660, 33.663082, 49.250000
-24.457660, 33.663082, 49.375000
-24.361748, 33.531070, 49.500000
-24.361748, 33.531070, 49.625000
-24.361748, 33.531070, 49.750000
-24.361748, 33.531070, 49.875000
-24.361748, 33.531070, 50.000000
-24.361748, 33.531070, 50.125000
-24.361748, 33.531070, 50.250000
-24.361748, 33.531070, 50.375000
-24.361748, 33.531070, 50.500000
-24.361748, 33.531070, 50.625000
-24.361748, 33.531070, 50.750000
-24.361748, 33.531070, 50.875000
-24.361748, 33.531070, 51.000000
-24.361748, 33.531070, 51.125000
-24.361748, 33.531070, 51.250000
-24.361748, 33.531070, 51.375000
-24.361748, 33.531070, 51.500000
-24.361748, 33.531070, 51.625000
-24.361748, 33.531070, 51.750000
-24.457660, 33.663082, 51.875000
-24.361748, 33.531070, 52.000000
-24.361748, 33.531070, 52.125000
-24.265836, 33.399058, 52.250000
-24.361748, 33.531070, 52.375000
-24.265836, 33.399058, 52.500000
-24.361748, 33.531070, 52.625000
-24.265836, 33.399058, 52.750000
-24.265836, 33.399058, 52.875000
-24.265836, 33.399058, 53.000000
-24.265836, 33.399058, 53.125000
-24.265836, 33.399058, 53.250000
-24.265836, 33.399058, 53.375000
-24.265836, 33.399058, 53.500000
-24.169923, 33.267045, 53.625000
-24.169923, 33.267045, 53.750000
-24.169923, 33.267045, 53.875000
-24.169923, 33.267045, 54.000000
-24.169923, 33.267045, 54.125000
-24.169923, 33.267045, 54.250000
-24.169923, 33.267045, 54.375000
-24.074011, 33.135033, 54.500000
-24.074011, 33.135033, 54.625000
-24.074011, 33.135033, 54.750000
-24.074011, 33.135033, 54.875000
-24.074011, 33.135033, 55.000000
-24.074011, 33.135033, 55.125000
-23.978099, 33.003021, 55.250000
-23.978099, 33.003021, 55.375000
-23.978099, 33.003021, 55.500000
-23.978099, 33.003021, 55.625000
-23.978099, 33.003021, 55.750000
-23.978099, 33.003021, 55.875000
-23.882186, 32.871009, 56.000000
-23.882186, 32.871009, 56.125000
-23.978099, 33.003021, 56.250000
-23.882186, 32.871009, 56.375000
-23.882186, 32.871009, 56.500000
-23.786274, 32.738997, 56.625000
-23.786274, 32.738997, 56.750000
-23.786274, 32.738997, 56.875000
-23.786274, 32.738997, 57.000000
-23.690361, 32.606985, 57.125000
-23.690361, 32.606985, 57.250000
-23.690361, 32.606985, 57.375000
-23.690361, 32.606985, 57.500000
-23.690361, 32.606985, 57.625000
-23.594449, 32.474973, 57.750000
-23.594449, 32.474973, 57.875000
-23.594449, 32.474973, 58.000000
-23.594449, 32.474973, 58.125000
-23.594449, 32.474973, 58.250000
-23.498537, 32.342961, 58.375000
-23.498537, 32.342961, 58.500000
-23.498537, 32.342961, 58.625000
-23.402624, 32.210949, 58.750000
-23.402624, 32.210949, 58.875000
-23.306712, 32.078937, 59.000000
-23.402624, 32.210949, 59.125000
-23.306712, 32.078937, 59.250000
-23.306712, 32.078937, 59.375000
-23.210799, 31.946925, 59.500000
-23.210799, 31.946925, 59.625000
-23.210799, 31.946925, 59.750000
-23.114887, 31.814913, 59.875000
-23.114887, 31.814913, 60.000000
-23.114887, 31.814913, 60.125000
-23.018975, 31.682900, 60.250000
-23.018975, 31.682900, 60.375000
-23.018975, 31.682900, 60.500000
-22.923062, 31.550888, 60.625000
-22.923062, 31.550888, 60.750000
-22.923062, 31.550888, 60.875000
-22.827150, 31.418876, 61.000000
-22.827150, 31.418876, 61.125000
-22.731237, 31.286864, 61.250000
-22.731237, 31.286864, 61.375000
-22.731237, 31.286864, 61.500000
-22.731237, 31.286864, 61.625000
-22.635325, 31.154852, 61.750000
-22.635325, 31.154852, 61.875000
-22.539413, 31.022840, 62.000000
-22.539413, 31.022840, 62.125000
-22.443500, 30.890828, 62.250000
-22.443500, 30.890828, 62.375000
-22.347588, 30.758816, 62.500000
-22.347588, 30.758816, 62.625000
-22.347588, 30.758816, 62.750000
-22.347588, 30.758816, 62.875000
-22.251675, 30.626804, 63.000000
-22.251675, 30.626804, 63.125000
-22.155763, 30.494792, 63.250000
-22.155763, 30.494792, 63.375000
-22.059851, 30.362780, 63.500000
-22.059851, 30.362780, 63.625000
-21.963938, 30.230768, 63.750000
-21.963938, 30.230768, 63.875000
-21.868026, 30.098755, 64.000000
-21.772113, 29.966743, 64.125000
-21.772113, 29.966743, 64.250000
-21.676201, 29.834731, 64.375000
-21.676201, 29.834731, 64.500000
-21.676201, 29.834731, 64.625000
-21.580289, 29.702719, 64.750000
-21.580289, 29.702719, 64.875000
-21.484376, 29.570707, 65.000000
-21.388464, 29.438695, 65.125000
-21.292551, 29.306683, 65.250000
-21.292551, 29.306683, 65.375000
-21.292551, 29.306683, 65.500000
-21.196639, 29.174671, 65.625000
-21.196639, 29.174671, 65.750000
-21.004814, 28.910647, 65.875000
-21.004814, 28.910647, 66.000000
-20.621165, 28.382598, 66.125000
-20.525252, 28.250586, 66.250000
-20.429340, 28.118574, 66.375000
-20.429340, 28.118574, 66.500000
-20.141603, 27.722538, 66.625000
-19.949778, 27.458514, 66.750000
-19.949778, 27.458514, 66.875000
-19.949778, 27.458514, 67.000000
-19.853866, 27.326502, 67.125000
-19.853866, 27.326502, 67.250000
-19.757953, 27.194490, 67.375000
-19.662041, 27.062477, 67.500000
-19.662041, 27.062477, 67.625000
-19.374304, 26.666441, 67.750000
-19.470216, 26.798453, 67.875000
-19.278391, 26.534429, 68.000000
-19.278391, 26.534429, 68.125000
-19.278391, 26.534429, 68.250000
-19.278391, 26.534429, 68.375000
-19.182479, 26.402417, 68.500000
-19.086566, 26.270405, 68.625000
-19.086566, 26.270405, 68.750000
-18.990654, 26.138393, 68.875000
-18.894742, 26.006381, 69.000000
-18.894742, 26.006381, 69.125000
-18.798829, 25.874369, 69.250000
-18.798829, 25.874369, 69.375000
-18.607004, 25.610345, 69.500000
-18.415180, 25.346320, 69.625000
-18.607004, 25.610345, 69.750000
-17.647881, 24.290224, 70.250000
-17.743793, 24.422236, 70.375000
-17.647881, 24.290224, 70.500000
-17.647881, 24.290224, 70.625000
-17.551968, 24.158212, 70.750000
-17.360143, 23.894187, 70.875000
-17.456056, 24.026200, 71.000000
-17.456056, 24.026200, 71.125000
-17.264231, 23.762175, 71.250000
-17.168319, 23.630163, 71.375000
-17.168319, 23.630163, 71.500000
-17.168319, 23.630163, 71.625000
-17.072406, 23.498151, 71.750000
-16.976494, 23.366139, 71.875000
-16.880581, 23.234127, 72.000000
-16.880581, 23.234127, 72.125000
-16.688757, 22.970103, 72.250000
-16.688757, 22.970103, 72.375000
-16.592844, 22.838091, 72.500000
-16.496932, 22.706079, 72.625000
-16.496932, 22.706079, 72.750000
-16.305107, 22.442054, 72.875000
-16.209195, 22.310042, 73.000000
-16.209195, 22.310042, 73.125000
-16.113282, 22.178030, 73.250000
-16.017370, 22.046018, 73.375000
-16.017370, 22.046018, 73.500000
-15.921457, 21.914006, 73.625000
-15.921457, 21.914006, 73.750000
-15.825545, 21.781994, 73.875000
-15.825545, 21.781994, 74.000000
-15.921457, 21.914006, 74.125000
-15.825545, 21.781994, 74.250000
-15.921457, 21.914006, 74.375000
-15.921457, 21.914006, 74.500000
-16.017370, 22.046018, 74.625000
-16.017370, 22.046018, 74.750000
-16.113282, 22.178030, 74.875000
-16.209195, 22.310042, 75.000000
-16.209195, 22.310042, 75.125000
-16.305107, 22.442054, 75.250000
-16.401019, 22.574067, 75.375000
-16.496932, 22.706079, 75.500000
-16.592844, 22.838091, 75.625000
-16.592844, 22.838091, 75.750000
-16.784669, 23.102115, 75.875000
-16.880581, 23.234127, 76.000000
-16.976494, 23.366139, 76.125000
-17.072406, 23.498151, 76.250000
-17.168319, 23.630163, 76.375000
-17.264231, 23.762175, 76.500000
-17.360143, 23.894187, 76.625000
-17.456056, 24.026200, 76.750000
-17.551968, 24.158212, 76.875000
-17.647881, 24.290224, 77.000000
-17.839705, 24.554248, 77.125000
-17.935618, 24.686260, 77.250000
-17.935618, 24.686260, 77.375000
-18.127442, 24.950284, 77.500000
-18.223355, 25.082296, 77.625000
-18.319267, 25.214308, 77.750000
-18.415180, 25.346320, 77.875000
-18.607004, 25.610345, 78.000000
-18.798829, 25.874369, 78.125000
-18.798829, 25.874369, 78.250000
-18.990654, 26.138393, 78.375000
-19.086566, 26.270405, 78.500000
-19.182479, 26.402417, 78.625000
-19.278391, 26.534429, 78.750000
-19.374304, 26.666441, 78.875000
-19.470216, 26.798453, 79.000000
-19.662041, 27.062477, 79.125000
-19.853866, 27.326502, 79.250000
-19.853866, 27.326502, 79.375000
-20.045690, 27.590526, 79.500000
-20.141603, 27.722538, 79.625000
-20.237515, 27.854550, 79.750000
-20.333428, 27.986562, 79.875000
-20.429340, 28.118574, 80.000000
-20.525252, 28.250586, 80.125000
-20.525252, 28.250586, 80.250000
-20.717077, 28.514610, 80.375000
-20.717077, 28.514610, 80.500000
-20.717077, 28.514610, 80.625000
-20.717077, 28.514610, 80.750000
-20.812990, 28.646622, 80.875000
-20.908902, 28.778635, 81.000000
-17.402030, 22.434562, 23.625000
-17.402030, 22.434562, 23.750000
-17.602053, 22.692430, 23.875000
-17.602053, 22.692430, 24.000000
-17.502042, 22.563496, 24.125000
-17.502042, 22.563496, 24.250000
-17.602053, 22.692430, 24.375000
-17.802077, 22.950299, 24.500000
-17.902088, 23.079233, 24.625000
-18.002100, 23.208168, 24.750000
-18.102112, 23.337102, 24.875000
-18.202123, 23.466036, 25.000000
-18.302135, 23.594970, 25.125000
-18.402147, 23.723905, 25.250000
-18.502158, 23.852839, 25.375000
-18.602170, 23.981773, 25.500000
-18.602170, 23.981773, 25.625000
-18.702182, 24.110707, 25.750000
-18.802193, 24.239642, 25.875000
-18.902205, 24.368576, 26.000000
-19.002217, 24.497510, 26.125000
-19.102228, 24.626444, 26.250000
-19.202240, 24.755379, 26.375000
-19.202240, 24.755379, 26.500000
-19.302252, 24.884313, 26.625000
-19.302252, 24.884313, 26.750000
-19.402263, 25.013247, 26.875000
-19.502275, 25.142182, 27.000000
-19.602287, 25.271116, 27.125000
-19.602287, 25.271116, 27.250000
-19.702298, 25.400050, 27.375000
-19.802310, 25.528984, 27.500000
-19.902322, 25.657919, 27.625000
-20.002333, 25.786853, 27.750000
-20.002333, 25.786853, 27.875000
-20.102345, 25.915787, 28.000000
-20.202357, 26.044721, 28.125000
-20.302368, 26.173656, 28.250000
-20.302368, 26.173656, 28.375000
-20.402380, 26.302590, 28.500000
-20.502392, 26.431524, 28.625000
-20.502392, 26.431524, 28.750000
-20.502392, 26.431524, 28.875000
-20.602403, 26.560458, 29.000000
-20.702415, 26.689393, 29.125000
-20.702415, 26.689393, 29.250000
-20.802427, 26.818327, 29.375000
-20.802427, 26.818327, 29.500000
-20.902438, 26.947261, 29.625000
-21.002450, 27.076195, 29.750000
-21.002450, 27.076195, 29.875000
-21.102462, 27.205130, 30.000000
-21.202473, 27.334064, 30.125000
-21.202473, 27.334064, 30.250000
-21.302485, 27.462998, 30.375000
-21.302485, 27.462998, 30.500000
-21.402497, 27.591933, 30.625000
-21.502508, 27.720867, 30.750000
-21.502508, 27.720867, 30.875000
-21.602520, 27.849801, 31.000000
-21.602520, 27.849801, 31.125000
-21.702532, 27.978735, 31.250000
-21.802543, 28.107670, 31.375000
