-40.523442, -11.773148, 50.250000
-40.523442, -11.773148, 50.375000
-40.523442, -11.773148, 50.500000
-40.523442, -11.773148, 50.625000
-40.523442, -11.773148, 50.750000
-40.523442, -11.773148, 50.875000
-40.336698, -11.718894, 51.000000
-40.710186, -11.827402, 51.125000
-40.710186, -11.827402, 51.250000
-40.710186, -11.827402, 51.375000
-40.523442, -11.773148, 51.500000
-40.336698, -11.718894, 51.625000
-40.336698, -11.718894, 51.750000
-40.336698, -11.718894, 51.875000
-40.523442, -11.773148, 52.000000
-40.336698, -11.718894, 52.125000
-40.336698, -11.718894, 52.250000
-40.523442, -11.773148, 52.375000
-40.336698, -11.718894, 52.500000
-40.523442, -11.773148, 52.625000
-40.336698, -11.718894, 52.750000
-40.336698, -11.718894, 52.875000
-40.336698, -11.718894, 53.000000
-40.523442, -11.773148, 53.125000
-40.336698, -11.718894, 53.250000
-40.336698, -11.718894, 53.375000
-40.336698, -11.718894, 53.500000
-40.336698, -11.718894, 53.625000
-40.336698, -11.718894, 53.750000
-40.336698, -11.718894, 53.875000
-40.336698, -11.718894, 54.000000
-40.336698, -11.718894, 54.125000
-40.336698, -11.718894, 54.250000
-40.336698, -11.718894, 54.375000
-40.336698, -11.718894, 54.500000
-40.336698, -11.718894, 54.625000
-40.149954, -11.664640, 54.750000
-40.336698, -11.718894, 54.875000
-40.149954, -11.664640, 55.000000
-40.149954, -11.664640, 55.125000
-40.149954, -11.664640, 55.250000
-40.149954, -11.664640, 55.375000
-39.963210, -11.610386, 55.500000
-40.149954, -11.664640, 55.625000
-39.963210, -11.610386, 55.750000
-39.963210, -11.610386, 55.875000
-39.963210, -11.610386, 56.000000
-39.963210, -11.610386, 56.125000
-39.963210, -11.610386, 56.250000
-39.963210, -11.610386, 56.375000
-39.963210, -11.610386, 56.500000
-39.963210, -11.610386, 56.625000
-39.776466, -11.556132, 56.750000
-39.776466, -11.556132, 56.875000
-39.776466, -11.556132, 57.000000
-39.589722, -11.501877, 57.125000
-39.589722, -11.501877, 57.250000
-39.589722, -11.501877, 57.375000
-39.589722, -11.501877, 57.500000
-39.589722, -11.501877, 57.625000
-39.589722, -11.501877, 57.750000
-39.589722, -11.501877, 57.875000
-39.402978, -11.447623, 58.000000
-39.402978, -11.447623, 58.125000
-39.589722, -11.501877, 58.250000
-39.402978, -11.447623, 58.375000
-39.402978, -11.447623, 58.500000
-39.402978, -11.447623, 58.625000
-39.402978, -11.447623, 58.750000
-39.402978, -11.447623, 58.875000
-39.216234, -11.393369, 59.000000
-39.216234, -11.393369, 59.125000
-39.216234, -11.393369, 59.250000
-39.029490, -11.339115, 59.375000
-39.029490, -11.339115, 59.500000
-39.029490, -11.339115, 59.625000
-39.029490, -11.339115, 59.750000
-38.842746, -11.284861, 59.875000
-39.029490, -11.339115, 60.000000
-38.842746, -11.284861, 60.125000
-38.656002, -11.230607, 60.250000
-38.656002, -11.230607, 60.375000
-38.656002, -11.230607, 60.500000
-38.656002, -11.230607, 60.625000
-38.469258, -11.176353, 60.750000
-38.469258, -11.176353, 60.875000
-38.469258, -11.176353, 61.000000
-38.469258, -11.176353, 61.125000
-38.282514, -11.122098, 61.250000
-38.282514, -11.122098, 61.375000
-38.282514, -11.122098, 61.500000
-38.095770, -11.067844, 61.625000
-38.095770, -11.067844, 61.750000
-38.095770, -11.067844, 61.875000
-37.909026, -11.013590, 62.000000
-37.909026, -11.013590, 62.125000
-37.909026, -11.013590, 62.250000
-37.909026, -11.013590, 62.375000
-37.722282, -10.959336, 62.500000
-37.722282, -10.959336, 62.625000
-37.722282, -10.959336, 62.750000
-37.535538, -10.905082, 62.875000
-37.535538, -10.905082, 63.000000
-37.535538, -10.905082, 63.125000
-37.348794, -10.850828, 63.250000
-37.162050, -10.796574, 63.375000
-37.162050, -10.796574, 63.500000
-36.975306, -10.742320, 63.625000
-36.975306, -10.742320, 63.750000
-36.975306, -10.742320, 63.875000
-36.788562, -10.688065, 64.000000
-36.788562, -10.688065, 64.125000
-36.601818, -10.633811, 64.250000
-36.601818, -10.633811, 64.375000
-36.601818, -10.633811, 64.500000
-36.415074, -10.579557, 64.625000
-36.228330, -10.525303, 64.750000
-36.415074, -10.579557, 64.875000
-36.228330, -10.525303, 65.000000
-36.041586, -10.471049, 65.125000
-35.854842, -10.416795, 65.250000
-35.668098, -10.362541, 65.375000
-35.668098, -10.362541, 65.500000
-35.481354, -10.308286, 65.625000
-35.481354, -10.308286, 65.750000
-35.294611, -10.254032, 65.875000
-35.107867, -10.199778, 66.000000
-35.107867, -10.199778, 66.125000
-35.107867, -10.199778, 66.250000
-34.921123, -10.145524, 66.375000
-34.734379, -10.091270, 66.500000
-34.734379, -10.091270, 66.625000
-34.360891, -9.982762, 66.750000
-34.174147, -9.928507, 66.875000
-34.174147, -9.928507, 67.000000
-33.987403, -9.874253, 67.125000
-33.987403, -9.874253, 67.250000
-33.613915, -9.765745, 67.375000
-33.427171, -9.711491, 67.500000
-33.427171, -9.711491, 67.625000
-33.240427, -9.657237, 67.750000
-33.240427, -9.657237, 67.875000
-32.866939, -9.548728, 68.000000
-32.866939, -9.548728, 68.125000
-32.680195, -9.494474, 68.250000
-32.680195, -9.494474, 68.375000
-32.493451, -9.440220, 68.500000
-32.493451, -9.440220, 68.625000
-32.493451, -9.440220, 68.750000
-32.493451, -9.440220, 68.875000
-32.306707, -9.385966, 69.000000
-32.306707, -9.385966, 69.125000
-32.306707, -9.385966, 69.250000
-31.933219, -9.277458, 69.375000
-31.933219, -9.277458, 69.500000
-31.746475, -9.223204, 69.625000
-31.559731, -9.168949, 69.750000
-30.999499, -9.006187, 69.875000
-30.252523, -8.789171, 70.000000
-30.065779, -8.734916, 70.125000
-30.065779, -8.734916, 70.250000
-30.065779, -8.734916, 70.375000
-30.065779, -8.734916, 70.500000
-29.879035, -8.680662, 70.625000
-29.879035, -8.680662, 70.750000
-29.692291, -8.626408, 70.875000
-29.692291, -8.626408, 71.000000
-29.505547, -8.572154, 71.125000
-29.318803, -8.517900, 71.250000
-29.318803, -8.517900, 71.375000
-29.318803, -8.517900, 71.500000
-29.132059, -8.463646, 71.625000
-28.945315, -8.409392, 71.750000
-28.945315, -8.409392, 71.875000
-28.758572, -8.355137, 72.000000
-28.571828, -8.300883, 72.125000
-28.385084, -8.246629, 72.250000
-28.385084, -8.246629, 72.375000
-28.385084, -8.246629, 72.500000
-28.011596, -8.138121, 72.625000
-28.011596, -8.138121, 72.750000
-27.824852, -8.083867, 72.875000
-27.638108, -8.029613, 73.000000
-27.451364, -7.975358, 73.125000
-27.264620, -7.921104, 73.250000
-27.264620, -7.921104, 73.375000
-27.077876, -7.866850, 73.500000
-26.891132, -7.812596, 73.625000
-26.891132, -7.812596, 73.750000
-26.704388, -7.758342, 73.875000
-26.704388, -7.758342, 74.000000
-26.517644, -7.704088, 74.125000
-26.330900, -7.649834, 74.250000
-26.330900, -7.649834, 74.375000
-26.330900, -7.649834, 74.500000
-26.144156, -7.595579, 74.625000
-26.144156, -7.595579, 74.750000
-26.144156, -7.595579, 74.875000
-26.144156, -7.595579, 75.000000
-26.330900, -7.649834, 75.125000
-26.330900, -7.649834, 75.250000
-26.704388, -7.758342, 75.375000
-26.517644, -7.704088, 75.500000
-26.517644, -7.704088, 75.625000
-26.704388, -7.758342, 75.750000
-26.891132, -7.812596, 75.875000
-27.077876, -7.866850, 76.000000
-27.077876, -7.866850, 76.125000
-27.264620, -7.921104, 76.250000
-27.264620, -7.921104, 76.375000
-27.451364, -7.975358, 76.500000
-27.638108, -8.029613, 76.625000
-27.824852, -8.083867, 76.750000
-28.198340, -8.192375, 76.875000
-28.198340, -8.192375, 77.000000
-28.385084, -8.246629, 77.125000
-28.571828, -8.300883, 77.250000
-28.758572, -8.355137, 77.375000
-28.945315, -8.409392, 77.500000
-29.132059, -8.463646, 77.625000
-29.132059, -8.463646, 77.750000
-29.505547, -8.572154, 77.875000
-29.505547, -8.572154, 78.000000
-29.692291, -8.626408, 78.125000
-29.879035, -8.680662, 78.250000
-30.065779, -8.734916, 78.375000
-30.252523, -8.789171, 78.500000
-30.439267, -8.843425, 78.625000
-30.626011, -8.897679, 78.750000
-30.999499, -9.006187, 78.875000
-31.186243, -9.060441, 79.000000
-31.372987, -9.114695, 79.125000
-31.372987, -9.114695, 79.250000
-31.559731, -9.168949, 79.375000
-31.933219, -9.277458, 79.500000
-31.933219, -9.277458, 79.625000
-32.306707, -9.385966, 79.750000
-32.493451, -9.440220, 79.875000
-32.493451, -9.440220, 80.000000
-32.866939, -9.548728, 80.125000
-33.053683, -9.602983, 80.250000
-33.240427, -9.657237, 80.375000
-33.427171, -9.711491, 80.500000
-33.613915, -9.765745, 80.625000
-33.987403, -9.874253, 80.750000
-33.987403, -9.874253, 80.875000
-33.987403, -9.874253, 81.000000
-34.360891, -9.982762, 81.125000
-34.360891, -9.982762, 81.250000
-34.547635, -10.037016, 81.375000
-34.547635, -10.037016, 81.500000
-34.734379, -10.091270, 81.625000
-35.107867, -10.199778, 81.750000
-34.921123, -10.145524, 81.875000
-35.107867, -10.199778, 82.000000
-35.107867, -10.199778, 82.125000
-35.294611, -10.254032, 82.250000
-24.967934, -8.112574, 22.750000
-25.152882, -8.172667, 22.875000
-25.337829, -8.232760, 23.000000
-25.337829, -8.232760, 23.125000
-25.522777, -8.292853, 23.250000
-25.522777, -8.292853, 23.375000
-25.892672, -8.413039, 23.500000
-25.892672, -8.413039, 23.625000
-25.892672, -8.413039, 23.750000
-26.262568, -8.533226, 23.875000
-26.262568, -8.533226, 24.000000
-26.447515, -8.593319, 24.125000
-26.632463, -8.653412, 24.250000
-26.817411, -8.713505, 24.375000
-27.002358, -8.773598, 24.500000
-27.187306, -8.833691, 24.625000
-27.187306, -8.833691, 24.750000
-27.372254, -8.893784, 24.875000
-27.557201, -8.953878, 25.000000
-27.742149, -9.013971, 25.125000
-27.927097, -9.074064, 25.250000
-28.112044, -9.134157, 25.375000
-28.296992, -9.194250, 25.500000
-28.296992, -9.194250, 25.625000
-28.481940, -9.254343, 25.750000
-28.666887, -9.314436, 25.875000
-28.851835, -9.374529, 26.000000
-28.851835, -9.374529, 26.125000
-29.036783, -9.434623, 26.250000
-29.221730, -9.494716, 26.375000
-29.221730, -9.494716, 26.500000
-29.406678, -9.554809, 26.625000
-29.591626, -9.614902, 26.750000
-29.591626, -9.614902, 26.875000
-29.776573, -9.674995, 27.000000
-29.961521, -9.735088, 27.125000
-29.961521, -9.735088, 27.250000
-30.146469, -9.795181, 27.375000
-30.331416, -9.855275, 27.500000
-30.331416, -9.855275, 27.625000
-30.516364, -9.915368, 27.750000
-30.516364, -9.915368, 27.875000
-30.701312, -9.975461, 28.000000
-30.886259, -10.035554, 28.125000
-30.886259, -10.035554, 28.250000
-31.071207, -10.095647, 28.375000
-31.256155, -10.155740, 28.500000
-31.256155, -10.155740, 28.625000
-31.256155, -10.155740, 28.750000
-31.441102, -10.215833, 28.875000
-31.810998, -10.336020, 29.000000
-31.626050, -10.275927, 29.125000
-31.810998, -10.336020, 29.250000
-31.995945, -10.396113, 29.375000
-31.995945, -10.396113, 29.500000
-31.995945, -10.396113, 29.625000
-32.180893, -10.456206, 29.750000
-32.365841, -10.516299, 29.875000
-32.365841, -10.516299, 30.000000
-32.550788, -10.576392, 30.125000
-32.550788, -10.576392, 30.250000
-32.735736, -10.636485, 30.375000
-32.735736, -10.636485, 30.500000
-32.920684, -10.696578, 30.625000
-32.920684, -10.696578, 30.750000
-33.105631, -10.756672, 30.875000
-33.105631, -10.756672, 31.000000
-33.475527, -10.876858, 31.125000
-33.475527, -10.876858, 31.250000
-33.475527, -10.876858, 31.375000
-33.475527, -10.876858, 31.500000
-33.660474, -10.936951, 31.625000
-33.660474, -10.936951, 31.750000
-33.845422, -10.997044, 31.875000
-33.845422, -10.997044, 32.000000
-34.030370, -11.057137, 32.125000
-34.030370, -11.057137, 32.250000
-34.030370, -11.057137, 32.375000
-34.215317, -11.117230, 32.500000
-34.215317, -11.117230, 32.625000
-34.400265, -11.177324, 32.750000
-34.400265, -11.177324, 32.875000
-34.585212, -11.237417, 33.000000
-34.585212, -11.237417, 33.125000
-34.770160, -11.297510, 33.250000
-34.770160, -11.297510, 33.375000
-34.955108, -11.357603, 33.500000
-34.955108, -11.357603, 33.625000
-34.955108, -11.357603, 33.750000
-35.140055, -11.417696, 33.875000
-35.140055, -11.417696, 34.000000
-35.325003, -11.477789, 34.125000
-35.325003, -11.477789, 34.250000
-35.325003, -11.477789, 34.375000
-35.509951, -11.537882, 34.500000
-35.509951, -11.537882, 34.625000
-35.694898, -11.597976, 34.750000
-35.694898, -11.597976, 34.875000
-35.879846, -11.658069, 35.000000
-35.879846, -11.658069, 35.125000
-36.064794, -11.718162, 35.250000
-36.064794, -11.718162, 35.375000
-36.064794, -11.718162, 35.500000
-36.064794, -11.718162, 35.625000
-36.249741, -11.778255, 35.750000
-36.249741, -11.778255, 35.875000
-36.434689, -11.838348, 36.000000
-36.434689, -11.838348, 36.125000
-36.434689, -11.838348, 36.250000
-36.619637, -11.898441, 36.375000
-36.619637, -11.898441, 36.500000
-36.619637, -11.898441, 36.625000
-36.804584, -11.958534, 36.750000
-36.804584, -11.958534, 36.875000
-36.804584, -11.958534, 37.000000
-36.989532, -12.018628, 37.125000
-36.989532, -12.018628, 37.250000
-36.989532, -12.018628, 37.375000
-37.174480, -12.078721, 37.500000
-37.174480, -12.078721, 37.625000
-37.174480, -12.078721, 37.750000
-37.174480, -12.078721, 37.875000
-37.359427, -12.138814, 38.000000
-37.359427, -12.138814, 38.125000
-37.544375, -12.198907, 38.250000
-37.544375, -12.198907, 38.375000
-37.544375, -12.198907, 38.500000
-37.729323, -12.259000, 38.625000
-37.729323, -12.259000, 38.750000
-37.729323, -12.259000, 38.875000
-37.729323, -12.259000, 39.000000
-37.914270, -12.319093, 39.125000
-37.729323, -12.259000, 39.250000
-37.914270, -12.319093, 39.375000
-38.099218, -12.379186, 39.500000
-38.099218, -12.379186, 39.625000
-37.914270, -12.319093, 39.750000
-37.914270, -12.319093, 39.875000
-38.099218, -12.379186, 40.000000
-38.099218, -12.379186, 40.125000
-38.099218, -12.379186, 40.250000
-38.099218, -12.379186, 40.375000
-38.469113, -12.499373, 40.500000
-38.284166, -12.439279, 40.625000
-38.284166, -12.439279, 40.750000
-38.469113, -12.499373, 40.875000
-38.469113, -12.499373, 41.000000
-38.469113, -12.499373, 41.125000
-38.469113, -12.499373, 41.250000
-38.469113, -12.499373, 41.375000
-38.654061, -12.559466, 41.500000
-38.654061, -12.559466, 41.625000
-38.654061, -12.559466, 41.750000
-38.654061, -12.559466, 41.875000
-38.654061, -12.559466, 42.000000
-38.839009, -12.619559, 42.125000
-38.839009, -12.619559, 42.250000
-38.839009, -12.619559, 42.375000
-38.839009, -12.619559, 42.500000
-39.023956, -12.679652, 42.625000
-39.023956, -12.679652, 42.750000
-39.023956, -12.679652, 42.875000
-39.023956, -12.679652, 43.000000
-39.023956, -12.679652, 43.125000
-39.023956, -12.679652, 43.250000
-39.208904, -12.739745, 43.375000
-39.208904, -12.739745, 43.500000
-39.208904, -12.739745, 43.625000
-39.208904, -12.739745, 43.750000
-39.393852, -12.799838, 43.875000
-39.208904, -12.739745, 44.000000
-39.208904, -12.739745, 44.125000
-39.393852, -12.799838, 44.250000
-39.393852, -12.799838, 44.375000
-39.393852, -12.799838, 44.500000
-39.393852, -12.799838, 44.625000
-39.578799, -12.859931, 44.750000
-39.393852, -12.799838, 44.875000
-39.578799, -12.859931, 45.000000
-39.578799, -12.859931, 45.125000
-39.578799, -12.859931, 45.250000
-39.578799, -12.859931, 45.375000
-39.578799, -12.859931, 45.500000
-39.578799, -12.859931, 45.625000
-39.578799, -12.859931, 45.750000
-39.763747, -12.920025, 45.875000
-39.578799, -12.859931, 46.000000
-39.578799, -12.859931, 46.125000
-39.578799, -12.859931, 46.250000
-39.763747, -12.920025, 46.375000
-39.763747, -12.920025, 46.500000
-39.763747, -12.920025, 46.625000
-39.763747, -12.920025, 46.750000
-39.763747, -12.920025, 46.875000
-39.763747, -12.920025, 47.000000
-39.763747, -12.920025, 47.125000
-39.763747, -12.920025, 47.250000
-39.763747, -12.920025, 47.375000
-39.763747, -12.920025, 47.500000
-39.763747, -12.920025, 47.625000
-39.763747, -12.920025, 47.750000
-39.763747, -12.920025, 47.875000
-39.948695, -12.980118, 48.000000
-39.763747, -12.920025, 48.125000
-39.763747, -12.920025, 48.250000
-39.948695, -12.980118, 48.375000
-39.948695, -12.980118, 48.500000
-39.948695, -12.980118, 48.625000
-39.948695, -12.980118, 48.750000
-39.948695, -12.980118, 48.875000
-39.948695, -12.980118, 49.000000
-40.133642, -13.040211, 49.125000
-39.948695, -12.980118, 49.250000
-39.948695, -12.980118, 49.375000
-39.948695, -12.980118, 49.500000
-39.948695, -12.980118, 49.625000
-40.133642, -13.040211, 49.750000
-39.948695, -12.980118, 49.875000
-40.133642, -13.040211, 50.000000
-40.133642, -13.040211, 50.125000
-40.133642, -13.040211, 50.250000
-40.133642, -13.040211, 50.375000
-39.948695, -12.980118, 50.500000
-40.133642, -13.040211, 50.625000
-39.948695, -12.980118, 50.750000
-39.948695, -12.980118, 50.875000
-39.948695, -12.980118, 51.000000
-39.948695, -12.980118, 51.125000
-39.948695, -12.980118, 51.250000
-39.948695, -12.980118, 51.375000
-39.948695, -12.980118, 51.500000
-39.948695, -12.980118, 51.625000
-39.948695, -12.980118, 51.750000
-39.948695, -12.980118, 51.875000
-39.948695, -12.980118, 52.000000
-39.948695, -12.980118, 52.125000
-39.948695, -12.980118, 52.250000
-39.948695, -12.980118, 52.375000
-39.948695, -12.980118, 52.500000
-39.948695, -12.980118, 52.625000
-39.948695, -12.980118, 52.750000
-40.133642, -13.040211, 52.875000
-39.948695, -12.980118, 53.000000
-39.948695, -12.980118, 53.125000
-39.948695, -12.980118, 53.250000
-39.948695, -12.980118, 53.375000
-39.948695, -12.980118, 53.500000
-39.948695, -12.980118, 53.625000
-39.948695, -12.980118, 53.750000
-39.948695, -12.980118, 53.875000
-39.948695, -12.980118, 54.000000
-39.948695, -12.980118, 54.125000
-39.948695, -12.980118, 54.250000
-39.763747, -12.920025, 54.375000
-39.763747, -12.920025, 54.500000
-39.763747, -12.920025, 54.625000
-39.763747, -12.920025, 54.750000
-39.763747, -12.920025, 54.875000
-39.763747, -12.920025, 55.000000
-39.763747, -12.920025, 55.125000
-39.763747, -12.920025, 55.250000
-39.763747, -12.920025, 55.375000
-39.578799, -12.859931, 55.500000
-39.578799, -12.859931, 55.625000
-39.578799, -12.859931, 55.750000
-39.578799, -12.859931, 55.875000
-39.578799, -12.859931, 56.000000
-39.578799, -12.859931, 56.125000
-39.578799, -12.859931, 56.250000
-39.578799, -12.859931, 56.375000
-39.578799, -12.859931, 56.500000
-39.393852, -12.799838, 56.625000
-39.393852, -12.799838, 56.750000
-39.393852, -12.799838, 56.875000
-39.208904, -12.739745, 57.000000
-39.208904, -12.739745, 57.125000
-39.208904, -12.739745, 57.250000
-39.208904, -12.739745, 57.375000
-39.208904, -12.739745, 57.500000
-39.208904, -12.739745, 57.625000
-39.023956, -12.679652, 57.750000
-39.023956, -12.679652, 57.875000
-39.023956, -12.679652, 58.000000
-39.023956, -12.679652, 58.125000
-39.023956, -12.679652, 58.250000
-39.023956, -12.679652, 58.375000
-39.023956, -12.679652, 58.500000
-39.023956, -12.679652, 58.625000
-39.023956, -12.679652, 58.750000
-38.839009, -12.619559, 58.875000
-38.839009, -12.619559, 59.000000
-38.839009, -12.619559, 59.125000
-38.839009, -12.619559, 59.250000
-38.654061, -12.559466, 59.375000
-38.654061, -12.559466, 59.500000
-38.654061, -12.559466, 59.625000
-38.469113, -12.499373, 59.750000
-38.469113, -12.499373, 59.875000
-38.469113, -12.499373, 60.000000
-38.469113, -12.499373, 60.125000
-38.284166, -12.439279, 60.250000
-38.284166, -12.439279, 60.375000
-38.284166, -12.439279, 60.500000
-38.469113, -12.499373, 60.625000
-38.099218, -12.379186, 60.750000
-38.284166, -12.439279, 60.875000
-38.099218, -12.379186, 61.000000
-37.914270, -12.319093, 61.125000
-37.914270, -12.319093, 61.250000
-38.099218, -12.379186, 61.375000
-37.729323, -12.259000, 61.500000
-37.729323, -12.259000, 61.625000
-37.729323, -12.259000, 61.750000
-37.544375, -12.198907, 61.875000
-37.544375, -12.198907, 62.000000
-37.544375, -12.198907, 62.125000
-37.544375, -12.198907, 62.250000
-37.359427, -12.138814, 62.375000
-37.359427, -12.138814, 62.500000
-37.359427, -12.138814, 62.625000
-37.174480, -12.078721, 62.750000
-37.174480, -12.078721, 62.875000
-36.989532, -12.018628, 63.000000
-36.989532, -12.018628, 63.125000
-36.804584, -11.958534, 63.250000
-36.804584, -11.958534, 63.375000
-36.804584, -11.958534, 63.500000
-36.619637, -11.898441, 63.625000
-36.804584, -11.958534, 63.750000
-36.434689, -11.838348, 63.875000
-36.434689, -11.838348, 64.000000
-36.249741, -11.778255, 64.125000
-36.249741, -11.778255, 64.250000
-36.249741, -11.778255, 64.375000
-36.064794, -11.718162, 64.500000
-35.879846, -11.658069, 64.625000
-35.879846, -11.658069, 64.750000
-35.879846, -11.658069, 64.875000
-35.694898, -11.597976, 65.000000
-35.509951, -11.537882, 65.125000
-35.509951, -11.537882, 65.250000
-35.325003, -11.477789, 65.375000
-35.140055, -11.417696, 65.500000
-35.140055, -11.417696, 65.625000
-35.140055, -11.417696, 65.750000
-35.140055, -11.417696, 65.875000
-34.770160, -11.297510, 66.000000
-34.770160, -11.297510, 66.125000
-34.585212, -11.237417, 66.250000
-34.585212, -11.237417, 66.375000
-34.400265, -11.177324, 66.500000
-34.400265, -11.177324, 66.625000
-34.030370, -11.057137, 66.750000
-33.845422, -10.997044, 66.875000
-33.845422, -10.997044, 67.000000
-33.660474, -10.936951, 67.125000
-33.290579, -10.816765, 67.250000
-33.475527, -10.876858, 67.375000
-33.105631, -10.756672, 67.500000
-32.920684, -10.696578, 67.625000
-32.735736, -10.636485, 67.750000
-32.735736, -10.636485, 67.875000
-32.735736, -10.636485, 68.000000
-32.365841, -10.516299, 68.125000
-32.365841, -10.516299, 68.250000
-32.180893, -10.456206, 68.375000
-32.180893, -10.456206, 68.500000
-32.180893, -10.456206, 68.625000
-32.180893, -10.456206, 68.750000
-32.180893, -10.456206, 68.875000
-31.995945, -10.396113, 69.000000
-31.995945, -10.396113, 69.125000
-31.810998, -10.336020, 69.250000
-31.995945, -10.396113, 69.375000
-31.626050, -10.275927, 69.500000
-31.441102, -10.215833, 69.625000
-31.441102, -10.215833, 69.750000
-30.886259, -10.035554, 69.875000
-30.331416, -9.855275, 70.000000
-29.591626, -9.614902, 70.125000
-29.776573, -9.674995, 70.250000
-29.776573, -9.674995, 70.375000
-29.591626, -9.614902, 70.500000
-29.591626, -9.614902, 70.625000
-29.406678, -9.554809, 70.750000
-29.406678, -9.554809, 70.875000
-29.221730, -9.494716, 71.000000
-29.221730, -9.494716, 71.125000
-29.036783, -9.434623, 71.250000
-29.036783, -9.434623, 71.375000
-28.851835, -9.374529, 71.500000
-28.666887, -9.314436, 71.625000
-28.666887, -9.314436, 71.750000
-28.666887, -9.314436, 71.875000
-28.481940, -9.254343, 72.000000
-28.296992, -9.194250, 72.125000
-28.296992, -9.194250, 72.250000
-28.112044, -9.134157, 72.375000
-27.927097, -9.074064, 72.500000
-27.742149, -9.013971, 72.625000
-27.742149, -9.013971, 72.750000
-27.372254, -8.893784, 72.875000
-27.372254, -8.893784, 73.000000
-27.187306, -8.833691, 73.125000
-27.002358, -8.773598, 73.250000
-26.817411, -8.713505, 73.375000
-26.817411, -8.713505, 73.500000
-26.632463, -8.653412, 73.625000
-26.632463, -8.653412, 73.750000
-26.447515, -8.593319, 73.875000
-26.262568, -8.533226, 74.000000
-26.262568, -8.533226, 74.125000
-26.077620, -8.473132, 74.250000
-26.077620, -8.473132, 74.375000
-25.892672, -8.413039, 74.500000
-25.892672, -8.413039, 74.625000
-25.892672, -8.413039, 74.750000
-25.892672, -8.413039, 74.875000
-25.892672, -8.413039, 75.000000
-25.892672, -8.413039, 75.125000
-26.077620, -8.473132, 75.250000
-26.077620, -8.473132, 75.375000
-26.262568, -8.533226, 75.500000
-26.447515, -8.593319, 75.625000
-26.632463, -8.653412, 75.750000
-26.447515, -8.593319, 75.875000
-26.632463, -8.653412, 76.000000
-26.817411, -8.713505, 76.125000
-26.817411, -8.713505, 76.250000
-27.002358, -8.773598, 76.375000
-27.187306, -8.833691, 76.500000
-27.372254, -8.893784, 76.625000
-27.557201, -8.953878, 76.750000
-27.742149, -9.013971, 76.875000
-27.927097, -9.074064, 77.000000
-28.112044, -9.134157, 77.125000
-28.296992, -9.194250, 77.250000
-28.296992, -9.194250, 77.375000
-28.666887, -9.314436, 77.500000
-28.666887, -9.314436, 77.625000
-28.851835, -9.374529, 77.750000
-29.036783, -9.434623, 77.875000
-29.221730, -9.494716, 78.000000
-29.406678, -9.554809, 78.125000
-29.591626, -9.614902, 78.250000
-29.776573, -9.674995, 78.375000
-29.961521, -9.735088, 78.500000
-30.146469, -9.795181, 78.625000
-30.331416, -9.855275, 78.750000
-30.516364, -9.915368, 78.875000
-30.886259, -10.035554, 79.000000
-31.071207, -10.095647, 79.125000
-31.071207, -10.095647, 79.250000
-31.256155, -10.155740, 79.375000
-31.441102, -10.215833, 79.500000
-31.626050, -10.275927, 79.625000
-31.995945, -10.396113, 79.750000
-31.995945, -10.396113, 79.875000
-32.180893, -10.456206, 80.000000
-32.550788, -10.576392, 80.125000
-32.550788, -10.576392, 80.250000
-32.735736, -10.636485, 80.375000
-32.920684, -10.696578, 80.500000
-33.290579, -10.816765, 80.625000
-33.290579, -10.816765, 80.750000
-33.660474, -10.936951, 80.875000
-33.660474, -10.936951, 81.000000
-33.845422, -10.997044, 81.125000
-34.030370, -11.057137, 81.250000
-34.030370, -11.057137, 81.375000
-34.215317, -11.117230, 81.500000
-34.400265, -11.177324, 81.625000
-34.400265, -11.177324, 81.750000
-34.400265, -11.177324, 81.875000
-34.585212, -11.237417, 82.000000
-34.585212, -11.237417, 82.125000
-34.955108, -11.357603, 82.250000
-24.883761, -8.958705, 22.625000
-24.517823, -8.826959, 22.750000
-24.883761, -8.958705, 22.875000
-24.883761, -8.958705, 23.000000
-25.066730, -9.024578, 23.125000
-25.249698, -9.090451, 23.250000
-25.249698, -9.090451, 23.375000
-25.432667, -9.156324, 23.500000
-25.615636, -9.222196, 23.625000
-25.981574, -9.353942, 23.750000
-25.798605, -9.288069, 23.875000
-25.981574, -9.353942, 24.000000
-25.981574, -9.353942, 24.125000
-26.347511, -9.485688, 24.250000
-26.530480, -9.551561, 24.375000
-26.530480, -9.551561, 24.500000
-26.713449, -9.617433, 24.625000
-26.896418, -9.683306, 24.750000
-27.079387, -9.749179, 24.875000
-27.262355, -9.815052, 25.000000
-27.262355, -9.815052, 25.125000
-27.628293, -9.946798, 25.250000
-27.811262, -10.012670, 25.375000
-27.994231, -10.078543, 25.500000
-27.994231, -10.078543, 25.625000
-28.177200, -10.144416, 25.750000
-28.177200, -10.144416, 25.875000
-28.360168, -10.210289, 26.000000
-28.543137, -10.276162, 26.125000
-28.726106, -10.342035, 26.250000
-28.726106, -10.342035, 26.375000
-28.909075, -10.407907, 26.500000
-29.092044, -10.473780, 26.625000
-29.092044, -10.473780, 26.750000
-29.275013, -10.539653, 26.875000
-29.457981, -10.605526, 27.000000
-29.457981, -10.605526, 27.125000
-29.640950, -10.671399, 27.250000
-29.823919, -10.737272, 27.375000
-29.823919, -10.737272, 27.500000
-30.006888, -10.803144, 27.625000
-30.006888, -10.803144, 27.750000
-30.189857, -10.869017, 27.875000
-30.555794, -11.000763, 28.000000
-30.372826, -10.934890, 28.125000
-30.555794, -11.000763, 28.250000
-30.738763, -11.066636, 28.375000
-30.738763, -11.066636, 28.500000
-30.921732, -11.132509, 28.625000
-30.921732, -11.132509, 28.750000
-31.287670, -11.264254, 28.875000
-31.287670, -11.264254, 29.000000
-31.287670, -11.264254, 29.125000
-31.287670, -11.264254, 29.250000
-31.470639, -11.330127, 29.375000
-31.653607, -11.396000, 29.500000
-31.653607, -11.396000, 29.625000
-31.836576, -11.461873, 29.750000
-31.836576, -11.461873, 29.875000
-32.019545, -11.527746, 30.000000
-32.019545, -11.527746, 30.125000
-32.202514, -11.593618, 30.250000
-32.202514, -11.593618, 30.375000
-32.385483, -11.659491, 30.500000
-32.568452, -11.725364, 30.625000
-32.568452, -11.725364, 30.750000
-32.751420, -11.791237, 30.875000
-32.751420, -11.791237, 31.000000
-32.934389, -11.857110, 31.125000
-33.117358, -11.922983, 31.250000
-33.117358, -11.922983, 31.375000
-33.117358, -11.922983, 31.500000
-33.117358, -11.922983, 31.625000
-33.483296, -12.054728, 31.750000
-33.300327, -11.988855, 31.875000
-33.666265, -12.120601, 32.000000
-33.483296, -12.054728, 32.125000
-33.849233, -12.186474, 32.250000
-33.666265, -12.120601, 32.375000
-33.849233, -12.186474, 32.500000
-33.849233, -12.186474, 32.625000
-33.849233, -12.186474, 32.750000
-34.032202, -12.252347, 32.875000
-34.215171, -12.318220, 33.000000
-34.215171, -12.318220, 33.125000
-34.215171, -12.318220, 33.250000
-34.398140, -12.384092, 33.375000
-34.398140, -12.384092, 33.500000
-34.581109, -12.449965, 33.625000
-34.581109, -12.449965, 33.750000
-34.581109, -12.449965, 33.875000
-34.764077, -12.515838, 34.000000
-34.764077, -12.515838, 34.125000
-34.947046, -12.581711, 34.250000
-34.947046, -12.581711, 34.375000
-35.130015, -12.647584, 34.500000
-35.130015, -12.647584, 34.625000
-35.312984, -12.713457, 34.750000
-35.312984, -12.713457, 34.875000
-35.312984, -12.713457, 35.000000
-35.312984, -12.713457, 35.125000
-35.495953, -12.779329, 35.250000
-35.495953, -12.779329, 35.375000
-35.678922, -12.845202, 35.500000
-35.678922, -12.845202, 35.625000
-35.861890, -12.911075, 35.750000
-35.861890, -12.911075, 35.875000
-35.861890, -12.911075, 36.000000
-36.044859, -12.976948, 36.125000
-36.044859, -12.976948, 36.250000
-36.044859, -12.976948, 36.375000
-36.227828, -13.042821, 36.500000
-36.227828, -13.042821, 36.625000
-36.227828, -13.042821, 36.750000
-36.410797, -13.108694, 36.875000
-36.410797, -13.108694, 37.000000
-36.410797, -13.108694, 37.125000
-36.593766, -13.174566, 37.250000
-36.593766, -13.174566, 37.375000
-36.776735, -13.240439, 37.500000
-36.776735, -13.240439, 37.625000
-36.776735, -13.240439, 37.750000
-36.776735, -13.240439, 37.875000
-36.959703, -13.306312, 38.000000
-36.959703, -13.306312, 38.125000
-36.959703, -13.306312, 38.250000
-36.959703, -13.306312, 38.375000
-37.142672, -13.372185, 38.500000
-37.142672, -13.372185, 38.625000
-37.142672, -13.372185, 38.750000
-37.325641, -13.438058, 38.875000
-37.325641, -13.438058, 39.000000
-37.325641, -13.438058, 39.125000
-37.325641, -13.438058, 39.250000
-37.325641, -13.438058, 39.375000
-37.508610, -13.503930, 39.500000
-37.508610, -13.503930, 39.625000
-37.508610, -13.503930, 39.750000
-37.508610, -13.503930, 39.875000
-37.691579, -13.569803, 40.000000
-37.691579, -13.569803, 40.125000
-37.691579, -13.569803, 40.250000
-37.691579, -13.569803, 40.375000
-37.691579, -13.569803, 40.500000
-38.057516, -13.701549, 40.625000
-37.874548, -13.635676, 40.750000
-37.874548, -13.635676, 40.875000
-38.057516, -13.701549, 41.000000
-38.057516, -13.701549, 41.125000
-38.057516, -13.701549, 41.250000
-38.057516, -13.701549, 41.375000
-38.057516, -13.701549, 41.500000
-38.057516, -13.701549, 41.625000
-38.423454, -13.833295, 41.750000
-38.240485, -13.767422, 41.875000
-38.240485, -13.767422, 42.000000
-38.423454, -13.833295, 42.125000
-38.240485, -13.767422, 42.250000
-38.423454, -13.833295, 42.375000
-38.423454, -13.833295, 42.500000
-38.423454, -13.833295, 42.625000
-38.423454, -13.833295, 42.750000
-38.606423, -13.899167, 42.875000
-38.423454, -13.833295, 43.000000
-38.606423, -13.899167, 43.125000
-38.606423, -13.899167, 43.250000
-38.606423, -13.899167, 43.375000
-38.789392, -13.965040, 43.500000
-38.789392, -13.965040, 43.625000
-38.789392, -13.965040, 43.750000
-38.789392, -13.965040, 43.875000
-38.789392, -13.965040, 44.000000
-38.789392, -13.965040, 44.125000
-38.789392, -13.965040, 44.250000
-38.789392, -13.965040, 44.375000
-38.972361, -14.030913, 44.500000
-38.972361, -14.030913, 44.625000
-38.972361, -14.030913, 44.750000
-38.972361, -14.030913, 44.875000
-39.155329, -14.096786, 45.000000
-39.155329, -14.096786, 45.125000
-38.972361, -14.030913, 45.250000
-39.155329, -14.096786, 45.375000
-39.155329, -14.096786, 45.500000
-39.155329, -14.096786, 45.625000
-39.155329, -14.096786, 45.750000
-39.155329, -14.096786, 45.875000
-39.155329, -14.096786, 46.000000
-39.155329, -14.096786, 46.125000
-39.155329, -14.096786, 46.250000
-39.155329, -14.096786, 46.375000
-39.338298, -14.162659, 46.500000
-39.338298, -14.162659, 46.625000
-39.338298, -14.162659, 46.750000
-39.338298, -14.162659, 46.875000
-39.338298, -14.162659, 47.000000
-39.338298, -14.162659, 47.125000
-39.338298, -14.162659, 47.250000
-39.338298, -14.162659, 47.375000
-39.338298, -14.162659, 47.500000
-39.338298, -14.162659, 47.625000
-39.338298, -14.162659, 47.750000
-39.338298, -14.162659, 47.875000
-39.338298, -14.162659, 48.000000
-39.338298, -14.162659, 48.125000
-39.338298, -14.162659, 48.250000
-39.338298, -14.162659, 48.375000
-39.338298, -14.162659, 48.500000
-39.521267, -14.228532, 48.625000
-39.338298, -14.162659, 48.750000
-39.338298, -14.162659, 48.875000
-39.338298, -14.162659, 49.000000
-39.521267, -14.228532, 49.125000
-39.521267, -14.228532, 49.250000
-39.521267, -14.228532, 49.375000
-39.704236, -14.294404, 49.500000
-39.521267, -14.228532, 49.625000
-39.521267, -14.228532, 49.750000
-39.521267, -14.228532, 49.875000
-39.521267, -14.228532, 50.000000
-39.521267, -14.228532, 50.125000
-39.521267, -14.228532, 50.250000
-39.521267, -14.228532, 50.375000
-39.521267, -14.228532, 50.500000
-39.521267, -14.228532, 50.625000
-39.521267, -14.228532, 50.750000
-39.521267, -14.228532, 50.875000
-39.521267, -14.228532, 51.000000
-39.521267, -14.228532, 51.125000
-39.521267, -14.228532, 51.250000
-39.521267, -14.228532, 51.375000
-39.521267, -14.228532, 51.500000
-39.521267, -14.228532, 51.625000
-39.521267, -14.228532, 51.750000
-39.521267, -14.228532, 51.875000
-39.521267, -14.228532, 52.000000
-39.521267, -14.228532, 52.125000
-39.521267, -14.228532, 52.250000
-39.521267, -14.228532, 52.375000
-39.521267, -14.228532, 52.500000
-39.521267, -14.228532, 52.625000
-39.521267, -14.228532, 52.750000
-39.521267, -14.228532, 52.875000
-39.521267, -14.228532, 53.000000
-39.521267, -14.228532, 53.125000
-39.521267, -14.228532, 53.250000
-39.521267, -14.228532, 53.375000
-39.338298, -14.162659, 53.500000
-39.521267, -14.228532, 53.625000
-39.338298, -14.162659, 53.750000
-39.521267, -14.228532, 53.875000
-39.338298, -14.162659, 54.000000
-39.338298, -14.162659, 54.125000
-39.338298, -14.162659, 54.250000
-39.338298, -14.162659, 54.375000
-39.338298, -14.162659, 54.500000
-39.338298, -14.162659, 54.625000
-39.338298, -14.162659, 54.750000
-39.155329, -14.096786, 54.875000
-39.155329, -14.096786, 55.000000
-39.155329, -14.096786, 55.125000
-39.155329, -14.096786, 55.250000
-39.155329, -14.096786, 55.375000
-39.155329, -14.096786, 55.500000
-39.155329, -14.096786, 55.625000
-39.155329, -14.096786, 55.750000
-39.155329, -14.096786, 55.875000
-38.972361, -14.030913, 56.000000
-38.972361, -14.030913, 56.125000
-38.972361, -14.030913, 56.250000
-38.972361, -14.030913, 56.375000
-38.972361, -14.030913, 56.500000
-38.972361, -14.030913, 56.625000
-38.972361, -14.030913, 56.750000
-38.789392, -13.965040, 56.875000
-38.789392, -13.965040, 57.000000
-38.789392, -13.965040, 57.125000
-38.789392, -13.965040, 57.250000
-38.789392, -13.965040, 57.375000
-38.789392, -13.965040, 57.500000
-38.606423, -13.899167, 57.625000
-38.606423, -13.899167, 57.750000
-38.606423, -13.899167, 57.875000
-38.606423, -13.899167, 58.000000
-38.606423, -13.899167, 58.125000
-38.606423, -13.899167, 58.250000
-38.423454, -13.833295, 58.375000
-38.606423, -13.899167, 58.500000
-38.606423, -13.899167, 58.625000
-38.423454, -13.833295, 58.750000
-38.423454, -13.833295, 58.875000
-38.423454, -13.833295, 59.000000
-38.240485, -13.767422, 59.125000
-38.240485, -13.767422, 59.250000
-38.240485, -13.767422, 59.375000
-38.240485, -13.767422, 59.500000
-38.240485, -13.767422, 59.625000
-38.057516, -13.701549, 59.750000
-38.057516, -13.701549, 59.875000
-38.057516, -13.701549, 60.000000
-38.057516, -13.701549, 60.125000
-37.874548, -13.635676, 60.250000
-37.874548, -13.635676, 60.375000
-37.874548, -13.635676, 60.500000
-37.691579, -13.569803, 60.625000
-37.691579, -13.569803, 60.750000
-37.691579, -13.569803, 60.875000
-37.691579, -13.569803, 61.000000
-37.508610, -13.503930, 61.125000
-37.508610, -13.503930, 61.250000
-37.508610, -13.503930, 61.375000
-37.508610, -13.503930, 61.500000
-37.325641, -13.438058, 61.625000
-37.325641, -13.438058, 61.750000
-37.325641, -13.438058, 61.875000
-37.142672, -13.372185, 62.000000
-37.142672, -13.372185, 62.125000
-37.142672, -13.372185, 62.250000
-37.142672, -13.372185, 62.375000
-36.959703, -13.306312, 62.500000
-36.959703, -13.306312, 62.625000
-36.776735, -13.240439, 62.750000
-36.776735, -13.240439, 62.875000
-36.593766, -13.174566, 63.000000
-36.593766, -13.174566, 63.125000
-36.593766, -13.174566, 63.250000
-36.410797, -13.108694, 63.375000
-36.227828, -13.042821, 63.500000
-36.227828, -13.042821, 63.625000
-36.044859, -12.976948, 63.750000
-36.044859, -12.976948, 63.875000
-36.227828, -13.042821, 64.000000
-35.861890, -12.911075, 64.125000
-35.861890, -12.911075, 64.250000
-35.678922, -12.845202, 64.375000
-35.678922, -12.845202, 64.500000
-35.495953, -12.779329, 64.625000
-35.312984, -12.713457, 64.750000
-35.495953, -12.779329, 64.875000
-35.312984, -12.713457, 65.000000
-35.130015, -12.647584, 65.125000
-35.130015, -12.647584, 65.250000
-34.947046, -12.581711, 65.375000
-34.764077, -12.515838, 65.500000
-34.764077, -12.515838, 65.625000
-34.581109, -12.449965, 65.750000
-34.398140, -12.384092, 65.875000
-34.398140, -12.384092, 66.000000
-34.215171, -12.318220, 66.125000
-34.032202, -12.252347, 66.250000
-33.849233, -12.186474, 66.375000
-33.849233, -12.186474, 66.500000
-33.849233, -12.186474, 66.625000
-33.666265, -12.120601, 66.750000
-33.483296, -12.054728, 66.875000
-33.300327, -11.988855, 67.000000
-33.117358, -11.922983, 67.125000
-33.117358, -11.922983, 67.250000
-32.934389, -11.857110, 67.375000
-32.751420, -11.791237, 67.500000
-32.568452, -11.725364, 67.625000
-32.385483, -11.659491, 67.750000
-32.385483, -11.659491, 67.875000
-32.202514, -11.593618, 68.000000
-32.019545, -11.527746, 68.125000
-32.019545, -11.527746, 68.250000
-32.019545, -11.527746, 68.375000
-31.836576, -11.461873, 68.500000
-31.836576, -11.461873, 68.625000
-31.836576, -11.461873, 68.750000
-31.653607, -11.396000, 68.875000
-31.653607, -11.396000, 69.000000
-31.653607, -11.396000, 69.125000
-31.653607, -11.396000, 69.250000
-31.470639, -11.330127, 69.375000
-31.287670, -11.264254, 69.500000
-31.104701, -11.198381, 69.625000
-30.738763, -11.066636, 69.750000
-30.189857, -10.869017, 69.875000
-29.823919, -10.737272, 70.000000
-29.640950, -10.671399, 70.125000
-29.457981, -10.605526, 70.250000
-29.457981, -10.605526, 70.375000
-29.092044, -10.473780, 70.500000
-29.092044, -10.473780, 70.625000
-29.092044, -10.473780, 70.750000
-28.909075, -10.407907, 70.875000
-28.909075, -10.407907, 71.000000
-28.726106, -10.342035, 71.125000
-28.726106, -10.342035, 71.250000
-28.726106, -10.342035, 71.375000
-28.543137, -10.276162, 71.500000
-28.360168, -10.210289, 71.625000
-28.360168, -10.210289, 71.750000
-28.177200, -10.144416, 71.875000
-28.360168, -10.210289, 72.000000
-28.177200, -10.144416, 72.125000
-27.994231, -10.078543, 72.250000
-27.811262, -10.012670, 72.375000
-27.811262, -10.012670, 72.500000
-27.445324, -9.880925, 72.625000
-27.262355, -9.815052, 72.750000
-27.262355, -9.815052, 72.875000
-27.079387, -9.749179, 73.000000
-26.896418, -9.683306, 73.125000
-26.713449, -9.617433, 73.250000
-26.713449, -9.617433, 73.375000
-26.347511, -9.485688, 73.500000
-26.347511, -9.485688, 73.625000
-26.347511, -9.485688, 73.750000
-26.164543, -9.419815, 73.875000
-25.981574, -9.353942, 74.000000
-26.164543, -9.419815, 74.125000
-25.798605, -9.288069, 74.250000
-25.615636, -9.222196, 74.375000
-25.615636, -9.222196, 74.500000
-25.615636, -9.222196, 74.625000
-25.615636, -9.222196, 74.750000
-25.615636, -9.222196, 74.875000
-25.798605, -9.288069, 75.000000
-25.615636, -9.222196, 75.125000
-25.798605, -9.288069, 75.250000
-25.798605, -9.288069, 75.375000
-25.981574, -9.353942, 75.500000
-25.981574, -9.353942, 75.625000
-26.164543, -9.419815, 75.750000
-26.164543, -9.419815, 75.875000
-26.347511, -9.485688, 76.000000
-26.530480, -9.551561, 76.125000
-26.713449, -9.617433, 76.250000
-26.713449, -9.617433, 76.375000
-26.896418, -9.683306, 76.500000
-27.079387, -9.749179, 76.625000
-27.079387, -9.749179, 76.750000
-27.262355, -9.815052, 76.875000
-27.628293, -9.946798, 77.000000
-27.811262, -10.012670, 77.125000
-27.811262, -10.012670, 77.250000
-27.994231, -10.078543, 77.375000
-28.177200, -10.144416, 77.500000
-28.360168, -10.210289, 77.625000
-28.543137, -10.276162, 77.750000
-28.909075, -10.407907, 77.875000
-28.909075, -10.407907, 78.000000
-29.275013, -10.539653, 78.125000
-29.275013, -10.539653, 78.250000
-29.457981, -10.605526, 78.375000
-29.457981, -10.605526, 78.500000
-29.823919, -10.737272, 78.625000
-30.006888, -10.803144, 78.750000
-30.189857, -10.869017, 78.875000
-30.372826, -10.934890, 79.000000
-30.555794, -11.000763, 79.125000
-30.738763, -11.066636, 79.250000
-31.104701, -11.198381, 79.375000
-31.104701, -11.198381, 79.500000
-31.287670, -11.264254, 79.625000
-31.470639, -11.330127, 79.750000
-31.653607, -11.396000, 79.875000
-31.836576, -11.461873, 80.000000
-32.019545, -11.527746, 80.125000
-32.202514, -11.593618, 80.250000
-32.385483, -11.659491, 80.375000
-32.568452, -11.725364, 80.500000
-32.751420, -11.791237, 80.625000
-33.117358, -11.922983, 80.750000
-33.117358, -11.922983, 80.875000
-33.300327, -11.988855, 81.000000
-33.483296, -12.054728, 81.125000
-33.666265, -12.120601, 81.250000
-33.666265, -12.120601, 81.375000
-33.666265, -12.120601, 81.500000
-33.849233, -12.186474, 81.625000
-34.032202, -12.252347, 81.750000
-34.032202, -12.252347, 81.875000
-34.215171, -12.318220, 82.000000
-34.032202, -12.252347, 82.125000
-23.866845, -9.449552, 22.625000
-24.228463, -9.592727, 22.750000
-24.590082, -9.735902, 22.875000
-24.409273, -9.664315, 23.000000
-24.590082, -9.735902, 23.125000
-24.770892, -9.807490, 23.250000
-24.951701, -9.879077, 23.375000
-25.132511, -9.950665, 23.500000
-25.132511, -9.950665, 23.625000
-25.313320, -10.022252, 23.750000
-25.494130, -10.093840, 23.875000
-25.674939, -10.165427, 24.000000
-25.674939, -10.165427, 24.125000
-26.036558, -10.308602, 24.250000
-26.036558, -10.308602, 24.375000
-26.398177, -10.451778, 24.500000
-26.578986, -10.523365, 24.625000
-26.578986, -10.523365, 24.750000
-26.759796, -10.594953, 24.875000
-26.759796, -10.594953, 25.000000
-26.940605, -10.666540, 25.125000
-27.121414, -10.738128, 25.250000
-27.302224, -10.809715, 25.375000
-27.483033, -10.881303, 25.500000
-27.663843, -10.952890, 25.625000
-27.844652, -11.024478, 25.750000
-27.844652, -11.024478, 25.875000
-28.025462, -11.096065, 26.000000
-28.206271, -11.167653, 26.125000
-28.206271, -11.167653, 26.250000
-28.206271, -11.167653, 26.375000
-28.567890, -11.310828, 26.500000
-28.567890, -11.310828, 26.625000
-28.748699, -11.382415, 26.750000
-28.748699, -11.382415, 26.875000
-28.929509, -11.454003, 27.000000
-29.110318, -11.525590, 27.125000
-29.291128, -11.597178, 27.250000
-29.471937, -11.668765, 27.375000
-29.471937, -11.668765, 27.500000
-29.471937, -11.668765, 27.625000
-29.652746, -11.740353, 27.750000
-29.833556, -11.811940, 27.875000
-29.833556, -11.811940, 28.000000
-30.014365, -11.883528, 28.125000
-30.195175, -11.955115, 28.250000
-30.195175, -11.955115, 28.375000
-30.375984, -12.026703, 28.500000
-30.556794, -12.098290, 28.625000
-30.556794, -12.098290, 28.750000
-30.737603, -12.169878, 28.875000
-30.737603, -12.169878, 29.000000
-30.918412, -12.241465, 29.125000
-30.918412, -12.241465, 29.250000
-31.099222, -12.313053, 29.375000
-31.099222, -12.313053, 29.500000
-31.280031, -12.384640, 29.625000
-31.280031, -12.384640, 29.750000
-31.460841, -12.456228, 29.875000
-31.641650, -12.527816, 30.000000
-31.641650, -12.527816, 30.125000
-31.822460, -12.599403, 30.250000
-31.822460, -12.599403, 30.375000
-32.003269, -12.670991, 30.500000
-32.003269, -12.670991, 30.625000
-32.184078, -12.742578, 30.750000
-32.184078, -12.742578, 30.875000
-32.364888, -12.814166, 31.000000
-32.364888, -12.814166, 31.125000
-32.545697, -12.885753, 31.250000
-32.545697, -12.885753, 31.375000
-32.726507, -12.957341, 31.500000
-32.726507, -12.957341, 31.625000
-32.907316, -13.028928, 31.750000
-32.907316, -13.028928, 31.875000
-33.088126, -13.100516, 32.000000
-33.088126, -13.100516, 32.125000
-33.088126, -13.100516, 32.250000
-33.268935, -13.172103, 32.375000
-33.268935, -13.172103, 32.500000
-33.449744, -13.243691, 32.625000
-33.449744, -13.243691, 32.750000
-33.630554, -13.315278, 32.875000
-33.811363, -13.386866, 33.000000
-33.811363, -13.386866, 33.125000
-33.811363, -13.386866, 33.250000
-33.992173, -13.458453, 33.375000
-33.992173, -13.458453, 33.500000
-33.992173, -13.458453, 33.625000
-34.172982, -13.530041, 33.750000
-34.172982, -13.530041, 33.875000
-34.172982, -13.530041, 34.000000
-34.353792, -13.601628, 34.125000
-34.353792, -13.601628, 34.250000
-34.534601, -13.673216, 34.375000
-34.534601, -13.673216, 34.500000
-34.715410, -13.744803, 34.625000
-34.715410, -13.744803, 34.750000
-34.715410, -13.744803, 34.875000
-34.896220, -13.816391, 35.000000
-34.896220, -13.816391, 35.125000
-35.077029, -13.887978, 35.250000
-35.077029, -13.887978, 35.375000
-35.077029, -13.887978, 35.500000
-35.257839, -13.959566, 35.625000
-35.257839, -13.959566, 35.750000
-35.257839, -13.959566, 35.875000
-35.438648, -14.031153, 36.000000
-35.438648, -14.031153, 36.125000
-35.619458, -14.102741, 36.250000
-35.619458, -14.102741, 36.375000
-35.619458, -14.102741, 36.500000
-35.800267, -14.174328, 36.625000
-35.800267, -14.174328, 36.750000
-35.800267, -14.174328, 36.875000
-35.981076, -14.245916, 37.000000
-35.981076, -14.245916, 37.125000
-35.981076, -14.245916, 37.250000
-35.981076, -14.245916, 37.375000
-36.161886, -14.317503, 37.500000
-36.161886, -14.317503, 37.625000
-36.342695, -14.389091, 37.750000
-36.342695, -14.389091, 37.875000
-36.342695, -14.389091, 38.000000
-36.523505, -14.460678, 38.125000
-36.523505, -14.460678, 38.250000
-36.523505, -14.460678, 38.375000
-36.523505, -14.460678, 38.500000
-36.704314, -14.532266, 38.625000
-36.704314, -14.532266, 38.750000
-36.704314, -14.532266, 38.875000
-36.885124, -14.603854, 39.000000
-36.885124, -14.603854, 39.125000
-36.885124, -14.603854, 39.250000
-36.885124, -14.603854, 39.375000
-36.885124, -14.603854, 39.500000
-37.065933, -14.675441, 39.625000
-37.065933, -14.675441, 39.750000
-37.065933, -14.675441, 39.875000
-37.065933, -14.675441, 40.000000
-37.065933, -14.675441, 40.125000
-37.065933, -14.675441, 40.250000
-37.246742, -14.747029, 40.375000
-37.246742, -14.747029, 40.500000
-37.246742, -14.747029, 40.625000
-37.427552, -14.818616, 40.750000
-37.427552, -14.818616, 40.875000
-37.427552, -14.818616, 41.000000
-37.427552, -14.818616, 41.125000
-37.608361, -14.890204, 41.250000
-37.608361, -14.890204, 41.375000
-37.608361, -14.890204, 41.500000
-37.608361, -14.890204, 41.625000
-37.608361, -14.890204, 41.750000
-37.969980, -15.033379, 41.875000
-37.789171, -14.961791, 42.000000
-37.789171, -14.961791, 42.125000
-37.789171, -14.961791, 42.250000
-37.789171, -14.961791, 42.375000
-37.789171, -14.961791, 42.500000
-37.969980, -15.033379, 42.625000
-37.969980, -15.033379, 42.750000
-37.969980, -15.033379, 42.875000
-37.969980, -15.033379, 43.000000
-37.969980, -15.033379, 43.125000
-38.150790, -15.104966, 43.250000
-38.150790, -15.104966, 43.375000
-38.150790, -15.104966, 43.500000
-38.150790, -15.104966, 43.625000
-38.331599, -15.176554, 43.750000
-38.331599, -15.176554, 43.875000
-38.331599, -15.176554, 44.000000
-38.331599, -15.176554, 44.125000
-38.331599, -15.176554, 44.250000
-38.331599, -15.176554, 44.375000
-38.331599, -15.176554, 44.500000
-38.331599, -15.176554, 44.625000
-38.331599, -15.176554, 44.750000
-38.512408, -15.248141, 44.875000
-38.512408, -15.248141, 45.000000
-38.512408, -15.248141, 45.125000
-38.512408, -15.248141, 45.250000
-38.512408, -15.248141, 45.375000
-38.693218, -15.319729, 45.500000
-38.512408, -15.248141, 45.625000
-38.512408, -15.248141, 45.750000
-38.512408, -15.248141, 45.875000
-38.693218, -15.319729, 46.000000
-38.693218, -15.319729, 46.125000
-38.693218, -15.319729, 46.250000
-38.693218, -15.319729, 46.375000
-38.693218, -15.319729, 46.500000
-38.693218, -15.319729, 46.625000
-38.693218, -15.319729, 46.750000
-38.693218, -15.319729, 46.875000
-38.693218, -15.319729, 47.000000
-38.693218, -15.319729, 47.125000
-38.693218, -15.319729, 47.250000
-38.693218, -15.319729, 47.375000
-38.693218, -15.319729, 47.500000
-38.693218, -15.319729, 47.625000
-38.693218, -15.319729, 47.750000
-38.874027, -15.391316, 47.875000
-38.874027, -15.391316, 48.000000
-38.874027, -15.391316, 48.125000
-38.874027, -15.391316, 48.250000
-38.874027, -15.391316, 48.375000
-38.874027, -15.391316, 48.500000
-38.874027, -15.391316, 48.625000
