6.734320, -2.914200, 20.250000
6.734320, -2.914200, 20.375000
6.850429, -2.964445, 20.500000
6.966538, -3.014690, 20.625000
6.966538, -3.014690, 20.750000
6.966538, -3.014690, 20.875000
7.082647, -3.064935, 21.000000
7.082647, -3.064935, 21.125000
7.198756, -3.115180, 21.250000
7.198756, -3.115180, 21.375000
7.198756, -3.115180, 21.500000
7.198756, -3.115180, 21.625000
7.314865, -3.165425, 21.750000
7.314865, -3.165425, 21.875000
7.430974, -3.215669, 22.000000
7.430974, -3.215669, 22.125000
7.430974, -3.215669, 22.250000
7.547083, -3.265914, 22.375000
7.547083, -3.265914, 22.500000
7.547083, -3.265914, 22.625000
7.663192, -3.316159, 22.750000
7.779301, -3.366404, 22.875000
7.663192, -3.316159, 23.000000
7.779301, -3.366404, 23.125000
7.779301, -3.366404, 23.250000
7.895410, -3.416649, 23.375000
8.011519, -3.466894, 23.500000
8.011519, -3.466894, 23.625000
7.895410, -3.416649, 23.750000
8.011519, -3.466894, 23.875000
8.011519, -3.466894, 24.000000
8.127627, -3.517138, 24.125000
8.243736, -3.567383, 24.250000
8.243736, -3.567383, 24.375000
8.243736, -3.567383, 24.500000
8.243736, -3.567383, 24.625000
8.359845, -3.617628, 24.750000
8.359845, -3.617628, 24.875000
8.475954, -3.667873, 25.000000
8.475954, -3.667873, 25.125000
8.475954, -3.667873, 25.250000
8.592063, -3.718118, 25.375000
8.592063, -3.718118, 25.500000
8.592063, -3.718118, 25.625000
8.708172, -3.768363, 25.750000
8.708172, -3.768363, 25.875000
8.708172, -3.768363, 26.000000
8.708172, -3.768363, 26.125000
8.824281, -3.818607, 26.250000
8.824281, -3.818607, 26.375000
8.824281, -3.818607, 26.500000
8.940390, -3.868852, 26.625000
9.056499, -3.919097, 26.750000
8.940390, -3.868852, 26.875000
9.056499, -3.919097, 27.000000
9.056499, -3.919097, 27.125000
9.056499, -3.919097, 27.250000
9.172608, -3.969342, 27.375000
9.172608, -3.969342, 27.500000
9.288717, -4.019587, 27.625000
9.288717, -4.019587, 27.750000
9.172608, -3.969342, 27.875000
9.288717, -4.019587, 28.000000
9.288717, -4.019587, 28.125000
9.288717, -4.019587, 28.250000
9.404826, -4.069832, 28.375000
9.288717, -4.019587, 28.500000
9.520935, -4.120077, 28.625000
9.520935, -4.120077, 28.750000
9.520935, -4.120077, 28.875000
9.520935, -4.120077, 29.000000
9.520935, -4.120077, 29.125000
9.520935, -4.120077, 29.250000
9.637044, -4.170321, 29.375000
9.637044, -4.170321, 29.500000
9.637044, -4.170321, 29.625000
9.753153, -4.220566, 29.750000
9.753153, -4.220566, 29.875000
9.753153, -4.220566, 30.000000
9.637044, -4.170321, 30.125000
9.753153, -4.220566, 30.250000
9.869262, -4.270811, 30.375000
9.869262, -4.270811, 30.500000
9.869262, -4.270811, 30.625000
9.869262, -4.270811, 30.750000
9.869262, -4.270811, 30.875000
9.985371, -4.321056, 31.000000
9.985371, -4.321056, 31.125000
9.985371, -4.321056, 31.250000
9.985371, -4.321056, 31.375000
9.985371, -4.321056, 31.500000
10.101480, -4.371301, 31.625000
10.101480, -4.371301, 31.750000
9.985371, -4.321056, 31.875000
10.101480, -4.371301, 32.000000
10.101480, -4.371301, 32.125000
10.217589, -4.421546, 32.250000
10.217589, -4.421546, 32.375000
10.333698, -4.471790, 32.500000
10.217589, -4.421546, 32.625000
10.217589, -4.421546, 32.750000
10.217589, -4.421546, 32.875000
10.333698, -4.471790, 33.000000
10.333698, -4.471790, 33.125000
10.333698, -4.471790, 33.250000
10.333698, -4.471790, 33.375000
10.333698, -4.471790, 33.500000
10.333698, -4.471790, 33.625000
10.449807, -4.522035, 33.750000
10.449807, -4.522035, 33.875000
10.449807, -4.522035, 34.000000
10.449807, -4.522035, 34.125000
10.565916, -4.572280, 34.250000
10.449807, -4.522035, 34.375000
10.449807, -4.522035, 34.500000
10.449807, -4.522035, 34.625000
10.682025, -4.622525, 34.750000
10.682025, -4.622525, 34.875000
10.565916, -4.572280, 35.000000
10.565916, -4.572280, 35.125000
10.682025, -4.622525, 35.250000
10.682025, -4.622525, 35.375000
10.682025, -4.622525, 35.500000
10.682025, -4.622525, 35.625000
10.682025, -4.622525, 35.750000
10.798134, -4.672770, 35.875000
10.798134, -4.672770, 36.000000
10.798134, -4.672770, 36.125000
10.798134, -4.672770, 36.250000
10.798134, -4.672770, 36.375000
10.798134, -4.672770, 36.500000
10.798134, -4.672770, 36.625000
10.798134, -4.672770, 36.750000
10.798134, -4.672770, 36.875000
10.914243, -4.723015, 37.000000
10.798134, -4.672770, 37.125000
10.914243, -4.723015, 37.250000
10.914243, -4.723015, 37.375000
10.914243, -4.723015, 37.500000
10.914243, -4.723015, 37.625000
10.914243, -4.723015, 37.750000
10.914243, -4.723015, 37.875000
10.914243, -4.723015, 38.000000
11.030352, -4.773259, 38.125000
10.914243, -4.723015, 38.250000
10.914243, -4.723015, 38.375000
11.030352, -4.773259, 38.500000
11.030352, -4.773259, 38.625000
11.030352, -4.773259, 38.750000
11.030352, -4.773259, 38.875000
11.030352, -4.773259, 39.000000
11.030352, -4.773259, 39.125000
11.262570, -4.873749, 39.250000
11.146461, -4.823504, 39.375000
11.030352, -4.773259, 39.500000
11.262570, -4.873749, 39.625000
11.146461, -4.823504, 39.750000
11.146461, -4.823504, 39.875000
11.146461, -4.823504, 40.000000
11.262570, -4.873749, 40.125000
11.262570, -4.873749, 40.250000
11.146461, -4.823504, 40.375000
11.146461, -4.823504, 40.500000
11.146461, -4.823504, 40.625000
11.146461, -4.823504, 40.750000
11.146461, -4.823504, 40.875000
11.262570, -4.873749, 41.000000
11.146461, -4.823504, 41.125000
11.262570, -4.873749, 41.250000
11.262570, -4.873749, 41.375000
11.262570, -4.873749, 41.500000
11.262570, -4.873749, 41.625000
11.262570, -4.873749, 41.750000
11.378678, -4.923994, 41.875000
11.262570, -4.873749, 42.000000
11.378678, -4.923994, 42.125000
11.378678, -4.923994, 42.250000
11.262570, -4.873749, 42.375000
11.262570, -4.873749, 42.500000
11.262570, -4.873749, 42.625000
11.262570, -4.873749, 42.750000
11.262570, -4.873749, 42.875000
11.262570, -4.873749, 43.000000
11.262570, -4.873749, 43.125000
11.262570, -4.873749, 43.250000
11.262570, -4.873749, 43.375000
11.378678, -4.923994, 43.500000
11.262570, -4.873749, 43.625000
11.146461, -4.823504, 43.750000
11.262570, -4.873749, 43.875000
11.262570, -4.873749, 44.000000
11.378678, -4.923994, 44.125000
11.262570, -4.873749, 44.250000
11.262570, -4.873749, 44.375000
11.262570, -4.873749, 44.500000
11.262570, -4.873749, 44.625000
11.262570, -4.873749, 44.750000
11.262570, -4.873749, 44.875000
11.262570, -4.873749, 45.000000
11.262570, -4.873749, 45.125000
11.262570, -4.873749, 45.250000
11.262570, -4.873749, 45.375000
11.262570, -4.873749, 45.500000
11.262570, -4.873749, 45.625000
11.262570, -4.873749, 45.750000
11.262570, -4.873749, 45.875000
11.262570, -4.873749, 46.000000
11.262570, -4.873749, 46.125000
11.262570, -4.873749, 46.250000
11.262570, -4.873749, 46.375000
11.262570, -4.873749, 46.500000
11.262570, -4.873749, 46.625000
11.262570, -4.873749, 46.750000
11.262570, -4.873749, 46.875000
11.262570, -4.873749, 47.000000
11.262570, -4.873749, 47.125000
11.146461, -4.823504, 47.250000
11.146461, -4.823504, 47.375000
11.262570, -4.873749, 47.500000
11.262570, -4.873749, 47.625000
11.262570, -4.873749, 47.750000
11.146461, -4.823504, 47.875000
11.146461, -4.823504, 48.000000
11.146461, -4.823504, 48.125000
11.146461, -4.823504, 48.250000
11.146461, -4.823504, 48.375000
11.146461, -4.823504, 48.500000
11.146461, -4.823504, 48.625000
11.146461, -4.823504, 48.750000
11.146461, -4.823504, 48.875000
11.146461, -4.823504, 49.000000
11.146461, -4.823504, 49.125000
11.030352, -4.773259, 49.250000
11.146461, -4.823504, 49.375000
11.146461, -4.823504, 49.500000
11.146461, -4.823504, 49.625000
11.030352, -4.773259, 49.750000
11.030352, -4.773259, 49.875000
11.030352, -4.773259, 50.000000
11.030352, -4.773259, 50.125000
11.146461, -4.823504, 50.250000
11.030352, -4.773259, 50.375000
11.030352, -4.773259, 50.500000
11.030352, -4.773259, 50.625000
10.914243, -4.723015, 50.750000
10.914243, -4.723015, 50.875000
11.030352, -4.773259, 51.000000
11.030352, -4.773259, 51.125000
10.914243, -4.723015, 51.250000
10.914243, -4.723015, 51.375000
10.914243, -4.723015, 51.500000
11.030352, -4.773259, 51.625000
10.798134, -4.672770, 51.750000
10.914243, -4.723015, 51.875000
10.914243, -4.723015, 52.000000
10.914243, -4.723015, 52.125000
10.798134, -4.672770, 52.250000
10.798134, -4.672770, 52.375000
10.798134, -4.672770, 52.500000
10.798134, -4.672770, 52.625000
10.798134, -4.672770, 52.750000
10.798134, -4.672770, 52.875000
10.682025, -4.622525, 53.000000
10.798134, -4.672770, 53.125000
10.682025, -4.622525, 53.250000
10.682025, -4.622525, 53.375000
10.682025, -4.622525, 53.500000
10.682025, -4.622525, 53.625000
10.682025, -4.622525, 53.750000
10.682025, -4.622525, 53.875000
10.565916, -4.572280, 54.000000
10.565916, -4.572280, 54.125000
10.565916, -4.572280, 54.250000
10.565916, -4.572280, 54.375000
10.565916, -4.572280, 54.500000
10.565916, -4.572280, 54.625000
10.449807, -4.522035, 54.750000
10.449807, -4.522035, 54.875000
10.449807, -4.522035, 55.000000
10.449807, -4.522035, 55.125000
10.333698, -4.471790, 55.250000
10.449807, -4.522035, 55.375000
10.333698, -4.471790, 55.500000
10.333698, -4.471790, 55.625000
10.333698, -4.471790, 55.750000
10.217589, -4.421546, 55.875000
10.217589, -4.421546, 56.000000
10.217589, -4.421546, 56.125000
10.101480, -4.371301, 56.250000
10.217589, -4.421546, 56.375000
10.217589, -4.421546, 56.500000
10.101480, -4.371301, 56.625000
9.985371, -4.321056, 56.750000
9.985371, -4.321056, 56.875000
9.985371, -4.321056, 57.000000
9.985371, -4.321056, 57.125000
9.985371, -4.321056, 57.250000
9.869262, -4.270811, 57.375000
9.985371, -4.321056, 57.500000
9.869262, -4.270811, 57.625000
9.753153, -4.220566, 57.750000
9.753153, -4.220566, 57.875000
9.869262, -4.270811, 58.000000
9.753153, -4.220566, 58.125000
9.753153, -4.220566, 58.250000
9.637044, -4.170321, 58.375000
9.637044, -4.170321, 58.500000
9.520935, -4.120077, 58.625000
9.520935, -4.120077, 58.750000
9.520935, -4.120077, 58.875000
9.404826, -4.069832, 59.000000
9.404826, -4.069832, 59.125000
9.404826, -4.069832, 59.250000
9.404826, -4.069832, 59.375000
9.288717, -4.019587, 59.500000
9.288717, -4.019587, 59.625000
9.288717, -4.019587, 59.750000
9.056499, -3.919097, 59.875000
9.056499, -3.919097, 60.000000
9.056499, -3.919097, 60.125000
8.824281, -3.818607, 60.250000
8.824281, -3.818607, 60.375000
8.824281, -3.818607, 60.500000
8.824281, -3.818607, 60.625000
8.708172, -3.768363, 60.750000
8.592063, -3.718118, 60.875000
8.475954, -3.667873, 61.000000
8.475954, -3.667873, 61.125000
8.359845, -3.617628, 61.250000
8.359845, -3.617628, 61.375000
8.359845, -3.617628, 61.500000
8.127627, -3.517138, 61.625000
8.243736, -3.567383, 61.750000
8.127627, -3.517138, 61.875000
8.011519, -3.466894, 62.000000
8.127627, -3.517138, 62.125000
7.895410, -3.416649, 62.250000
7.895410, -3.416649, 62.375000
7.895410, -3.416649, 62.500000
7.663192, -3.316159, 62.625000
7.663192, -3.316159, 62.750000
7.663192, -3.316159, 62.875000
7.547083, -3.265914, 63.000000
7.547083, -3.265914, 63.125000
7.430974, -3.215669, 63.250000
7.314865, -3.165425, 63.375000
7.314865, -3.165425, 63.500000
7.314865, -3.165425, 63.625000
7.198756, -3.115180, 63.750000
7.198756, -3.115180, 63.875000
7.198756, -3.115180, 64.000000
7.082647, -3.064935, 64.125000
7.198756, -3.115180, 64.250000
7.082647, -3.064935, 64.375000
7.082647, -3.064935, 64.500000
6.966538, -3.014690, 64.625000
6.850429, -2.964445, 64.750000
6.734320, -2.914200, 64.875000
6.618211, -2.863956, 65.000000
6.618211, -2.863956, 65.125000
6.618211, -2.863956, 65.250000
6.618211, -2.863956, 65.375000
6.502102, -2.813711, 65.500000
6.385993, -2.763466, 65.625000
6.385993, -2.763466, 65.750000
6.269884, -2.713221, 65.875000
6.269884, -2.713221, 66.000000
6.153775, -2.662976, 66.125000
6.153775, -2.662976, 66.250000
6.153775, -2.662976, 66.375000
6.037666, -2.612731, 66.500000
6.037666, -2.612731, 66.625000
6.037666, -2.612731, 66.750000
5.921557, -2.562487, 66.875000
5.805448, -2.512242, 67.000000
5.805448, -2.512242, 67.125000
5.689339, -2.461997, 67.250000
5.689339, -2.461997, 67.375000
5.689339, -2.461997, 67.500000
5.573230, -2.411752, 67.625000
5.573230, -2.411752, 67.750000
5.573230, -2.411752, 67.875000
5.573230, -2.411752, 68.000000
5.457121, -2.361507, 68.125000
5.457121, -2.361507, 68.250000
5.573230, -2.411752, 68.375000
5.457121, -2.361507, 68.500000
5.457121, -2.361507, 68.625000
5.457121, -2.361507, 68.750000
5.573230, -2.411752, 68.875000
5.573230, -2.411752, 69.000000
5.573230, -2.411752, 69.125000
5.573230, -2.411752, 69.250000
5.689339, -2.461997, 69.375000
5.805448, -2.512242, 69.500000
5.805448, -2.512242, 69.625000
5.921557, -2.562487, 69.750000
6.037666, -2.612731, 69.875000
6.153775, -2.662976, 70.000000
6.037666, -2.612731, 70.125000
6.153775, -2.662976, 70.250000
6.153775, -2.662976, 70.375000
6.153775, -2.662976, 70.500000
6.269884, -2.713221, 70.625000
6.385993, -2.763466, 70.750000
6.502102, -2.813711, 70.875000
6.502102, -2.813711, 71.000000
6.618211, -2.863956, 71.125000
6.734320, -2.914200, 71.250000
6.850429, -2.964445, 71.375000
6.966538, -3.014690, 71.500000
7.082647, -3.064935, 71.625000
7.082647, -3.064935, 71.750000
7.198756, -3.115180, 71.875000
7.314865, -3.165425, 72.000000
7.314865, -3.165425, 72.125000
7.430974, -3.215669, 72.250000
7.547083, -3.265914, 72.375000
7.547083, -3.265914, 72.500000
7.779301, -3.366404, 72.625000
7.895410, -3.416649, 72.750000
7.895410, -3.416649, 72.875000
8.011519, -3.466894, 73.000000
8.127627, -3.517138, 73.125000
8.243736, -3.567383, 73.250000
8.243736, -3.567383, 73.375000
8.359845, -3.617628, 73.500000
8.475954, -3.667873, 73.625000
8.708172, -3.768363, 73.750000
8.592063, -3.718118, 73.875000
8.708172, -3.768363, 74.000000
8.940390, -3.868852, 74.125000
8.940390, -3.868852, 74.250000
8.940390, -3.868852, 74.375000
9.056499, -3.919097, 74.500000
9.172608, -3.969342, 74.625000
9.172608, -3.969342, 74.750000
9.288717, -4.019587, 74.875000
9.404826, -4.069832, 75.000000
9.404826, -4.069832, 75.125000
9.520935, -4.120077, 75.250000
9.753153, -4.220566, 75.375000
9.637044, -4.170321, 75.500000
9.637044, -4.170321, 75.625000
9.637044, -4.170321, 75.750000
9.637044, -4.170321, 75.875000
9.637044, -4.170321, 76.000000
9.869262, -4.270811, 76.125000
3.058377, -1.210897, 13.625000
3.411267, -1.350616, 13.750000
3.411267, -1.350616, 13.875000
3.058377, -1.210897, 14.000000
3.411267, -1.350616, 14.125000
3.293637, -1.304043, 14.250000
3.528897, -1.397189, 14.375000
3.764157, -1.490335, 14.500000
3.646527, -1.443762, 14.625000
3.881787, -1.536908, 14.750000
3.881787, -1.536908, 14.875000
4.234676, -1.676627, 15.000000
3.999417, -1.583481, 15.125000
4.117046, -1.630054, 15.250000
4.352306, -1.723200, 15.375000
4.352306, -1.723200, 15.500000
4.587566, -1.816346, 15.625000
4.469936, -1.769773, 15.750000
4.705196, -1.862919, 15.875000
4.822826, -1.909492, 16.000000
4.822826, -1.909492, 16.125000
4.940456, -1.956065, 16.250000
5.058086, -2.002638, 16.375000
5.175716, -2.049211, 16.500000
5.175716, -2.049211, 16.625000
5.293345, -2.095784, 16.750000
5.293345, -2.095784, 16.875000
5.410975, -2.142357, 17.000000
5.410975, -2.142357, 17.125000
5.528605, -2.188930, 17.250000
5.528605, -2.188930, 17.375000
5.646235, -2.235503, 17.500000
5.646235, -2.235503, 17.625000
5.763865, -2.282076, 17.750000
5.881495, -2.328649, 17.875000
5.999125, -2.375222, 18.000000
5.999125, -2.375222, 18.125000
6.116755, -2.421795, 18.250000
6.116755, -2.421795, 18.375000
6.234385, -2.468368, 18.500000
6.234385, -2.468368, 18.625000
6.234385, -2.468368, 18.750000
6.234385, -2.468368, 18.875000
6.352015, -2.514940, 19.000000
6.469644, -2.561513, 19.125000
6.469644, -2.561513, 19.250000
6.587274, -2.608086, 19.375000
6.587274, -2.608086, 19.500000
6.704904, -2.654659, 19.625000
6.704904, -2.654659, 19.750000
6.704904, -2.654659, 19.875000
6.940164, -2.747805, 20.000000
6.822534, -2.701232, 20.125000
6.940164, -2.747805, 20.250000
7.057794, -2.794378, 20.375000
7.057794, -2.794378, 20.500000
7.057794, -2.794378, 20.625000
7.057794, -2.794378, 20.750000
7.057794, -2.794378, 20.875000
7.293054, -2.887524, 21.000000
7.175424, -2.840951, 21.125000
7.293054, -2.887524, 21.250000
7.293054, -2.887524, 21.375000
7.293054, -2.887524, 21.500000
7.410684, -2.934097, 21.625000
7.410684, -2.934097, 21.750000
7.528314, -2.980670, 21.875000
7.645943, -3.027243, 22.000000
7.645943, -3.027243, 22.125000
7.645943, -3.027243, 22.250000
7.763573, -3.073816, 22.375000
7.763573, -3.073816, 22.500000
7.763573, -3.073816, 22.625000
7.763573, -3.073816, 22.750000
7.998833, -3.166962, 22.875000
7.881203, -3.120389, 23.000000
7.998833, -3.166962, 23.125000
7.998833, -3.166962, 23.250000
8.116463, -3.213535, 23.375000
8.116463, -3.213535, 23.500000
8.116463, -3.213535, 23.625000
8.116463, -3.213535, 23.750000
8.234093, -3.260108, 23.875000
8.234093, -3.260108, 24.000000
8.234093, -3.260108, 24.125000
8.351723, -3.306681, 24.250000
8.351723, -3.306681, 24.375000
8.351723, -3.306681, 24.500000
8.469353, -3.353254, 24.625000
8.586983, -3.399827, 24.750000
8.586983, -3.399827, 24.875000
8.586983, -3.399827, 25.000000
8.586983, -3.399827, 25.125000
8.704613, -3.446400, 25.250000
8.822242, -3.492973, 25.375000
8.704613, -3.446400, 25.500000
8.704613, -3.446400, 25.625000
8.822242, -3.492973, 25.750000
8.939872, -3.539546, 25.875000
8.822242, -3.492973, 26.000000
8.939872, -3.539546, 26.125000
9.057502, -3.586119, 26.250000
8.939872, -3.539546, 26.375000
9.057502, -3.586119, 26.500000
9.057502, -3.586119, 26.625000
9.057502, -3.586119, 26.750000
9.057502, -3.586119, 26.875000
9.057502, -3.586119, 27.000000
9.175132, -3.632692, 27.125000
9.175132, -3.632692, 27.250000
9.175132, -3.632692, 27.375000
9.292762, -3.679265, 27.500000
9.292762, -3.679265, 27.625000
9.292762, -3.679265, 27.750000
9.410392, -3.725838, 27.875000
9.410392, -3.725838, 28.000000
9.528022, -3.772411, 28.125000
9.528022, -3.772411, 28.250000
9.528022, -3.772411, 28.375000
9.528022, -3.772411, 28.500000
9.645652, -3.818984, 28.625000
9.645652, -3.818984, 28.750000
9.645652, -3.818984, 28.875000
9.763282, -3.865557, 29.000000
9.763282, -3.865557, 29.125000
9.763282, -3.865557, 29.250000
9.763282, -3.865557, 29.375000
9.763282, -3.865557, 29.500000
9.763282, -3.865557, 29.625000
9.763282, -3.865557, 29.750000
9.880912, -3.912130, 29.875000
9.880912, -3.912130, 30.000000
9.880912, -3.912130, 30.125000
9.998541, -3.958703, 30.250000
9.998541, -3.958703, 30.375000
9.998541, -3.958703, 30.500000
9.998541, -3.958703, 30.625000
10.116171, -4.005276, 30.750000
10.116171, -4.005276, 30.875000
10.116171, -4.005276, 31.000000
10.116171, -4.005276, 31.125000
10.116171, -4.005276, 31.250000
10.233801, -4.051849, 31.375000
10.233801, -4.051849, 31.500000
10.233801, -4.051849, 31.625000
10.233801, -4.051849, 31.750000
10.233801, -4.051849, 31.875000
10.351431, -4.098422, 32.000000
10.351431, -4.098422, 32.125000
10.351431, -4.098422, 32.250000
10.351431, -4.098422, 32.375000
10.351431, -4.098422, 32.500000
10.469061, -4.144995, 32.625000
10.469061, -4.144995, 32.750000
10.586691, -4.191567, 32.875000
10.586691, -4.191567, 33.000000
10.469061, -4.144995, 33.125000
10.469061, -4.144995, 33.250000
10.469061, -4.144995, 33.375000
10.469061, -4.144995, 33.500000
10.586691, -4.191567, 33.625000
10.586691, -4.191567, 33.750000
10.586691, -4.191567, 33.875000
10.586691, -4.191567, 34.000000
10.704321, -4.238140, 34.125000
10.704321, -4.238140, 34.250000
10.704321, -4.238140, 34.375000
10.704321, -4.238140, 34.500000
10.821951, -4.284713, 34.625000
10.704321, -4.238140, 34.750000
10.821951, -4.284713, 34.875000
10.821951, -4.284713, 35.000000
10.821951, -4.284713, 35.125000
10.821951, -4.284713, 35.250000
10.821951, -4.284713, 35.375000
10.939581, -4.331286, 35.500000
10.821951, -4.284713, 35.625000
10.821951, -4.284713, 35.750000
10.939581, -4.331286, 35.875000
10.939581, -4.331286, 36.000000
10.939581, -4.331286, 36.125000
10.939581, -4.331286, 36.250000
10.939581, -4.331286, 36.375000
10.939581, -4.331286, 36.500000
11.057211, -4.377859, 36.625000
10.939581, -4.331286, 36.750000
11.057211, -4.377859, 36.875000
11.057211, -4.377859, 37.000000
11.057211, -4.377859, 37.125000
11.057211, -4.377859, 37.250000
11.057211, -4.377859, 37.375000
11.057211, -4.377859, 37.500000
11.057211, -4.377859, 37.625000
11.057211, -4.377859, 37.750000
11.174840, -4.424432, 37.875000
11.174840, -4.424432, 38.000000
11.174840, -4.424432, 38.125000
11.174840, -4.424432, 38.250000
11.174840, -4.424432, 38.375000
11.174840, -4.424432, 38.500000
11.174840, -4.424432, 38.625000
11.174840, -4.424432, 38.750000
11.174840, -4.424432, 38.875000
11.174840, -4.424432, 39.000000
11.174840, -4.424432, 39.125000
11.174840, -4.424432, 39.250000
11.174840, -4.424432, 39.375000
11.292470, -4.471005, 39.500000
11.292470, -4.471005, 39.625000
11.292470, -4.471005, 39.750000
11.292470, -4.471005, 39.875000
11.410100, -4.517578, 40.000000
11.292470, -4.471005, 40.125000
11.292470, -4.471005, 40.250000
11.292470, -4.471005, 40.375000
11.410100, -4.517578, 40.500000
11.410100, -4.517578, 40.625000
11.410100, -4.517578, 40.750000
11.410100, -4.517578, 40.875000
11.410100, -4.517578, 41.000000
11.410100, -4.517578, 41.125000
11.410100, -4.517578, 41.250000
11.410100, -4.517578, 41.375000
11.410100, -4.517578, 41.500000
11.410100, -4.517578, 41.625000
11.410100, -4.517578, 41.750000
11.410100, -4.517578, 41.875000
11.410100, -4.517578, 42.000000
11.410100, -4.517578, 42.125000
11.410100, -4.517578, 42.250000
11.410100, -4.517578, 42.375000
11.410100, -4.517578, 42.500000
11.527730, -4.564151, 42.625000
11.410100, -4.517578, 42.750000
11.410100, -4.517578, 42.875000
11.527730, -4.564151, 43.000000
11.527730, -4.564151, 43.125000
11.527730, -4.564151, 43.250000
11.410100, -4.517578, 43.375000
11.527730, -4.564151, 43.500000
11.410100, -4.517578, 43.625000
11.410100, -4.517578, 43.750000
11.527730, -4.564151, 43.875000
11.527730, -4.564151, 44.000000
11.645360, -4.610724, 44.125000
11.527730, -4.564151, 44.250000
11.410100, -4.517578, 44.375000
11.410100, -4.517578, 44.500000
11.410100, -4.517578, 44.625000
11.410100, -4.517578, 44.750000
11.410100, -4.517578, 44.875000
11.527730, -4.564151, 45.000000
11.527730, -4.564151, 45.125000
11.527730, -4.564151, 45.250000
11.410100, -4.517578, 45.375000
11.410100, -4.517578, 45.500000
11.410100, -4.517578, 45.625000
11.410100, -4.517578, 45.750000
11.410100, -4.517578, 45.875000
11.527730, -4.564151, 46.000000
11.527730, -4.564151, 46.125000
11.410100, -4.517578, 46.250000
11.410100, -4.517578, 46.375000
11.410100, -4.517578, 46.500000
11.410100, -4.517578, 46.625000
11.410100, -4.517578, 46.750000
11.527730, -4.564151, 46.875000
11.410100, -4.517578, 47.000000
11.410100, -4.517578, 47.125000
11.410100, -4.517578, 47.250000
11.410100, -4.517578, 47.375000
11.410100, -4.517578, 47.500000
11.410100, -4.517578, 47.625000
11.292470, -4.471005, 47.750000
11.410100, -4.517578, 47.875000
11.527730, -4.564151, 48.000000
11.410100, -4.517578, 48.125000
11.292470, -4.471005, 48.250000
11.292470, -4.471005, 48.375000
11.527730, -4.564151, 48.500000
11.292470, -4.471005, 48.625000
11.292470, -4.471005, 48.750000
11.410100, -4.517578, 48.875000
11.292470, -4.471005, 49.000000
11.292470, -4.471005, 49.125000
11.292470, -4.471005, 49.250000
11.292470, -4.471005, 49.375000
11.292470, -4.471005, 49.500000
11.292470, -4.471005, 49.625000
11.174840, -4.424432, 49.750000
11.174840, -4.424432, 49.875000
11.292470, -4.471005, 50.000000
11.292470, -4.471005, 50.125000
11.174840, -4.424432, 50.250000
11.174840, -4.424432, 50.375000
11.174840, -4.424432, 50.500000
11.174840, -4.424432, 50.625000
11.174840, -4.424432, 50.750000
11.174840, -4.424432, 50.875000
11.174840, -4.424432, 51.000000
11.174840, -4.424432, 51.125000
11.174840, -4.424432, 51.250000
11.174840, -4.424432, 51.375000
11.057211, -4.377859, 51.500000
11.174840, -4.424432, 51.625000
11.057211, -4.377859, 51.750000
11.057211, -4.377859, 51.875000
11.057211, -4.377859, 52.000000
11.057211, -4.377859, 52.125000
11.057211, -4.377859, 52.250000
10.939581, -4.331286, 52.375000
11.057211, -4.377859, 52.500000
10.821951, -4.284713, 52.625000
10.821951, -4.284713, 52.750000
10.821951, -4.284713, 52.875000
10.939581, -4.331286, 53.000000
10.821951, -4.284713, 53.125000
10.821951, -4.284713, 53.250000
10.821951, -4.284713, 53.375000
10.939581, -4.331286, 53.500000
10.939581, -4.331286, 53.625000
10.821951, -4.284713, 53.750000
10.821951, -4.284713, 53.875000
10.704321, -4.238140, 54.000000
10.821951, -4.284713, 54.125000
10.704321, -4.238140, 54.250000
10.704321, -4.238140, 54.375000
10.704321, -4.238140, 54.500000
10.586691, -4.191567, 54.625000
10.586691, -4.191567, 54.750000
10.586691, -4.191567, 54.875000
10.586691, -4.191567, 55.000000
10.469061, -4.144995, 55.125000
10.586691, -4.191567, 55.250000
10.469061, -4.144995, 55.375000
10.586691, -4.191567, 55.500000
10.586691, -4.191567, 55.625000
10.469061, -4.144995, 55.750000
10.469061, -4.144995, 55.875000
10.469061, -4.144995, 56.000000
10.351431, -4.098422, 56.125000
10.351431, -4.098422, 56.250000
10.233801, -4.051849, 56.375000
10.233801, -4.051849, 56.500000
10.233801, -4.051849, 56.625000
10.233801, -4.051849, 56.750000
10.233801, -4.051849, 56.875000
10.233801, -4.051849, 57.000000
10.233801, -4.051849, 57.125000
10.116171, -4.005276, 57.250000
10.116171, -4.005276, 57.375000
10.116171, -4.005276, 57.500000
10.116171, -4.005276, 57.625000
9.998541, -3.958703, 57.750000
9.880912, -3.912130, 57.875000
9.998541, -3.958703, 58.000000
9.880912, -3.912130, 58.125000
9.880912, -3.912130, 58.250000
9.880912, -3.912130, 58.375000
9.763282, -3.865557, 58.500000
9.763282, -3.865557, 58.625000
9.763282, -3.865557, 58.750000
9.645652, -3.818984, 58.875000
9.645652, -3.818984, 59.000000
9.645652, -3.818984, 59.125000
9.528022, -3.772411, 59.250000
9.528022, -3.772411, 59.375000
9.528022, -3.772411, 59.500000
9.528022, -3.772411, 59.625000
9.410392, -3.725838, 59.750000
9.410392, -3.725838, 59.875000
9.292762, -3.679265, 60.000000
9.175132, -3.632692, 60.125000
9.175132, -3.632692, 60.250000
9.175132, -3.632692, 60.375000
9.057502, -3.586119, 60.500000
8.822242, -3.492973, 60.625000
8.822242, -3.492973, 60.750000
8.822242, -3.492973, 60.875000
8.704613, -3.446400, 61.000000
8.586983, -3.399827, 61.125000
8.586983, -3.399827, 61.250000
8.469353, -3.353254, 61.375000
8.351723, -3.306681, 61.500000
8.351723, -3.306681, 61.625000
8.351723, -3.306681, 61.750000
8.351723, -3.306681, 61.875000
8.234093, -3.260108, 62.000000
8.116463, -3.213535, 62.125000
7.998833, -3.166962, 62.250000
7.998833, -3.166962, 62.375000
7.998833, -3.166962, 62.500000
7.881203, -3.120389, 62.625000
7.881203, -3.120389, 62.750000
7.763573, -3.073816, 62.875000
7.645943, -3.027243, 63.000000
7.528314, -2.980670, 63.125000
7.528314, -2.980670, 63.250000
7.528314, -2.980670, 63.375000
7.528314, -2.980670, 63.500000
7.528314, -2.980670, 63.625000
7.528314, -2.980670, 63.750000
7.410684, -2.934097, 63.875000
7.410684, -2.934097, 64.000000
7.175424, -2.840951, 64.125000
7.175424, -2.840951, 64.250000
7.293054, -2.887524, 64.375000
7.175424, -2.840951, 64.500000
7.057794, -2.794378, 64.625000
6.940164, -2.747805, 64.750000
6.822534, -2.701232, 64.875000
6.704904, -2.654659, 65.000000
6.704904, -2.654659, 65.125000
6.587274, -2.608086, 65.250000
6.587274, -2.608086, 65.375000
6.587274, -2.608086, 65.500000
6.469644, -2.561513, 65.625000
6.469644, -2.561513, 65.750000
6.352015, -2.514940, 65.875000
6.234385, -2.468368, 66.000000
6.234385, -2.468368, 66.125000
6.352015, -2.514940, 66.250000
6.234385, -2.468368, 66.375000
6.116755, -2.421795, 66.500000
6.234385, -2.468368, 66.625000
5.999125, -2.375222, 66.750000
5.999125, -2.375222, 66.875000
5.999125, -2.375222, 67.000000
5.999125, -2.375222, 67.125000
5.763865, -2.282076, 67.250000
5.881495, -2.328649, 67.375000
5.763865, -2.282076, 67.500000
5.763865, -2.282076, 67.625000
5.763865, -2.282076, 67.750000
5.646235, -2.235503, 67.875000
5.528605, -2.188930, 68.000000
5.646235, -2.235503, 68.125000
5.528605, -2.188930, 68.250000
5.528605, -2.188930, 68.375000
5.528605, -2.188930, 68.500000
5.528605, -2.188930, 68.625000
5.646235, -2.235503, 68.750000
5.646235, -2.235503, 68.875000
5.646235, -2.235503, 69.000000
5.646235, -2.235503, 69.125000
5.763865, -2.282076, 69.250000
5.763865, -2.282076, 69.375000
5.881495, -2.328649, 69.500000
5.881495, -2.328649, 69.625000
5.999125, -2.375222, 69.750000
6.116755, -2.421795, 69.875000
6.116755, -2.421795, 70.000000
6.116755, -2.421795, 70.125000
6.234385, -2.468368, 70.250000
6.234385, -2.468368, 70.375000
6.352015, -2.514940, 70.500000
6.469644, -2.561513, 70.625000
6.587274, -2.608086, 70.750000
6.587274, -2.608086, 70.875000
6.704904, -2.654659, 71.000000
6.822534, -2.701232, 71.125000
6.940164, -2.747805, 71.250000
6.940164, -2.747805, 71.375000
7.175424, -2.840951, 71.500000
7.175424, -2.840951, 71.625000
7.175424, -2.840951, 71.750000
7.293054, -2.887524, 71.875000
7.410684, -2.934097, 72.000000
7.645943, -3.027243, 72.125000
7.645943, -3.027243, 72.250000
7.763573, -3.073816, 72.375000
7.763573, -3.073816, 72.500000
7.881203, -3.120389, 72.625000
7.881203, -3.120389, 72.750000
8.116463, -3.213535, 72.875000
8.234093, -3.260108, 73.000000
8.116463, -3.213535, 73.125000
8.351723, -3.306681, 73.250000
8.469353, -3.353254, 73.375000
8.586983, -3.399827, 73.500000
8.586983, -3.399827, 73.625000
8.586983, -3.399827, 73.750000
8.704613, -3.446400, 73.875000
8.822242, -3.492973, 74.000000
8.939872, -3.539546, 74.125000
8.939872, -3.539546, 74.250000
9.175132, -3.632692, 74.375000
9.292762, -3.679265, 74.500000
9.292762, -3.679265, 74.625000
9.410392, -3.725838, 74.750000
9.410392, -3.725838, 74.875000
9.528022, -3.772411, 75.000000
9.528022, -3.772411, 75.125000
9.528022, -3.772411, 75.250000
9.763282, -3.865557, 75.375000
9.763282, -3.865557, 75.500000
9.763282, -3.865557, 75.625000
9.763282, -3.865557, 75.750000
9.880912, -3.912130, 75.875000
9.763282, -3.865557, 76.000000
10.233801, -4.051849, 76.125000
9.880912, -3.912130, 76.250000
3.452008, -1.242799, 13.750000
2.975869, -1.071379, 13.875000
3.690077, -1.328510, 14.000000
3.690077, -1.328510, 14.125000
2.975869, -1.071379, 14.250000
3.571042, -1.285654, 14.375000
3.571042, -1.285654, 14.500000
3.690077, -1.328510, 14.625000
3.809112, -1.371365, 14.750000
4.047181, -1.457075, 14.875000
4.166216, -1.499930, 15.000000
4.166216, -1.499930, 15.125000
4.404286, -1.585640, 15.250000
4.523320, -1.628496, 15.375000
4.523320, -1.628496, 15.500000
4.642355, -1.671351, 15.625000
4.761390, -1.714206, 15.750000
4.761390, -1.714206, 15.875000
4.761390, -1.714206, 16.000000
4.880425, -1.757061, 16.125000
4.880425, -1.757061, 16.250000
5.118494, -1.842771, 16.375000
5.118494, -1.842771, 16.500000
5.118494, -1.842771, 16.625000
5.475598, -1.971337, 16.750000
5.475598, -1.971337, 16.875000
5.594633, -2.014192, 17.000000
5.475598, -1.971337, 17.125000
5.594633, -2.014192, 17.250000
5.594633, -2.014192, 17.375000
5.713668, -2.057047, 17.500000
5.832703, -2.099902, 17.625000
5.951737, -2.142757, 17.750000
5.951737, -2.142757, 17.875000
6.070772, -2.185612, 18.000000
6.189807, -2.228468, 18.125000
6.189807, -2.228468, 18.250000
6.070772, -2.185612, 18.375000
6.070772, -2.185612, 18.500000
6.427876, -2.314178, 18.625000
6.308842, -2.271323, 18.750000
6.308842, -2.271323, 18.875000
6.546911, -2.357033, 19.000000
6.427876, -2.314178, 19.125000
6.546911, -2.357033, 19.250000
6.546911, -2.357033, 19.375000
6.665946, -2.399888, 19.500000
6.784981, -2.442743, 19.625000
6.784981, -2.442743, 19.750000
6.784981, -2.442743, 19.875000
6.904015, -2.485598, 20.000000
6.904015, -2.485598, 20.125000
7.023050, -2.528454, 20.250000
6.904015, -2.485598, 20.375000
7.023050, -2.528454, 20.500000
7.142085, -2.571309, 20.625000
7.261120, -2.614164, 20.750000
7.261120, -2.614164, 20.875000
7.261120, -2.614164, 21.000000
7.261120, -2.614164, 21.125000
7.380154, -2.657019, 21.250000
7.380154, -2.657019, 21.375000
7.380154, -2.657019, 21.500000
7.499189, -2.699874, 21.625000
7.618224, -2.742729, 21.750000
7.618224, -2.742729, 21.875000
7.737259, -2.785585, 22.000000
7.737259, -2.785585, 22.125000
7.737259, -2.785585, 22.250000
7.856293, -2.828440, 22.375000
7.856293, -2.828440, 22.500000
7.856293, -2.828440, 22.625000
7.856293, -2.828440, 22.750000
7.975328, -2.871295, 22.875000
8.094363, -2.914150, 23.000000
8.094363, -2.914150, 23.125000
8.094363, -2.914150, 23.250000
8.094363, -2.914150, 23.375000
8.094363, -2.914150, 23.500000
8.094363, -2.914150, 23.625000
8.213398, -2.957005, 23.750000
8.332432, -2.999860, 23.875000
8.332432, -2.999860, 24.000000
8.332432, -2.999860, 24.125000
8.451467, -3.042715, 24.250000
8.451467, -3.042715, 24.375000
8.570502, -3.085571, 24.500000
8.451467, -3.042715, 24.625000
8.570502, -3.085571, 24.750000
8.689537, -3.128426, 24.875000
8.808571, -3.171281, 25.000000
8.689537, -3.128426, 25.125000
8.808571, -3.171281, 25.250000
8.808571, -3.171281, 25.375000
8.808571, -3.171281, 25.500000
8.808571, -3.171281, 25.625000
8.808571, -3.171281, 25.750000
8.927606, -3.214136, 25.875000
9.046641, -3.256991, 26.000000
9.046641, -3.256991, 26.125000
9.046641, -3.256991, 26.250000
9.046641, -3.256991, 26.375000
9.165676, -3.299846, 26.500000
9.165676, -3.299846, 26.625000
9.165676, -3.299846, 26.750000
9.165676, -3.299846, 26.875000
9.165676, -3.299846, 27.000000
9.403745, -3.385557, 27.125000
9.284710, -3.342701, 27.250000
9.284710, -3.342701, 27.375000
9.403745, -3.385557, 27.500000
9.403745, -3.385557, 27.625000
9.522780, -3.428412, 27.750000
9.522780, -3.428412, 27.875000
9.522780, -3.428412, 28.000000
9.522780, -3.428412, 28.125000
9.641815, -3.471267, 28.250000
9.641815, -3.471267, 28.375000
9.641815, -3.471267, 28.500000
9.641815, -3.471267, 28.625000
9.760849, -3.514122, 28.750000
9.760849, -3.514122, 28.875000
9.760849, -3.514122, 29.000000
9.879884, -3.556977, 29.125000
9.879884, -3.556977, 29.250000
9.879884, -3.556977, 29.375000
9.879884, -3.556977, 29.500000
9.879884, -3.556977, 29.625000
9.879884, -3.556977, 29.750000
9.998919, -3.599832, 29.875000
9.998919, -3.599832, 30.000000
9.998919, -3.599832, 30.125000
9.998919, -3.599832, 30.250000
10.117954, -3.642687, 30.375000
10.117954, -3.642687, 30.500000
10.117954, -3.642687, 30.625000
10.236988, -3.685543, 30.750000
10.356023, -3.728398, 30.875000
10.236988, -3.685543, 31.000000
10.356023, -3.728398, 31.125000
10.236988, -3.685543, 31.250000
10.236988, -3.685543, 31.375000
10.236988, -3.685543, 31.500000
10.356023, -3.728398, 31.625000
10.356023, -3.728398, 31.750000
10.356023, -3.728398, 31.875000
10.475058, -3.771253, 32.000000
10.356023, -3.728398, 32.125000
10.475058, -3.771253, 32.250000
10.475058, -3.771253, 32.375000
10.475058, -3.771253, 32.500000
10.594093, -3.814108, 32.625000
10.594093, -3.814108, 32.750000
10.594093, -3.814108, 32.875000
10.594093, -3.814108, 33.000000
10.594093, -3.814108, 33.125000
10.594093, -3.814108, 33.250000
10.594093, -3.814108, 33.375000
10.713127, -3.856963, 33.500000
10.713127, -3.856963, 33.625000
10.713127, -3.856963, 33.750000
10.713127, -3.856963, 33.875000
10.713127, -3.856963, 34.000000
10.713127, -3.856963, 34.125000
10.832162, -3.899818, 34.250000
10.713127, -3.856963, 34.375000
10.832162, -3.899818, 34.500000
10.832162, -3.899818, 34.625000
10.832162, -3.899818, 34.750000
10.832162, -3.899818, 34.875000
10.951197, -3.942673, 35.000000
10.951197, -3.942673, 35.125000
10.951197, -3.942673, 35.250000
10.951197, -3.942673, 35.375000
10.951197, -3.942673, 35.500000
10.951197, -3.942673, 35.625000
10.951197, -3.942673, 35.750000
10.951197, -3.942673, 35.875000
11.070232, -3.985529, 36.000000
11.070232, -3.985529, 36.125000
11.070232, -3.985529, 36.250000
11.070232, -3.985529, 36.375000
11.070232, -3.985529, 36.500000
11.070232, -3.985529, 36.625000
11.070232, -3.985529, 36.750000
11.070232, -3.985529, 36.875000
11.189266, -4.028384, 37.000000
11.189266, -4.028384, 37.125000
11.189266, -4.028384, 37.250000
11.189266, -4.028384, 37.375000
11.189266, -4.028384, 37.500000
11.189266, -4.028384, 37.625000
11.189266, -4.028384, 37.750000
11.308301, -4.071239, 37.875000
11.189266, -4.028384, 38.000000
11.308301, -4.071239, 38.125000
11.308301, -4.071239, 38.250000
11.308301, -4.071239, 38.375000
11.308301, -4.071239, 38.500000
11.308301, -4.071239, 38.625000
11.308301, -4.071239, 38.750000
11.308301, -4.071239, 38.875000
11.427336, -4.114094, 39.000000
11.308301, -4.071239, 39.125000
11.308301, -4.071239, 39.250000
11.427336, -4.114094, 39.375000
11.427336, -4.114094, 39.500000
11.427336, -4.114094, 39.625000
11.546371, -4.156949, 39.750000
11.546371, -4.156949, 39.875000
11.546371, -4.156949, 40.000000
11.546371, -4.156949, 40.125000
11.546371, -4.156949, 40.250000
11.427336, -4.114094, 40.375000
11.546371, -4.156949, 40.500000
11.546371, -4.156949, 40.625000
11.546371, -4.156949, 40.750000
11.546371, -4.156949, 40.875000
11.546371, -4.156949, 41.000000
11.546371, -4.156949, 41.125000
11.546371, -4.156949, 41.250000
11.546371, -4.156949, 41.375000
11.546371, -4.156949, 41.500000
11.546371, -4.156949, 41.625000
11.546371, -4.156949, 41.750000
11.546371, -4.156949, 41.875000
11.546371, -4.156949, 42.000000
11.665405, -4.199804, 42.125000
11.546371, -4.156949, 42.250000
11.546371, -4.156949, 42.375000
11.546371, -4.156949, 42.500000
11.546371, -4.156949, 42.625000
11.546371, -4.156949, 42.750000
11.665405, -4.199804, 42.875000
11.665405, -4.199804, 43.000000
11.665405, -4.199804, 43.125000
11.546371, -4.156949, 43.250000
11.665405, -4.199804, 43.375000
11.665405, -4.199804, 43.500000
11.546371, -4.156949, 43.625000
11.546371, -4.156949, 43.750000
11.546371, -4.156949, 43.875000
11.546371, -4.156949, 44.000000
11.665405, -4.199804, 44.125000
11.665405, -4.199804, 44.250000
11.665405, -4.199804, 44.375000
11.665405, -4.199804, 44.500000
11.546371, -4.156949, 44.625000
11.665405, -4.199804, 44.750000
11.665405, -4.199804, 44.875000
11.665405, -4.199804, 45.000000
11.784440, -4.242660, 45.125000
11.665405, -4.199804, 45.250000
11.665405, -4.199804, 45.375000
11.546371, -4.156949, 45.500000
11.546371, -4.156949, 45.625000
11.665405, -4.199804, 45.750000
11.665405, -4.199804, 45.875000
11.546371, -4.156949, 46.000000
11.665405, -4.199804, 46.125000
11.665405, -4.199804, 46.250000
11.546371, -4.156949, 46.375000
11.546371, -4.156949, 46.500000
11.546371, -4.156949, 46.625000
11.546371, -4.156949, 46.750000
11.546371, -4.156949, 46.875000
11.546371, -4.156949, 47.000000
11.546371, -4.156949, 47.125000
11.665405, -4.199804, 47.250000
11.546371, -4.156949, 47.375000
11.546371, -4.156949, 47.500000
11.665405, -4.199804, 47.625000
11.546371, -4.156949, 47.750000
11.665405, -4.199804, 47.875000
11.546371, -4.156949, 48.000000
11.546371, -4.156949, 48.125000
11.427336, -4.114094, 48.250000
11.546371, -4.156949, 48.375000
11.546371, -4.156949, 48.500000
11.427336, -4.114094, 48.625000
11.546371, -4.156949, 48.750000
11.546371, -4.156949, 48.875000
11.546371, -4.156949, 49.000000
11.546371, -4.156949, 49.125000
11.427336, -4.114094, 49.250000
11.427336, -4.114094, 49.375000
11.427336, -4.114094, 49.500000
11.427336, -4.114094, 49.625000
11.427336, -4.114094, 49.750000
11.308301, -4.071239, 49.875000
11.427336, -4.114094, 50.000000
11.427336, -4.114094, 50.125000
11.427336, -4.114094, 50.250000
11.308301, -4.071239, 50.375000
11.308301, -4.071239, 50.500000
11.308301, -4.071239, 50.625000
11.308301, -4.071239, 50.750000
11.308301, -4.071239, 50.875000
11.189266, -4.028384, 51.000000
11.189266, -4.028384, 51.125000
11.308301, -4.071239, 51.250000
11.308301, -4.071239, 51.375000
11.308301, -4.071239, 51.500000
11.189266, -4.028384, 51.625000
11.189266, -4.028384, 51.750000
11.189266, -4.028384, 51.875000
11.308301, -4.071239, 52.000000
11.189266, -4.028384, 52.125000
11.189266, -4.028384, 52.250000
11.189266, -4.028384, 52.375000
11.070232, -3.985529, 52.500000
11.070232, -3.985529, 52.625000
11.189266, -4.028384, 52.750000
11.070232, -3.985529, 52.875000
11.070232, -3.985529, 53.000000
11.070232, -3.985529, 53.125000
10.951197, -3.942673, 53.250000
11.070232, -3.985529, 53.375000
11.070232, -3.985529, 53.500000
10.951197, -3.942673, 53.625000
10.951197, -3.942673, 53.750000
10.951197, -3.942673, 53.875000
10.832162, -3.899818, 54.000000
10.832162, -3.899818, 54.125000
10.951197, -3.942673, 54.250000
10.951197, -3.942673, 54.375000
10.832162, -3.899818, 54.500000
10.713127, -3.856963, 54.625000
10.713127, -3.856963, 54.750000
10.832162, -3.899818, 54.875000
10.832162, -3.899818, 55.000000
10.713127, -3.856963, 55.125000
10.594093, -3.814108, 55.250000
10.594093, -3.814108, 55.375000
10.594093, -3.814108, 55.500000
10.594093, -3.814108, 55.625000
10.475058, -3.771253, 55.750000
10.475058, -3.771253, 55.875000
10.475058, -3.771253, 56.000000
10.475058, -3.771253, 56.125000
10.475058, -3.771253, 56.250000
10.356023, -3.728398, 56.375000
10.356023, -3.728398, 56.500000
10.356023, -3.728398, 56.625000
10.356023, -3.728398, 56.750000
10.356023, -3.728398, 56.875000
10.356023, -3.728398, 57.000000
10.356023, -3.728398, 57.125000
10.236988, -3.685543, 57.250000
10.236988, -3.685543, 57.375000
10.236988, -3.685543, 57.500000
10.117954, -3.642687, 57.625000
10.117954, -3.642687, 57.750000
10.117954, -3.642687, 57.875000
10.117954, -3.642687, 58.000000
9.998919, -3.599832, 58.125000
9.998919, -3.599832, 58.250000
9.879884, -3.556977, 58.375000
9.879884, -3.556977, 58.500000
9.879884, -3.556977, 58.625000
9.760849, -3.514122, 58.750000
9.879884, -3.556977, 58.875000
9.760849, -3.514122, 59.000000
9.879884, -3.556977, 59.125000
9.641815, -3.471267, 59.250000
9.522780, -3.428412, 59.375000
9.522780, -3.428412, 59.500000
9.522780, -3.428412, 59.625000
9.522780, -3.428412, 59.750000
9.522780, -3.428412, 59.875000
9.284710, -3.342701, 60.000000
9.284710, -3.342701, 60.125000
9.284710, -3.342701, 60.250000
9.165676, -3.299846, 60.375000
9.046641, -3.256991, 60.500000
9.046641, -3.256991, 60.625000
8.927606, -3.214136, 60.750000
8.808571, -3.171281, 60.875000
8.808571, -3.171281, 61.000000
8.808571, -3.171281, 61.125000
8.808571, -3.171281, 61.250000
8.808571, -3.171281, 61.375000
8.570502, -3.085571, 61.500000
8.451467, -3.042715, 61.625000
8.332432, -2.999860, 61.750000
8.332432, -2.999860, 61.875000
8.451467, -3.042715, 62.000000
8.213398, -2.957005, 62.125000
8.213398, -2.957005, 62.250000
8.094363, -2.914150, 62.375000
8.094363, -2.914150, 62.500000
7.856293, -2.828440, 62.625000
7.856293, -2.828440, 62.750000
7.975328, -2.871295, 62.875000
7.975328, -2.871295, 63.000000
7.737259, -2.785585, 63.125000
7.618224, -2.742729, 63.250000
7.618224, -2.742729, 63.375000
7.618224, -2.742729, 63.500000
7.618224, -2.742729, 63.625000
7.499189, -2.699874, 63.750000
7.380154, -2.657019, 63.875000
7.380154, -2.657019, 64.000000
7.380154, -2.657019, 64.125000
7.380154, -2.657019, 64.250000
7.261120, -2.614164, 64.375000
7.142085, -2.571309, 64.500000
7.142085, -2.571309, 64.625000
7.023050, -2.528454, 64.750000
7.023050, -2.528454, 64.875000
6.784981, -2.442743, 65.000000
6.784981, -2.442743, 65.125000
6.784981, -2.442743, 65.250000
6.784981, -2.442743, 65.375000
6.665946, -2.399888, 65.500000
6.546911, -2.357033, 65.625000
6.546911, -2.357033, 65.750000
6.427876, -2.314178, 65.875000
6.427876, -2.314178, 66.000000
6.308842, -2.271323, 66.125000
6.308842, -2.271323, 66.250000
6.308842, -2.271323, 66.375000
6.189807, -2.228468, 66.500000
6.189807, -2.228468, 66.625000
6.189807, -2.228468, 66.750000
6.070772, -2.185612, 66.875000
5.951737, -2.142757, 67.000000
5.951737, -2.142757, 67.125000
5.951737, -2.142757, 67.250000
5.951737, -2.142757, 67.375000
5.832703, -2.099902, 67.500000
5.832703, -2.099902, 67.625000
5.832703, -2.099902, 67.750000
5.713668, -2.057047, 67.875000
5.713668, -2.057047, 68.000000
5.594633, -2.014192, 68.125000
5.594633, -2.014192, 68.250000
5.713668, -2.057047, 68.375000
5.594633, -2.014192, 68.500000
5.594633, -2.014192, 68.625000
5.713668, -2.057047, 68.750000
5.713668, -2.057047, 68.875000
5.594633, -2.014192, 69.000000
5.713668, -2.057047, 69.125000
5.832703, -2.099902, 69.250000
5.832703, -2.099902, 69.375000
5.951737, -2.142757, 69.500000
6.070772, -2.185612, 69.625000
6.189807, -2.228468, 69.750000
6.189807, -2.228468, 69.875000
6.189807, -2.228468, 70.000000
6.189807, -2.228468, 70.125000
6.308842, -2.271323, 70.250000
6.427876, -2.314178, 70.375000
6.427876, -2.314178, 70.500000
6.546911, -2.357033, 70.625000
6.546911, -2.357033, 70.750000
6.784981, -2.442743, 70.875000
6.784981, -2.442743, 71.000000
6.784981, -2.442743, 71.125000
7.023050, -2.528454, 71.250000
7.023050, -2.528454, 71.375000
7.142085, -2.571309, 71.500000
7.261120, -2.614164, 71.625000
7.261120, -2.614164, 71.750000
7.380154, -2.657019, 71.875000
7.499189, -2.699874, 72.000000
7.618224, -2.742729, 72.125000
7.618224, -2.742729, 72.250000
7.737259, -2.785585, 72.375000
7.856293, -2.828440, 72.500000
7.856293, -2.828440, 72.625000
8.094363, -2.914150, 72.750000
8.213398, -2.957005, 72.875000
8.213398, -2.957005, 73.000000
8.332432, -2.999860, 73.125000
8.451467, -3.042715, 73.250000
8.570502, -3.085571, 73.375000
8.570502, -3.085571, 73.500000
8.689537, -3.128426, 73.625000
8.808571, -3.171281, 73.750000
8.927606, -3.214136, 73.875000
9.046641, -3.256991, 74.000000
9.046641, -3.256991, 74.125000
9.165676, -3.299846, 74.250000
9.284710, -3.342701, 74.375000
9.284710, -3.342701, 74.500000
9.403745, -3.385557, 74.625000
9.522780, -3.428412, 74.750000
9.641815, -3.471267, 74.875000
9.641815, -3.471267, 75.000000
9.760849, -3.514122, 75.125000
9.760849, -3.514122, 75.250000
9.760849, -3.514122, 75.375000
9.879884, -3.556977, 75.500000
9.879884, -3.556977, 75.625000
9.998919, -3.599832, 75.750000
9.998919, -3.599832, 75.875000
9.879884, -3.556977, 76.000000
10.117954, -3.642687, 76.125000
3.729986, -1.211946, 14.375000
3.729986, -1.211946, 14.500000
3.729986, -1.211946, 14.625000
3.970630, -1.290136, 14.750000
3.970630, -1.290136, 14.875000
4.090952, -1.329231, 15.000000
3.729986, -1.211946, 15.125000
4.331596, -1.407421, 15.250000
4.331596, -1.407421, 15.375000
4.331596, -1.407421, 15.500000
4.692563, -1.524706, 15.625000
4.692563, -1.524706, 15.750000
4.933207, -1.602896, 15.875000
4.933207, -1.602896, 16.000000
5.053529, -1.641991, 16.125000
5.173851, -1.681086, 16.250000
5.173851, -1.681086, 16.375000
5.294173, -1.720181, 16.500000
5.294173, -1.720181, 16.625000
5.414496, -1.759276, 16.750000
5.414496, -1.759276, 16.875000
5.534818, -1.798371, 17.000000
5.655140, -1.837466, 17.125000
5.775462, -1.876561, 17.250000
5.655140, -1.837466, 17.375000
5.775462, -1.876561, 17.500000
5.895784, -1.915656, 17.625000
6.016106, -1.954751, 17.750000
6.016106, -1.954751, 17.875000
6.136428, -1.993846, 18.000000
6.136428, -1.993846, 18.125000
6.256750, -2.032941, 18.250000
6.256750, -2.032941, 18.375000
6.256750, -2.032941, 18.500000
6.377073, -2.072036, 18.625000
6.377073, -2.072036, 18.750000
6.497395, -2.111132, 18.875000
6.497395, -2.111132, 19.000000
6.617717, -2.150227, 19.125000
6.617717, -2.150227, 19.250000
6.617717, -2.150227, 19.375000
6.738039, -2.189322, 19.500000
6.858361, -2.228417, 19.625000
6.858361, -2.228417, 19.750000
6.858361, -2.228417, 19.875000
7.099005, -2.306607, 20.000000
7.099005, -2.306607, 20.125000
7.099005, -2.306607, 20.250000
7.099005, -2.306607, 20.375000
7.099005, -2.306607, 20.500000
7.219327, -2.345702, 20.625000
7.339650, -2.384797, 20.750000
7.339650, -2.384797, 20.875000
7.339650, -2.384797, 21.000000
7.339650, -2.384797, 21.125000
7.459972, -2.423892, 21.250000
7.459972, -2.423892, 21.375000
7.459972, -2.423892, 21.500000
7.580294, -2.462987, 21.625000
7.700616, -2.502082, 21.750000
7.700616, -2.502082, 21.875000
7.700616, -2.502082, 22.000000
7.700616, -2.502082, 22.125000
7.820938, -2.541177, 22.250000
8.061582, -2.619367, 22.375000
7.941260, -2.580272, 22.500000
8.061582, -2.619367, 22.625000
8.061582, -2.619367, 22.750000
8.061582, -2.619367, 22.875000
8.061582, -2.619367, 23.000000
8.181904, -2.658462, 23.125000
8.181904, -2.658462, 23.250000
8.181904, -2.658462, 23.375000
8.302227, -2.697557, 23.500000
8.302227, -2.697557, 23.625000
8.302227, -2.697557, 23.750000
8.422549, -2.736652, 23.875000
