14.509331, 9.860531, 56.000000
14.207053, 9.655103, 56.125000
14.509331, 9.860531, 56.250000
14.509331, 9.860531, 56.375000
14.509331, 9.860531, 56.500000
14.509331, 9.860531, 56.625000
14.811609, 10.065959, 56.750000
14.811609, 10.065959, 56.875000
15.113886, 10.271387, 57.000000
15.113886, 10.271387, 57.125000
15.113886, 10.271387, 57.250000
15.416164, 10.476814, 57.375000
15.416164, 10.476814, 57.500000
15.718442, 10.682242, 57.625000
15.718442, 10.682242, 57.750000
16.020720, 10.887670, 57.875000
16.020720, 10.887670, 58.000000
16.020720, 10.887670, 58.125000
16.020720, 10.887670, 58.250000
16.322997, 11.093098, 58.375000
16.322997, 11.093098, 58.500000
16.322997, 11.093098, 58.625000
16.322997, 11.093098, 58.750000
16.625275, 11.298525, 58.875000
16.625275, 11.298525, 59.000000
16.625275, 11.298525, 59.125000
16.625275, 11.298525, 59.250000
16.927553, 11.503953, 59.375000
17.229830, 11.709381, 59.500000
17.229830, 11.709381, 59.625000
17.229830, 11.709381, 59.750000
17.229830, 11.709381, 59.875000
17.532108, 11.914808, 60.000000
17.834386, 12.120236, 60.125000
17.834386, 12.120236, 60.250000
17.834386, 12.120236, 60.375000
18.136664, 12.325664, 60.500000
18.136664, 12.325664, 60.625000
18.136664, 12.325664, 60.750000
18.741219, 12.736519, 60.875000
18.741219, 12.736519, 61.000000
18.741219, 12.736519, 61.125000
19.043497, 12.941947, 61.250000
19.043497, 12.941947, 61.375000
19.648052, 13.352803, 61.500000
19.345775, 13.147375, 61.625000
19.648052, 13.352803, 61.750000
19.648052, 13.352803, 61.875000
19.648052, 13.352803, 62.000000
19.950330, 13.558230, 62.125000
19.950330, 13.558230, 62.250000
19.950330, 13.558230, 62.375000
19.950330, 13.558230, 62.500000
20.252608, 13.763658, 62.625000
20.252608, 13.763658, 62.750000
20.252608, 13.763658, 62.875000
20.252608, 13.763658, 63.000000
20.252608, 13.763658, 63.125000
20.252608, 13.763658, 63.250000
20.554885, 13.969086, 63.375000
20.554885, 13.969086, 63.500000
20.554885, 13.969086, 63.625000
20.554885, 13.969086, 63.750000
20.554885, 13.969086, 63.875000
20.554885, 13.969086, 64.000000
20.554885, 13.969086, 64.125000
20.857163, 14.174513, 64.250000
20.554885, 13.969086, 64.375000
20.554885, 13.969086, 64.500000
20.554885, 13.969086, 64.625000
20.554885, 13.969086, 64.750000
20.554885, 13.969086, 64.875000
20.554885, 13.969086, 65.000000
20.554885, 13.969086, 65.125000
20.252608, 13.763658, 65.250000
20.554885, 13.969086, 65.375000
20.554885, 13.969086, 65.500000
20.252608, 13.763658, 65.625000
20.252608, 13.763658, 65.750000
20.554885, 13.969086, 65.875000
20.252608, 13.763658, 66.000000
20.252608, 13.763658, 66.125000
20.554885, 13.969086, 66.250000
20.252608, 13.763658, 66.375000
20.252608, 13.763658, 66.500000
19.950330, 13.558230, 66.625000
20.252608, 13.763658, 66.750000
19.950330, 13.558230, 66.875000
19.648052, 13.352803, 67.000000
19.950330, 13.558230, 67.125000
19.648052, 13.352803, 67.250000
19.648052, 13.352803, 67.375000
19.648052, 13.352803, 67.500000
19.648052, 13.352803, 67.625000
19.345775, 13.147375, 67.750000
19.345775, 13.147375, 67.875000
19.345775, 13.147375, 68.000000
19.043497, 12.941947, 68.125000
19.043497, 12.941947, 68.250000
18.741219, 12.736519, 68.375000
18.741219, 12.736519, 68.500000
18.438941, 12.531092, 68.625000
18.438941, 12.531092, 68.750000
18.438941, 12.531092, 68.875000
18.438941, 12.531092, 69.000000
18.438941, 12.531092, 69.125000
18.438941, 12.531092, 69.250000
18.136664, 12.325664, 69.375000
18.136664, 12.325664, 69.500000
18.438941, 12.531092, 69.625000
18.136664, 12.325664, 69.750000
18.136664, 12.325664, 69.875000
17.834386, 12.120236, 70.000000
17.834386, 12.120236, 70.125000
17.834386, 12.120236, 70.250000
17.834386, 12.120236, 70.375000
17.834386, 12.120236, 70.500000
17.834386, 12.120236, 70.625000
17.532108, 11.914808, 70.750000
17.532108, 11.914808, 70.875000
17.532108, 11.914808, 71.000000
17.532108, 11.914808, 71.125000
17.229830, 11.709381, 71.250000
17.532108, 11.914808, 71.375000
17.229830, 11.709381, 71.500000
17.229830, 11.709381, 71.625000
16.927553, 11.503953, 71.750000
16.927553, 11.503953, 71.875000
16.927553, 11.503953, 72.000000
16.927553, 11.503953, 72.125000
16.927553, 11.503953, 72.250000
16.625275, 11.298525, 72.375000
16.625275, 11.298525, 72.500000
16.625275, 11.298525, 72.625000
16.322997, 11.093098, 72.750000
16.625275, 11.298525, 72.875000
16.322997, 11.093098, 73.000000
16.322997, 11.093098, 73.125000
16.322997, 11.093098, 73.250000
16.322997, 11.093098, 73.375000
16.020720, 10.887670, 73.500000
16.020720, 10.887670, 73.625000
16.020720, 10.887670, 73.750000
16.020720, 10.887670, 73.875000
16.020720, 10.887670, 74.000000
15.718442, 10.682242, 74.125000
16.020720, 10.887670, 74.250000
16.020720, 10.887670, 74.375000
16.322997, 11.093098, 74.500000
16.322997, 11.093098, 74.625000
16.322997, 11.093098, 74.750000
16.322997, 11.093098, 74.875000
16.322997, 11.093098, 75.000000
16.322997, 11.093098, 75.125000
16.625275, 11.298525, 75.250000
16.625275, 11.298525, 75.375000
16.625275, 11.298525, 75.500000
16.927553, 11.503953, 75.625000
16.927553, 11.503953, 75.750000
17.229830, 11.709381, 75.875000
16.927553, 11.503953, 76.000000
17.229830, 11.709381, 76.125000
17.532108, 11.914808, 76.250000
17.532108, 11.914808, 76.375000
17.532108, 11.914808, 76.500000
18.136664, 12.325664, 76.625000
17.834386, 12.120236, 76.750000
17.834386, 12.120236, 76.875000
18.438941, 12.531092, 77.000000
18.438941, 12.531092, 77.125000
18.438941, 12.531092, 77.250000
18.438941, 12.531092, 77.375000
18.741219, 12.736519, 77.500000
18.741219, 12.736519, 77.625000
19.043497, 12.941947, 77.750000
19.043497, 12.941947, 77.875000
19.345775, 13.147375, 78.000000
19.345775, 13.147375, 78.125000
19.648052, 13.352803, 78.250000
19.950330, 13.558230, 78.375000
19.648052, 13.352803, 78.500000
19.648052, 13.352803, 78.625000
19.950330, 13.558230, 78.750000
20.252608, 13.763658, 78.875000
20.252608, 13.763658, 79.000000
20.554885, 13.969086, 79.125000
20.554885, 13.969086, 79.250000
20.554885, 13.969086, 79.375000
20.857163, 14.174513, 79.500000
20.857163, 14.174513, 79.625000
21.159441, 14.379941, 79.750000
21.461719, 14.585369, 79.875000
21.461719, 14.585369, 80.000000
21.461719, 14.585369, 80.125000
21.763996, 14.790797, 80.250000
21.763996, 14.790797, 80.375000
22.066274, 14.996224, 80.500000
22.066274, 14.996224, 80.625000
22.066274, 14.996224, 80.750000
22.066274, 14.996224, 80.875000
22.066274, 14.996224, 81.000000
22.368552, 15.201652, 81.125000
22.368552, 15.201652, 81.250000
22.368552, 15.201652, 81.375000
22.670830, 15.407080, 81.500000
22.973107, 15.612508, 81.625000
22.973107, 15.612508, 81.750000
22.973107, 15.612508, 81.875000
22.973107, 15.612508, 82.000000
22.973107, 15.612508, 82.125000
23.275385, 15.817935, 82.250000
32.948272, 22.391623, 101.750000
32.948272, 22.391623, 101.875000
33.250550, 22.597050, 102.000000
32.948272, 22.391623, 102.125000
33.250550, 22.597050, 102.250000
33.552828, 22.802478, 102.375000
32.948272, 22.391623, 102.500000
38.086994, 25.883894, 102.625000
35.668772, 24.240472, 102.750000
35.971050, 24.445900, 102.875000
35.668772, 24.240472, 103.000000
35.971050, 24.445900, 103.125000
35.971050, 24.445900, 103.250000
38.691549, 26.294750, 103.375000
38.389271, 26.089322, 103.500000
3.843787, 2.792675, 19.625000
3.843787, 2.792675, 19.750000
4.730815, 3.437138, 19.875000
4.730815, 3.437138, 20.000000
4.730815, 3.437138, 20.125000
4.730815, 3.437138, 20.250000
4.730815, 3.437138, 20.375000
5.026491, 3.651959, 20.500000
5.322167, 3.866780, 20.625000
5.617843, 4.081602, 20.750000
5.913519, 4.296423, 20.875000
5.913519, 4.296423, 21.000000
5.913519, 4.296423, 21.125000
5.913519, 4.296423, 21.250000
6.209195, 4.511244, 21.375000
6.209195, 4.511244, 21.500000
6.504870, 4.726065, 21.625000
6.209195, 4.511244, 21.750000
6.504870, 4.726065, 21.875000
7.096222, 5.155707, 22.000000
6.800546, 4.940886, 22.125000
7.096222, 5.155707, 22.250000
7.096222, 5.155707, 22.375000
7.391898, 5.370528, 22.500000
7.391898, 5.370528, 22.625000
7.391898, 5.370528, 22.750000
7.391898, 5.370528, 22.875000
7.687574, 5.585350, 23.000000
7.687574, 5.585350, 23.125000
7.983250, 5.800171, 23.250000
7.687574, 5.585350, 23.375000
7.983250, 5.800171, 23.500000
7.983250, 5.800171, 23.625000
8.574602, 6.229813, 23.750000
8.278926, 6.014992, 23.875000
8.278926, 6.014992, 24.000000
8.574602, 6.229813, 24.125000
8.870278, 6.444634, 24.250000
8.574602, 6.229813, 24.375000
8.870278, 6.444634, 24.500000
8.870278, 6.444634, 24.625000
9.165954, 6.659455, 24.750000
9.165954, 6.659455, 24.875000
9.165954, 6.659455, 25.000000
9.461630, 6.874276, 25.125000
9.461630, 6.874276, 25.250000
9.757306, 7.089098, 25.375000
9.757306, 7.089098, 25.500000
9.757306, 7.089098, 25.625000
9.757306, 7.089098, 25.750000
9.757306, 7.089098, 25.875000
10.348658, 7.518740, 26.000000
10.348658, 7.518740, 26.125000
10.052982, 7.303919, 26.250000
10.052982, 7.303919, 26.375000
10.348658, 7.518740, 26.500000
10.348658, 7.518740, 26.625000
10.644334, 7.733561, 26.750000
10.644334, 7.733561, 26.875000
10.644334, 7.733561, 27.000000
10.940009, 7.948382, 27.125000
10.940009, 7.948382, 27.250000
10.940009, 7.948382, 27.375000
10.940009, 7.948382, 27.500000
10.940009, 7.948382, 27.625000
11.531361, 8.378024, 27.750000
11.235685, 8.163203, 27.875000
11.235685, 8.163203, 28.000000
11.531361, 8.378024, 28.125000
11.531361, 8.378024, 28.250000
11.531361, 8.378024, 28.375000
11.827037, 8.592846, 28.500000
11.827037, 8.592846, 28.625000
11.827037, 8.592846, 28.750000
12.122713, 8.807667, 28.875000
12.122713, 8.807667, 29.000000
12.122713, 8.807667, 29.125000
12.122713, 8.807667, 29.250000
11.827037, 8.592846, 29.375000
12.122713, 8.807667, 29.500000
12.122713, 8.807667, 29.625000
12.122713, 8.807667, 29.750000
12.122713, 8.807667, 29.875000
12.122713, 8.807667, 30.000000
12.122713, 8.807667, 30.125000
12.122713, 8.807667, 30.250000
12.122713, 8.807667, 30.375000
12.122713, 8.807667, 30.500000
12.122713, 8.807667, 30.625000
12.714065, 9.237309, 30.750000
12.418389, 9.022488, 30.875000
12.122713, 8.807667, 31.000000
11.827037, 8.592846, 31.125000
11.827037, 8.592846, 31.250000
11.531361, 8.378024, 31.375000
11.531361, 8.378024, 31.500000
11.531361, 8.378024, 31.625000
11.235685, 8.163203, 31.750000
11.235685, 8.163203, 31.875000
11.235685, 8.163203, 32.000000
11.235685, 8.163203, 32.125000
11.531361, 8.378024, 32.250000
10.940009, 7.948382, 32.375000
10.940009, 7.948382, 32.500000
11.235685, 8.163203, 32.625000
11.235685, 8.163203, 32.750000
10.940009, 7.948382, 32.875000
10.644334, 7.733561, 33.000000
10.644334, 7.733561, 33.125000
10.644334, 7.733561, 33.250000
10.644334, 7.733561, 33.375000
10.644334, 7.733561, 33.500000
10.644334, 7.733561, 33.625000
10.940009, 7.948382, 33.750000
10.644334, 7.733561, 33.875000
10.644334, 7.733561, 34.000000
10.348658, 7.518740, 34.125000
10.348658, 7.518740, 34.250000
10.348658, 7.518740, 34.375000
10.052982, 7.303919, 34.500000
10.052982, 7.303919, 34.625000
10.052982, 7.303919, 34.750000
10.348658, 7.518740, 34.875000
10.052982, 7.303919, 35.000000
10.052982, 7.303919, 35.125000
10.052982, 7.303919, 35.250000
10.052982, 7.303919, 35.375000
10.348658, 7.518740, 35.500000
10.052982, 7.303919, 35.625000
10.052982, 7.303919, 35.750000
10.052982, 7.303919, 35.875000
10.052982, 7.303919, 36.000000
9.757306, 7.089098, 36.125000
9.757306, 7.089098, 36.250000
9.757306, 7.089098, 36.375000
10.052982, 7.303919, 36.500000
9.461630, 6.874276, 36.625000
9.757306, 7.089098, 36.750000
9.757306, 7.089098, 36.875000
9.461630, 6.874276, 37.000000
9.461630, 6.874276, 37.125000
9.461630, 6.874276, 37.250000
9.461630, 6.874276, 37.375000
9.757306, 7.089098, 37.500000
9.461630, 6.874276, 37.625000
9.461630, 6.874276, 37.750000
9.461630, 6.874276, 37.875000
9.461630, 6.874276, 38.000000
9.165954, 6.659455, 38.125000
9.165954, 6.659455, 38.250000
9.165954, 6.659455, 38.375000
8.870278, 6.444634, 38.500000
8.870278, 6.444634, 38.625000
8.870278, 6.444634, 38.750000
8.870278, 6.444634, 38.875000
8.870278, 6.444634, 39.000000
8.870278, 6.444634, 39.125000
8.870278, 6.444634, 39.250000
8.870278, 6.444634, 39.375000
8.574602, 6.229813, 39.500000
8.574602, 6.229813, 39.625000
8.574602, 6.229813, 39.750000
8.870278, 6.444634, 39.875000
8.574602, 6.229813, 40.000000
8.870278, 6.444634, 40.125000
8.870278, 6.444634, 40.250000
8.870278, 6.444634, 40.375000
9.165954, 6.659455, 40.500000
9.165954, 6.659455, 40.625000
9.461630, 6.874276, 40.750000
9.165954, 6.659455, 40.875000
9.461630, 6.874276, 41.000000
9.757306, 7.089098, 41.125000
9.757306, 7.089098, 41.250000
9.461630, 6.874276, 41.375000
9.757306, 7.089098, 41.500000
9.757306, 7.089098, 41.625000
9.757306, 7.089098, 41.750000
10.052982, 7.303919, 41.875000
10.052982, 7.303919, 42.000000
10.348658, 7.518740, 42.125000
10.348658, 7.518740, 42.250000
10.348658, 7.518740, 42.375000
10.348658, 7.518740, 42.500000
10.348658, 7.518740, 42.625000
10.348658, 7.518740, 42.750000
10.644334, 7.733561, 42.875000
10.644334, 7.733561, 43.000000
10.644334, 7.733561, 43.125000
10.644334, 7.733561, 43.250000
10.940009, 7.948382, 43.375000
10.940009, 7.948382, 43.500000
10.940009, 7.948382, 43.625000
10.940009, 7.948382, 43.750000
11.235685, 8.163203, 43.875000
11.235685, 8.163203, 44.000000
11.235685, 8.163203, 44.125000
11.235685, 8.163203, 44.250000
11.235685, 8.163203, 44.375000
11.235685, 8.163203, 44.500000
11.235685, 8.163203, 44.625000
11.531361, 8.378024, 44.750000
11.235685, 8.163203, 44.875000
11.235685, 8.163203, 45.000000
11.531361, 8.378024, 45.125000
11.531361, 8.378024, 45.250000
11.827037, 8.592846, 45.375000
11.531361, 8.378024, 45.500000
11.531361, 8.378024, 45.625000
11.531361, 8.378024, 45.750000
11.827037, 8.592846, 45.875000
11.531361, 8.378024, 46.000000
11.827037, 8.592846, 46.125000
11.827037, 8.592846, 46.250000
11.531361, 8.378024, 46.375000
11.827037, 8.592846, 46.500000
11.531361, 8.378024, 46.625000
11.531361, 8.378024, 46.750000
11.531361, 8.378024, 46.875000
11.827037, 8.592846, 47.000000
11.827037, 8.592846, 47.125000
11.531361, 8.378024, 47.250000
11.531361, 8.378024, 47.375000
11.531361, 8.378024, 47.500000
11.531361, 8.378024, 47.625000
11.531361, 8.378024, 47.750000
11.531361, 8.378024, 47.875000
11.531361, 8.378024, 48.000000
11.531361, 8.378024, 48.125000
11.531361, 8.378024, 48.250000
11.531361, 8.378024, 48.375000
11.235685, 8.163203, 48.500000
11.531361, 8.378024, 48.625000
11.235685, 8.163203, 48.750000
11.235685, 8.163203, 48.875000
11.235685, 8.163203, 49.000000
11.235685, 8.163203, 49.125000
11.235685, 8.163203, 49.250000
10.940009, 7.948382, 49.375000
11.235685, 8.163203, 49.500000
10.940009, 7.948382, 49.625000
10.940009, 7.948382, 49.750000
11.235685, 8.163203, 49.875000
10.940009, 7.948382, 50.000000
10.644334, 7.733561, 50.125000
10.644334, 7.733561, 50.250000
10.644334, 7.733561, 50.375000
10.644334, 7.733561, 50.500000
10.644334, 7.733561, 50.625000
10.644334, 7.733561, 50.750000
10.644334, 7.733561, 50.875000
10.940009, 7.948382, 51.000000
10.940009, 7.948382, 51.125000
10.940009, 7.948382, 51.250000
11.235685, 8.163203, 51.375000
11.235685, 8.163203, 51.500000
11.531361, 8.378024, 51.625000
11.531361, 8.378024, 51.750000
11.827037, 8.592846, 51.875000
11.827037, 8.592846, 52.000000
12.122713, 8.807667, 52.125000
12.122713, 8.807667, 52.250000
12.418389, 9.022488, 52.375000
12.418389, 9.022488, 52.500000
12.418389, 9.022488, 52.625000
12.418389, 9.022488, 52.750000
12.418389, 9.022488, 52.875000
12.714065, 9.237309, 53.000000
13.009741, 9.452130, 53.125000
13.009741, 9.452130, 53.250000
13.009741, 9.452130, 53.375000
13.009741, 9.452130, 53.500000
13.009741, 9.452130, 53.625000
13.009741, 9.452130, 53.750000
13.305417, 9.666951, 53.875000
13.305417, 9.666951, 54.000000
13.305417, 9.666951, 54.125000
13.305417, 9.666951, 54.250000
13.305417, 9.666951, 54.375000
13.601093, 9.881772, 54.500000
13.896769, 10.096594, 54.625000
13.896769, 10.096594, 54.750000
13.896769, 10.096594, 54.875000
13.896769, 10.096594, 55.000000
14.192445, 10.311415, 55.125000
14.192445, 10.311415, 55.250000
14.192445, 10.311415, 55.375000
14.192445, 10.311415, 55.500000
14.488121, 10.526236, 55.625000
14.488121, 10.526236, 55.750000
14.488121, 10.526236, 55.875000
14.783797, 10.741057, 56.000000
14.783797, 10.741057, 56.125000
15.079472, 10.955878, 56.250000
15.079472, 10.955878, 56.375000
15.079472, 10.955878, 56.500000
15.375148, 11.170699, 56.625000
15.375148, 11.170699, 56.750000
15.375148, 11.170699, 56.875000
15.670824, 11.385520, 57.000000
15.670824, 11.385520, 57.125000
15.670824, 11.385520, 57.250000
15.966500, 11.600341, 57.375000
15.966500, 11.600341, 57.500000
16.262176, 11.815163, 57.625000
16.262176, 11.815163, 57.750000
16.262176, 11.815163, 57.875000
16.557852, 12.029984, 58.000000
16.262176, 11.815163, 58.125000
16.557852, 12.029984, 58.250000
16.557852, 12.029984, 58.375000
16.557852, 12.029984, 58.500000
16.853528, 12.244805, 58.625000
17.149204, 12.459626, 58.750000
16.853528, 12.244805, 58.875000
17.149204, 12.459626, 59.000000
17.149204, 12.459626, 59.125000
17.444880, 12.674447, 59.250000
17.740556, 12.889268, 59.375000
18.036232, 13.104089, 59.500000
18.036232, 13.104089, 59.625000
18.331908, 13.318911, 59.750000
18.331908, 13.318911, 59.875000
18.331908, 13.318911, 60.000000
18.331908, 13.318911, 60.125000
18.627584, 13.533732, 60.250000
18.923260, 13.748553, 60.375000
19.218936, 13.963374, 60.500000
19.218936, 13.963374, 60.625000
19.218936, 13.963374, 60.750000
19.218936, 13.963374, 60.875000
19.218936, 13.963374, 61.000000
19.810287, 14.393016, 61.125000
19.810287, 14.393016, 61.250000
19.810287, 14.393016, 61.375000
19.810287, 14.393016, 61.500000
19.810287, 14.393016, 61.625000
19.810287, 14.393016, 61.750000
20.105963, 14.607837, 61.875000
20.105963, 14.607837, 62.000000
20.105963, 14.607837, 62.125000
20.105963, 14.607837, 62.250000
20.105963, 14.607837, 62.375000
20.105963, 14.607837, 62.500000
20.105963, 14.607837, 62.625000
20.105963, 14.607837, 62.750000
20.105963, 14.607837, 62.875000
20.401639, 14.822659, 63.000000
20.401639, 14.822659, 63.125000
20.697315, 15.037480, 63.250000
20.697315, 15.037480, 63.375000
20.401639, 14.822659, 63.500000
20.401639, 14.822659, 63.625000
20.401639, 14.822659, 63.750000
20.401639, 14.822659, 63.875000
20.105963, 14.607837, 64.000000
20.401639, 14.822659, 64.125000
20.697315, 15.037480, 64.250000
20.105963, 14.607837, 64.375000
20.105963, 14.607837, 64.500000
20.105963, 14.607837, 64.625000
20.105963, 14.607837, 64.750000
20.105963, 14.607837, 64.875000
20.401639, 14.822659, 65.000000
20.105963, 14.607837, 65.125000
20.105963, 14.607837, 65.250000
20.401639, 14.822659, 65.375000
20.105963, 14.607837, 65.500000
20.105963, 14.607837, 65.625000
20.105963, 14.607837, 65.750000
20.105963, 14.607837, 65.875000
19.810287, 14.393016, 66.000000
20.105963, 14.607837, 66.125000
19.810287, 14.393016, 66.250000
19.810287, 14.393016, 66.375000
19.810287, 14.393016, 66.500000
19.514611, 14.178195, 66.625000
19.514611, 14.178195, 66.750000
19.514611, 14.178195, 66.875000
19.218936, 13.963374, 67.000000
19.218936, 13.963374, 67.125000
19.514611, 14.178195, 67.250000
19.514611, 14.178195, 67.375000
19.218936, 13.963374, 67.500000
19.218936, 13.963374, 67.625000
18.923260, 13.748553, 67.750000
18.923260, 13.748553, 67.875000
18.923260, 13.748553, 68.000000
18.627584, 13.533732, 68.125000
18.627584, 13.533732, 68.250000
18.627584, 13.533732, 68.375000
18.331908, 13.318911, 68.500000
18.036232, 13.104089, 68.625000
18.036232, 13.104089, 68.750000
18.036232, 13.104089, 68.875000
18.331908, 13.318911, 69.000000
18.331908, 13.318911, 69.125000
18.036232, 13.104089, 69.250000
18.036232, 13.104089, 69.375000
18.036232, 13.104089, 69.500000
18.036232, 13.104089, 69.625000
17.740556, 12.889268, 69.750000
17.740556, 12.889268, 69.875000
17.444880, 12.674447, 70.000000
17.444880, 12.674447, 70.125000
17.444880, 12.674447, 70.250000
17.444880, 12.674447, 70.375000
17.149204, 12.459626, 70.500000
17.149204, 12.459626, 70.625000
17.149204, 12.459626, 70.750000
16.853528, 12.244805, 70.875000
16.853528, 12.244805, 71.000000
16.853528, 12.244805, 71.125000
16.853528, 12.244805, 71.250000
16.853528, 12.244805, 71.375000
16.853528, 12.244805, 71.500000
16.853528, 12.244805, 71.625000
16.853528, 12.244805, 71.750000
16.853528, 12.244805, 71.875000
16.853528, 12.244805, 72.000000
16.557852, 12.029984, 72.125000
16.557852, 12.029984, 72.250000
16.262176, 11.815163, 72.375000
16.262176, 11.815163, 72.500000
16.262176, 11.815163, 72.625000
16.262176, 11.815163, 72.750000
16.262176, 11.815163, 72.875000
15.966500, 11.600341, 73.000000
15.966500, 11.600341, 73.125000
15.966500, 11.600341, 73.250000
15.966500, 11.600341, 73.375000
15.670824, 11.385520, 73.500000
15.670824, 11.385520, 73.625000
15.375148, 11.170699, 73.750000
15.670824, 11.385520, 73.875000
15.670824, 11.385520, 74.000000
15.375148, 11.170699, 74.125000
15.670824, 11.385520, 74.250000
15.670824, 11.385520, 74.375000
15.670824, 11.385520, 74.500000
15.966500, 11.600341, 74.625000
15.966500, 11.600341, 74.750000
15.966500, 11.600341, 74.875000
15.966500, 11.600341, 75.000000
15.966500, 11.600341, 75.125000
16.262176, 11.815163, 75.250000
16.262176, 11.815163, 75.375000
16.557852, 12.029984, 75.500000
16.557852, 12.029984, 75.625000
16.557852, 12.029984, 75.750000
16.557852, 12.029984, 75.875000
16.853528, 12.244805, 76.000000
16.853528, 12.244805, 76.125000
17.149204, 12.459626, 76.250000
17.149204, 12.459626, 76.375000
17.740556, 12.889268, 76.500000
17.740556, 12.889268, 76.625000
17.444880, 12.674447, 76.750000
17.740556, 12.889268, 76.875000
18.036232, 13.104089, 77.000000
18.036232, 13.104089, 77.125000
18.036232, 13.104089, 77.250000
18.036232, 13.104089, 77.375000
18.331908, 13.318911, 77.500000
18.627584, 13.533732, 77.625000
18.627584, 13.533732, 77.750000
18.627584, 13.533732, 77.875000
18.923260, 13.748553, 78.000000
18.923260, 13.748553, 78.125000
18.923260, 13.748553, 78.250000
19.218936, 13.963374, 78.375000
19.514611, 14.178195, 78.500000
19.514611, 14.178195, 78.625000
19.514611, 14.178195, 78.750000
19.810287, 14.393016, 78.875000
20.105963, 14.607837, 79.000000
20.105963, 14.607837, 79.125000
20.105963, 14.607837, 79.250000
20.401639, 14.822659, 79.375000
20.401639, 14.822659, 79.500000
20.697315, 15.037480, 79.625000
20.697315, 15.037480, 79.750000
20.697315, 15.037480, 79.875000
20.992991, 15.252301, 80.000000
20.992991, 15.252301, 80.125000
20.992991, 15.252301, 80.250000
21.584343, 15.681943, 80.375000
21.288667, 15.467122, 80.500000
21.584343, 15.681943, 80.625000
21.584343, 15.681943, 80.750000
21.584343, 15.681943, 80.875000
21.880019, 15.896764, 81.000000
21.880019, 15.896764, 81.125000
21.880019, 15.896764, 81.250000
21.880019, 15.896764, 81.375000
21.880019, 15.896764, 81.500000
21.880019, 15.896764, 81.625000
22.175695, 16.111585, 81.750000
22.175695, 16.111585, 81.875000
22.175695, 16.111585, 82.000000
22.471371, 16.326407, 82.125000
22.471371, 16.326407, 82.250000
32.228676, 23.415504, 101.750000
32.228676, 23.415504, 101.875000
32.524352, 23.630325, 102.000000
32.228676, 23.415504, 102.125000
33.707056, 24.489610, 102.250000
32.820028, 23.845146, 102.375000
32.820028, 23.845146, 102.500000
37.255167, 27.067463, 102.625000
34.889760, 25.348894, 102.750000
35.185436, 25.563715, 102.875000
34.594084, 25.134073, 103.000000
35.185436, 25.563715, 103.125000
35.185436, 25.563715, 103.250000
37.846519, 27.497106, 103.375000
37.550843, 27.282285, 103.500000
4.042953, 3.136036, 19.500000
4.042953, 3.136036, 19.625000
4.042953, 3.136036, 19.750000
4.331735, 3.360038, 19.875000
4.909300, 3.808043, 20.000000
5.198082, 4.032046, 20.125000
4.909300, 3.808043, 20.250000
5.198082, 4.032046, 20.375000
5.486864, 4.256048, 20.500000
5.198082, 4.032046, 20.625000
5.775647, 4.480051, 20.750000
5.775647, 4.480051, 20.875000
5.486864, 4.256048, 21.000000
5.775647, 4.480051, 21.125000
5.775647, 4.480051, 21.250000
6.064429, 4.704053, 21.375000
6.064429, 4.704053, 21.500000
6.353211, 4.928056, 21.625000
6.641994, 5.152058, 21.750000
6.641994, 5.152058, 21.875000
6.353211, 4.928056, 22.000000
6.641994, 5.152058, 22.125000
6.930776, 5.376061, 22.250000
6.930776, 5.376061, 22.375000
6.930776, 5.376061, 22.500000
7.219558, 5.600064, 22.625000
7.219558, 5.600064, 22.750000
7.219558, 5.600064, 22.875000
7.797123, 6.048069, 23.000000
7.797123, 6.048069, 23.125000
7.797123, 6.048069, 23.250000
7.797123, 6.048069, 23.375000
7.797123, 6.048069, 23.500000
8.085905, 6.272071, 23.625000
8.085905, 6.272071, 23.750000
8.374688, 6.496074, 23.875000
8.374688, 6.496074, 24.000000
8.374688, 6.496074, 24.125000
8.374688, 6.496074, 24.250000
8.663470, 6.720076, 24.375000
8.952252, 6.944079, 24.500000
8.663470, 6.720076, 24.625000
8.663470, 6.720076, 24.750000
8.663470, 6.720076, 24.875000
9.241035, 7.168081, 25.000000
8.952252, 6.944079, 25.125000
9.241035, 7.168081, 25.250000
9.529817, 7.392084, 25.375000
9.241035, 7.168081, 25.500000
9.529817, 7.392084, 25.625000
9.818599, 7.616086, 25.750000
9.529817, 7.392084, 25.875000
9.818599, 7.616086, 26.000000
10.107382, 7.840089, 26.125000
9.818599, 7.616086, 26.250000
9.818599, 7.616086, 26.375000
10.107382, 7.840089, 26.500000
10.107382, 7.840089, 26.625000
10.396164, 8.064092, 26.750000
10.396164, 8.064092, 26.875000
10.684946, 8.288094, 27.000000
10.396164, 8.064092, 27.125000
10.684946, 8.288094, 27.250000
10.684946, 8.288094, 27.375000
10.973729, 8.512097, 27.500000
10.973729, 8.512097, 27.625000
10.973729, 8.512097, 27.750000
10.973729, 8.512097, 27.875000
10.973729, 8.512097, 28.000000
11.262511, 8.736099, 28.125000
11.262511, 8.736099, 28.250000
11.551294, 8.960102, 28.375000
11.262511, 8.736099, 28.500000
11.262511, 8.736099, 28.625000
11.551294, 8.960102, 28.750000
11.551294, 8.960102, 28.875000
11.551294, 8.960102, 29.000000
11.840076, 9.184104, 29.125000
11.840076, 9.184104, 29.250000
12.128858, 9.408107, 29.375000
11.840076, 9.184104, 29.500000
12.128858, 9.408107, 29.625000
12.128858, 9.408107, 29.750000
12.417641, 9.632109, 29.875000
12.417641, 9.632109, 30.000000
12.417641, 9.632109, 30.125000
12.417641, 9.632109, 30.250000
12.417641, 9.632109, 30.375000
12.417641, 9.632109, 30.500000
12.417641, 9.632109, 30.625000
12.417641, 9.632109, 30.750000
12.706423, 9.856112, 30.875000
12.417641, 9.632109, 31.000000
12.706423, 9.856112, 31.125000
12.706423, 9.856112, 31.250000
12.706423, 9.856112, 31.375000
12.706423, 9.856112, 31.500000
12.706423, 9.856112, 31.625000
12.417641, 9.632109, 31.750000
12.706423, 9.856112, 31.875000
12.706423, 9.856112, 32.000000
12.417641, 9.632109, 32.125000
12.417641, 9.632109, 32.250000
12.417641, 9.632109, 32.375000
12.128858, 9.408107, 32.500000
12.417641, 9.632109, 32.625000
11.840076, 9.184104, 32.750000
12.128858, 9.408107, 32.875000
11.551294, 8.960102, 33.000000
11.551294, 8.960102, 33.125000
11.262511, 8.736099, 33.250000
11.262511, 8.736099, 33.375000
11.262511, 8.736099, 33.500000
11.262511, 8.736099, 33.625000
10.973729, 8.512097, 33.750000
10.973729, 8.512097, 33.875000
10.973729, 8.512097, 34.000000
10.973729, 8.512097, 34.125000
10.973729, 8.512097, 34.250000
10.973729, 8.512097, 34.375000
10.973729, 8.512097, 34.500000
10.973729, 8.512097, 34.625000
10.684946, 8.288094, 34.750000
10.684946, 8.288094, 34.875000
10.684946, 8.288094, 35.000000
10.684946, 8.288094, 35.125000
10.684946, 8.288094, 35.250000
10.396164, 8.064092, 35.375000
10.396164, 8.064092, 35.500000
10.396164, 8.064092, 35.625000
10.396164, 8.064092, 35.750000
10.396164, 8.064092, 35.875000
10.107382, 7.840089, 36.000000
10.396164, 8.064092, 36.125000
10.107382, 7.840089, 36.250000
10.396164, 8.064092, 36.375000
10.107382, 7.840089, 36.500000
10.107382, 7.840089, 36.625000
10.107382, 7.840089, 36.750000
10.107382, 7.840089, 36.875000
10.107382, 7.840089, 37.000000
10.107382, 7.840089, 37.125000
10.107382, 7.840089, 37.250000
10.107382, 7.840089, 37.375000
10.107382, 7.840089, 37.500000
9.818599, 7.616086, 37.625000
9.818599, 7.616086, 37.750000
9.818599, 7.616086, 37.875000
9.818599, 7.616086, 38.000000
9.818599, 7.616086, 38.125000
9.818599, 7.616086, 38.250000
9.818599, 7.616086, 38.375000
9.818599, 7.616086, 38.500000
9.529817, 7.392084, 38.625000
9.529817, 7.392084, 38.750000
9.529817, 7.392084, 38.875000
9.529817, 7.392084, 39.000000
9.241035, 7.168081, 39.125000
9.241035, 7.168081, 39.250000
8.952252, 6.944079, 39.375000
8.952252, 6.944079, 39.500000
8.952252, 6.944079, 39.625000
8.374688, 6.496074, 39.750000
8.663470, 6.720076, 39.875000
8.374688, 6.496074, 40.000000
8.663470, 6.720076, 40.125000
8.663470, 6.720076, 40.250000
8.663470, 6.720076, 40.375000
8.663470, 6.720076, 40.500000
8.663470, 6.720076, 40.625000
8.663470, 6.720076, 40.750000
8.952252, 6.944079, 40.875000
8.374688, 6.496074, 41.000000
8.952252, 6.944079, 41.125000
8.663470, 6.720076, 41.250000
8.663470, 6.720076, 41.375000
8.952252, 6.944079, 41.500000
8.952252, 6.944079, 41.625000
8.952252, 6.944079, 41.750000
8.952252, 6.944079, 41.875000
9.241035, 7.168081, 42.000000
9.529817, 7.392084, 42.125000
9.241035, 7.168081, 42.250000
9.241035, 7.168081, 42.375000
9.241035, 7.168081, 42.500000
9.241035, 7.168081, 42.625000
9.529817, 7.392084, 42.750000
9.529817, 7.392084, 42.875000
9.818599, 7.616086, 43.000000
9.818599, 7.616086, 43.125000
9.818599, 7.616086, 43.250000
9.818599, 7.616086, 43.375000
9.818599, 7.616086, 43.500000
9.818599, 7.616086, 43.625000
9.818599, 7.616086, 43.750000
10.107382, 7.840089, 43.875000
10.107382, 7.840089, 44.000000
10.396164, 8.064092, 44.125000
10.107382, 7.840089, 44.250000
10.107382, 7.840089, 44.375000
10.107382, 7.840089, 44.500000
10.107382, 7.840089, 44.625000
10.107382, 7.840089, 44.750000
10.107382, 7.840089, 44.875000
10.396164, 8.064092, 45.000000
10.107382, 7.840089, 45.125000
10.107382, 7.840089, 45.250000
10.107382, 7.840089, 45.375000
10.396164, 8.064092, 45.500000
10.396164, 8.064092, 45.625000
10.396164, 8.064092, 45.750000
10.396164, 8.064092, 45.875000
10.396164, 8.064092, 46.000000
10.396164, 8.064092, 46.125000
10.684946, 8.288094, 46.250000
10.396164, 8.064092, 46.375000
10.396164, 8.064092, 46.500000
10.396164, 8.064092, 46.625000
10.396164, 8.064092, 46.750000
10.396164, 8.064092, 46.875000
10.396164, 8.064092, 47.000000
10.396164, 8.064092, 47.125000
10.396164, 8.064092, 47.250000
10.396164, 8.064092, 47.375000
10.396164, 8.064092, 47.500000
10.396164, 8.064092, 47.625000
10.684946, 8.288094, 47.750000
10.396164, 8.064092, 47.875000
10.396164, 8.064092, 48.000000
10.396164, 8.064092, 48.125000
10.396164, 8.064092, 48.250000
10.396164, 8.064092, 48.375000
10.396164, 8.064092, 48.500000
10.396164, 8.064092, 48.625000
10.396164, 8.064092, 48.750000
10.107382, 7.840089, 48.875000
10.396164, 8.064092, 49.000000
10.396164, 8.064092, 49.125000
10.396164, 8.064092, 49.250000
10.107382, 7.840089, 49.375000
10.396164, 8.064092, 49.500000
10.396164, 8.064092, 49.625000
10.107382, 7.840089, 49.750000
10.396164, 8.064092, 49.875000
10.107382, 7.840089, 50.000000
10.396164, 8.064092, 50.125000
10.396164, 8.064092, 50.250000
10.396164, 8.064092, 50.375000
10.396164, 8.064092, 50.500000
10.396164, 8.064092, 50.625000
10.396164, 8.064092, 50.750000
10.973729, 8.512097, 50.875000
11.262511, 8.736099, 51.000000
11.262511, 8.736099, 51.125000
11.551294, 8.960102, 51.250000
11.840076, 9.184104, 51.375000
11.840076, 9.184104, 51.500000
11.840076, 9.184104, 51.625000
12.128858, 9.408107, 51.750000
12.417641, 9.632109, 51.875000
12.417641, 9.632109, 52.000000
12.417641, 9.632109, 52.125000
12.417641, 9.632109, 52.250000
12.417641, 9.632109, 52.375000
12.995205, 10.080114, 52.500000
12.706423, 9.856112, 52.625000
12.995205, 10.080114, 52.750000
12.995205, 10.080114, 52.875000
13.283988, 10.304117, 53.000000
12.995205, 10.080114, 53.125000
13.283988, 10.304117, 53.250000
13.283988, 10.304117, 53.375000
13.283988, 10.304117, 53.500000
13.572770, 10.528119, 53.625000
13.572770, 10.528119, 53.750000
13.572770, 10.528119, 53.875000
13.861552, 10.752122, 54.000000
13.861552, 10.752122, 54.125000
14.150335, 10.976125, 54.250000
14.150335, 10.976125, 54.375000
14.439117, 11.200127, 54.500000
14.150335, 10.976125, 54.625000
14.439117, 11.200127, 54.750000
14.439117, 11.200127, 54.875000
14.439117, 11.200127, 55.000000
14.727899, 11.424130, 55.125000
14.727899, 11.424130, 55.250000
14.727899, 11.424130, 55.375000
15.016682, 11.648132, 55.500000
15.016682, 11.648132, 55.625000
15.305464, 11.872135, 55.750000
15.305464, 11.872135, 55.875000
15.305464, 11.872135, 56.000000
15.594246, 12.096137, 56.125000
15.883029, 12.320140, 56.250000
15.883029, 12.320140, 56.375000
15.883029, 12.320140, 56.500000
16.171811, 12.544142, 56.625000
15.883029, 12.320140, 56.750000
16.171811, 12.544142, 56.875000
16.171811, 12.544142, 57.000000
16.460593, 12.768145, 57.125000
16.460593, 12.768145, 57.250000
16.460593, 12.768145, 57.375000
16.749376, 12.992147, 57.500000
16.749376, 12.992147, 57.625000
16.749376, 12.992147, 57.750000
17.038158, 13.216150, 57.875000
17.326940, 13.440153, 58.000000
17.326940, 13.440153, 58.125000
17.615723, 13.664155, 58.250000
17.615723, 13.664155, 58.375000
17.904505, 13.888158, 58.500000
17.904505, 13.888158, 58.625000
18.193287, 14.112160, 58.750000
18.193287, 14.112160, 58.875000
18.482070, 14.336163, 59.000000
18.770852, 14.560165, 59.125000
18.770852, 14.560165, 59.250000
18.770852, 14.560165, 59.375000
19.059634, 14.784168, 59.500000
19.059634, 14.784168, 59.625000
19.059634, 14.784168, 59.750000
19.059634, 14.784168, 59.875000
19.637199, 15.232173, 60.000000
19.348417, 15.008170, 60.125000
19.348417, 15.008170, 60.250000
19.637199, 15.232173, 60.375000
19.637199, 15.232173, 60.500000
19.637199, 15.232173, 60.625000
19.637199, 15.232173, 60.750000
19.637199, 15.232173, 60.875000
19.925981, 15.456175, 61.000000
19.925981, 15.456175, 61.125000
19.925981, 15.456175, 61.250000
19.925981, 15.456175, 61.375000
20.214764, 15.680178, 61.500000
20.214764, 15.680178, 61.625000
20.214764, 15.680178, 61.750000
19.925981, 15.456175, 61.875000
19.925981, 15.456175, 62.000000
20.214764, 15.680178, 62.125000
20.214764, 15.680178, 62.250000
20.214764, 15.680178, 62.375000
19.925981, 15.456175, 62.500000
19.925981, 15.456175, 62.625000
19.925981, 15.456175, 62.750000
19.925981, 15.456175, 62.875000
19.925981, 15.456175, 63.000000
19.925981, 15.456175, 63.125000
19.925981, 15.456175, 63.250000
19.925981, 15.456175, 63.375000
19.925981, 15.456175, 63.500000
19.925981, 15.456175, 63.625000
19.637199, 15.232173, 63.750000
19.925981, 15.456175, 63.875000
19.637199, 15.232173, 64.000000
19.925981, 15.456175, 64.125000
19.925981, 15.456175, 64.250000
19.637199, 15.232173, 64.375000
19.637199, 15.232173, 64.500000
19.925981, 15.456175, 64.625000
19.925981, 15.456175, 64.750000
19.637199, 15.232173, 64.875000
19.637199, 15.232173, 65.000000
19.637199, 15.232173, 65.125000
19.348417, 15.008170, 65.250000
19.348417, 15.008170, 65.375000
19.348417, 15.008170, 65.500000
19.348417, 15.008170, 65.625000
19.348417, 15.008170, 65.750000
19.637199, 15.232173, 65.875000
19.637199, 15.232173, 66.000000
19.637199, 15.232173, 66.125000
19.348417, 15.008170, 66.250000
19.348417, 15.008170, 66.375000
19.348417, 15.008170, 66.500000
19.059634, 14.784168, 66.625000
19.059634, 14.784168, 66.750000
18.770852, 14.560165, 66.875000
18.770852, 14.560165, 67.000000
18.770852, 14.560165, 67.125000
19.059634, 14.784168, 67.250000
18.482070, 14.336163, 67.375000
18.770852, 14.560165, 67.500000
18.482070, 14.336163, 67.625000
18.482070, 14.336163, 67.750000
18.482070, 14.336163, 67.875000
18.193287, 14.112160, 68.000000
18.193287, 14.112160, 68.125000
17.904505, 13.888158, 68.250000
17.904505, 13.888158, 68.375000
17.615723, 13.664155, 68.500000
17.615723, 13.664155, 68.625000
17.615723, 13.664155, 68.750000
17.615723, 13.664155, 68.875000
17.615723, 13.664155, 69.000000
17.615723, 13.664155, 69.125000
17.615723, 13.664155, 69.250000
17.615723, 13.664155, 69.375000
17.326940, 13.440153, 69.500000
17.615723, 13.664155, 69.625000
17.326940, 13.440153, 69.750000
17.615723, 13.664155, 69.875000
17.326940, 13.440153, 70.000000
17.326940, 13.440153, 70.125000
17.038158, 13.216150, 70.250000
17.038158, 13.216150, 70.375000
16.749376, 12.992147, 70.500000
16.749376, 12.992147, 70.625000
16.749376, 12.992147, 70.750000
16.749376, 12.992147, 70.875000
16.749376, 12.992147, 71.000000
16.460593, 12.768145, 71.125000
16.749376, 12.992147, 71.250000
16.460593, 12.768145, 71.375000
16.460593, 12.768145, 71.500000
16.171811, 12.544142, 71.625000
16.171811, 12.544142, 71.750000
16.460593, 12.768145, 71.875000
16.460593, 12.768145, 72.000000
16.460593, 12.768145, 72.125000
16.171811, 12.544142, 72.250000
16.171811, 12.544142, 72.375000
15.883029, 12.320140, 72.500000
15.883029, 12.320140, 72.625000
15.594246, 12.096137, 72.750000
15.594246, 12.096137, 72.875000
15.594246, 12.096137, 73.000000
15.594246, 12.096137, 73.125000
15.594246, 12.096137, 73.250000
15.594246, 12.096137, 73.375000
15.305464, 11.872135, 73.500000
15.594246, 12.096137, 73.625000
15.305464, 11.872135, 73.750000
15.305464, 11.872135, 73.875000
15.305464, 11.872135, 74.000000
15.305464, 11.872135, 74.125000
15.305464, 11.872135, 74.250000
15.305464, 11.872135, 74.375000
15.594246, 12.096137, 74.500000
15.594246, 12.096137, 74.625000
15.594246, 12.096137, 74.750000
15.594246, 12.096137, 74.875000
15.594246, 12.096137, 75.000000
15.594246, 12.096137, 75.125000
15.883029, 12.320140, 75.250000
15.883029, 12.320140, 75.375000
16.171811, 12.544142, 75.500000
16.171811, 12.544142, 75.625000
16.460593, 12.768145, 75.750000
16.460593, 12.768145, 75.875000
16.460593, 12.768145, 76.000000
16.460593, 12.768145, 76.125000
16.749376, 12.992147, 76.250000
16.749376, 12.992147, 76.375000
17.038158, 13.216150, 76.500000
17.326940, 13.440153, 76.625000
17.038158, 13.216150, 76.750000
17.326940, 13.440153, 76.875000
17.326940, 13.440153, 77.000000
17.904505, 13.888158, 77.125000
17.615723, 13.664155, 77.250000
17.615723, 13.664155, 77.375000
17.615723, 13.664155, 77.500000
17.904505, 13.888158, 77.625000
18.193287, 14.112160, 77.750000
18.482070, 14.336163, 77.875000
18.482070, 14.336163, 78.000000
18.482070, 14.336163, 78.125000
18.770852, 14.560165, 78.250000
19.059634, 14.784168, 78.375000
19.059634, 14.784168, 78.500000
19.059634, 14.784168, 78.625000
19.348417, 15.008170, 78.750000
19.348417, 15.008170, 78.875000
19.637199, 15.232173, 79.000000
19.637199, 15.232173, 79.125000
19.637199, 15.232173, 79.250000
19.925981, 15.456175, 79.375000
19.925981, 15.456175, 79.500000
20.214764, 15.680178, 79.625000
20.503546, 15.904181, 79.750000
20.503546, 15.904181, 79.875000
20.503546, 15.904181, 80.000000
20.503546, 15.904181, 80.125000
20.792328, 16.128183, 80.250000
20.792328, 16.128183, 80.375000
21.081111, 16.352186, 80.500000
21.081111, 16.352186, 80.625000
21.081111, 16.352186, 80.750000
21.369893, 16.576188, 80.875000
21.369893, 16.576188, 81.000000
21.369893, 16.576188, 81.125000
21.658675, 16.800191, 81.250000
21.658675, 16.800191, 81.375000
21.658675, 16.800191, 81.500000
21.658675, 16.800191, 81.625000
21.947458, 17.024193, 81.750000
21.658675, 16.800191, 81.875000
21.658675, 16.800191, 82.000000
21.658675, 16.800191, 82.125000
31.766057, 24.640280, 101.750000
31.477275, 24.416277, 101.875000
31.766057, 24.640280, 102.000000
31.477275, 24.416277, 102.125000
32.921187, 25.536290, 102.250000
32.054839, 24.864282, 102.375000
31.477275, 24.416277, 102.500000
36.386575, 28.224320, 102.625000
34.076316, 26.432300, 102.750000
34.365098, 26.656303, 102.875000
34.076316, 26.432300, 103.000000
34.365098, 26.656303, 103.125000
34.365098, 26.656303, 103.250000
36.964139, 28.672325, 103.375000
36.675357, 28.448323, 103.500000
36.675357, 28.448323, 103.625000
3.942453, 3.261480, 19.750000
3.660849, 3.028517, 19.875000
4.224056, 3.494443, 20.000000
4.505660, 3.727406, 20.125000
4.787264, 3.960369, 20.250000
4.787264, 3.960369, 20.375000
4.787264, 3.960369, 20.500000
5.068868, 4.193332, 20.625000
5.350471, 4.426295, 20.750000
5.350471, 4.426295, 20.875000
5.632075, 4.659258, 21.000000
5.632075, 4.659258, 21.125000
5.632075, 4.659258, 21.250000
5.913679, 4.892221, 21.375000
6.195283, 5.125183, 21.500000
6.195283, 5.125183, 21.625000
6.476886, 5.358146, 21.750000
6.476886, 5.358146, 21.875000
6.758490, 5.591109, 22.000000
6.758490, 5.591109, 22.125000
6.758490, 5.591109, 22.250000
6.758490, 5.591109, 22.375000
6.758490, 5.591109, 22.500000
7.040094, 5.824072, 22.625000
7.040094, 5.824072, 22.750000
7.040094, 5.824072, 22.875000
7.321698, 6.057035, 23.000000
7.321698, 6.057035, 23.125000
7.603301, 6.289998, 23.250000
7.603301, 6.289998, 23.375000
7.603301, 6.289998, 23.500000
7.884905, 6.522961, 23.625000
7.884905, 6.522961, 23.750000
8.166509, 6.755924, 23.875000
8.166509, 6.755924, 24.000000
8.448113, 6.988886, 24.125000
8.448113, 6.988886, 24.250000
8.448113, 6.988886, 24.375000
8.448113, 6.988886, 24.500000
8.729716, 7.221849, 24.625000
8.729716, 7.221849, 24.750000
9.011320, 7.454812, 24.875000
8.729716, 7.221849, 25.000000
9.011320, 7.454812, 25.125000
9.011320, 7.454812, 25.250000
9.292924, 7.687775, 25.375000
9.292924, 7.687775, 25.500000
9.292924, 7.687775, 25.625000
9.292924, 7.687775, 25.750000
9.292924, 7.687775, 25.875000
9.292924, 7.687775, 26.000000
9.574528, 7.920738, 26.125000
9.856131, 8.153701, 26.250000
9.574528, 7.920738, 26.375000
9.856131, 8.153701, 26.500000
10.137735, 8.386664, 26.625000
10.137735, 8.386664, 26.750000
10.137735, 8.386664, 26.875000
10.137735, 8.386664, 27.000000
10.137735, 8.386664, 27.125000
10.419339, 8.619627, 27.250000
10.700943, 8.852590, 27.375000
10.700943, 8.852590, 27.500000
10.700943, 8.852590, 27.625000
10.700943, 8.852590, 27.750000
10.700943, 8.852590, 27.875000
10.982546, 9.085552, 28.000000
10.982546, 9.085552, 28.125000
10.982546, 9.085552, 28.250000
11.264150, 9.318515, 28.375000
10.982546, 9.085552, 28.500000
10.982546, 9.085552, 28.625000
11.264150, 9.318515, 28.750000
11.264150, 9.318515, 28.875000
11.264150, 9.318515, 29.000000
11.545754, 9.551478, 29.125000
11.545754, 9.551478, 29.250000
11.545754, 9.551478, 29.375000
11.545754, 9.551478, 29.500000
11.827358, 9.784441, 29.625000
12.108961, 10.017404, 29.750000
12.108961, 10.017404, 29.875000
11.827358, 9.784441, 30.000000
12.108961, 10.017404, 30.125000
12.390565, 10.250367, 30.250000
12.390565, 10.250367, 30.375000
12.390565, 10.250367, 30.500000
12.390565, 10.250367, 30.625000
12.672169, 10.483330, 30.750000
12.672169, 10.483330, 30.875000
12.672169, 10.483330, 31.000000
12.672169, 10.483330, 31.125000
12.672169, 10.483330, 31.250000
12.953773, 10.716293, 31.375000
12.953773, 10.716293, 31.500000
12.953773, 10.716293, 31.625000
13.235376, 10.949256, 31.750000
12.953773, 10.716293, 31.875000
13.235376, 10.949256, 32.000000
13.235376, 10.949256, 32.125000
13.235376, 10.949256, 32.250000
13.235376, 10.949256, 32.375000
13.235376, 10.949256, 32.500000
13.516980, 11.182218, 32.625000
13.235376, 10.949256, 32.750000
13.235376, 10.949256, 32.875000
13.516980, 11.182218, 33.000000
13.516980, 11.182218, 33.125000
13.235376, 10.949256, 33.250000
13.235376, 10.949256, 33.375000
13.235376, 10.949256, 33.500000
13.235376, 10.949256, 33.625000
12.953773, 10.716293, 33.750000
12.953773, 10.716293, 33.875000
12.672169, 10.483330, 34.000000
12.953773, 10.716293, 34.125000
12.390565, 10.250367, 34.250000
12.390565, 10.250367, 34.375000
12.390565, 10.250367, 34.500000
11.827358, 9.784441, 34.625000
11.827358, 9.784441, 34.750000
11.545754, 9.551478, 34.875000
11.545754, 9.551478, 35.000000
11.545754, 9.551478, 35.125000
11.545754, 9.551478, 35.250000
11.264150, 9.318515, 35.375000
11.264150, 9.318515, 35.500000
11.264150, 9.318515, 35.625000
10.982546, 9.085552, 35.750000
10.982546, 9.085552, 35.875000
10.982546, 9.085552, 36.000000
11.264150, 9.318515, 36.125000
10.982546, 9.085552, 36.250000
10.700943, 8.852590, 36.375000
10.700943, 8.852590, 36.500000
10.700943, 8.852590, 36.625000
10.700943, 8.852590, 36.750000
10.700943, 8.852590, 36.875000
10.700943, 8.852590, 37.000000
10.700943, 8.852590, 37.125000
10.419339, 8.619627, 37.250000
10.700943, 8.852590, 37.375000
10.700943, 8.852590, 37.500000
10.700943, 8.852590, 37.625000
10.700943, 8.852590, 37.750000
10.419339, 8.619627, 37.875000
10.419339, 8.619627, 38.000000
10.419339, 8.619627, 38.125000
10.137735, 8.386664, 38.250000
10.419339, 8.619627, 38.375000
10.419339, 8.619627, 38.500000
10.419339, 8.619627, 38.625000
10.137735, 8.386664, 38.750000
10.137735, 8.386664, 38.875000
10.419339, 8.619627, 39.000000
10.419339, 8.619627, 39.125000
9.856131, 8.153701, 39.250000
10.137735, 8.386664, 39.375000
9.856131, 8.153701, 39.500000
9.856131, 8.153701, 39.625000
9.856131, 8.153701, 39.750000
9.856131, 8.153701, 39.875000
9.856131, 8.153701, 40.000000
9.292924, 7.687775, 40.125000
9.011320, 7.454812, 40.250000
9.292924, 7.687775, 40.375000
8.729716, 7.221849, 40.500000
9.011320, 7.454812, 40.625000
8.448113, 6.988886, 40.750000
8.166509, 6.755924, 40.875000
8.448113, 6.988886, 41.000000
8.448113, 6.988886, 41.125000
8.448113, 6.988886, 41.250000
8.729716, 7.221849, 41.375000
8.448113, 6.988886, 41.500000
8.448113, 6.988886, 41.625000
8.448113, 6.988886, 41.750000
8.448113, 6.988886, 41.875000
8.448113, 6.988886, 42.000000
8.729716, 7.221849, 42.125000
8.729716, 7.221849, 42.250000
8.729716, 7.221849, 42.375000
8.729716, 7.221849, 42.500000
8.729716, 7.221849, 42.625000
8.729716, 7.221849, 42.750000
8.729716, 7.221849, 42.875000
8.729716, 7.221849, 43.000000
8.729716, 7.221849, 43.125000
9.011320, 7.454812, 43.250000
9.011320, 7.454812, 43.375000
9.011320, 7.454812, 43.500000
9.011320, 7.454812, 43.625000
9.011320, 7.454812, 43.750000
9.011320, 7.454812, 43.875000
9.292924, 7.687775, 44.000000
9.292924, 7.687775, 44.125000
9.292924, 7.687775, 44.250000
9.292924, 7.687775, 44.375000
9.574528, 7.920738, 44.500000
9.292924, 7.687775, 44.625000
9.292924, 7.687775, 44.750000
9.292924, 7.687775, 44.875000
9.292924, 7.687775, 45.000000
9.292924, 7.687775, 45.125000
9.292924, 7.687775, 45.250000
9.292924, 7.687775, 45.375000
9.574528, 7.920738, 45.500000
9.574528, 7.920738, 45.625000
9.574528, 7.920738, 45.750000
9.574528, 7.920738, 45.875000
9.574528, 7.920738, 46.000000
9.574528, 7.920738, 46.125000
9.574528, 7.920738, 46.250000
9.856131, 8.153701, 46.375000
9.574528, 7.920738, 46.500000
9.574528, 7.920738, 46.625000
9.574528, 7.920738, 46.750000
9.574528, 7.920738, 46.875000
9.574528, 7.920738, 47.000000
9.574528, 7.920738, 47.125000
9.574528, 7.920738, 47.250000
9.574528, 7.920738, 47.375000
9.574528, 7.920738, 47.500000
9.574528, 7.920738, 47.625000
9.574528, 7.920738, 47.750000
9.574528, 7.920738, 47.875000
9.574528, 7.920738, 48.000000
9.856131, 8.153701, 48.125000
9.856131, 8.153701, 48.250000
9.574528, 7.920738, 48.375000
9.856131, 8.153701, 48.500000
9.856131, 8.153701, 48.625000
9.856131, 8.153701, 48.750000
9.856131, 8.153701, 48.875000
9.856131, 8.153701, 49.000000
9.856131, 8.153701, 49.125000
9.856131, 8.153701, 49.250000
10.137735, 8.386664, 49.375000
9.856131, 8.153701, 49.500000
9.574528, 7.920738, 49.625000
9.856131, 8.153701, 49.750000
9.856131, 8.153701, 49.875000
9.856131, 8.153701, 50.000000
9.856131, 8.153701, 50.125000
9.856131, 8.153701, 50.250000
11.264150, 9.318515, 50.375000
11.827358, 9.784441, 50.500000
11.827358, 9.784441, 50.625000
11.827358, 9.784441, 50.750000
12.108961, 10.017404, 50.875000
12.108961, 10.017404, 51.000000
12.390565, 10.250367, 51.125000
12.390565, 10.250367, 51.250000
12.672169, 10.483330, 51.375000
12.672169, 10.483330, 51.500000
12.672169, 10.483330, 51.625000
12.672169, 10.483330, 51.750000
12.953773, 10.716293, 51.875000
12.953773, 10.716293, 52.000000
13.235376, 10.949256, 52.125000
12.953773, 10.716293, 52.250000
13.516980, 11.182218, 52.375000
13.235376, 10.949256, 52.500000
13.235376, 10.949256, 52.625000
13.516980, 11.182218, 52.750000
13.798584, 11.415181, 52.875000
13.798584, 11.415181, 53.000000
14.080188, 11.648144, 53.125000
14.080188, 11.648144, 53.250000
14.080188, 11.648144, 53.375000
14.080188, 11.648144, 53.500000
14.080188, 11.648144, 53.625000
