34.737449, -23.607546, 60.875000
34.982079, -23.773796, 61.000000
34.737449, -23.607546, 61.125000
34.737449, -23.607546, 61.250000
34.737449, -23.607546, 61.375000
34.737449, -23.607546, 61.500000
34.737449, -23.607546, 61.625000
34.737449, -23.607546, 61.750000
34.737449, -23.607546, 61.875000
34.492819, -23.441295, 62.000000
34.492819, -23.441295, 62.125000
34.492819, -23.441295, 62.250000
34.492819, -23.441295, 62.375000
34.492819, -23.441295, 62.500000
34.492819, -23.441295, 62.625000
34.492819, -23.441295, 62.750000
34.492819, -23.441295, 62.875000
34.492819, -23.441295, 63.000000
34.492819, -23.441295, 63.125000
34.248189, -23.275045, 63.250000
34.248189, -23.275045, 63.375000
34.248189, -23.275045, 63.500000
34.248189, -23.275045, 63.625000
34.003559, -23.108795, 63.750000
34.003559, -23.108795, 63.875000
34.003559, -23.108795, 64.000000
33.758929, -22.942544, 64.125000
33.758929, -22.942544, 64.250000
33.758929, -22.942544, 64.375000
33.758929, -22.942544, 64.500000
33.758929, -22.942544, 64.625000
33.758929, -22.942544, 64.750000
33.514299, -22.776294, 64.875000
33.514299, -22.776294, 65.000000
33.514299, -22.776294, 65.125000
33.514299, -22.776294, 65.250000
33.514299, -22.776294, 65.375000
33.514299, -22.776294, 65.500000
33.514299, -22.776294, 65.625000
33.269669, -22.610044, 65.750000
33.269669, -22.610044, 65.875000
33.269669, -22.610044, 66.000000
33.269669, -22.610044, 66.125000
33.025039, -22.443794, 66.250000
33.025039, -22.443794, 66.375000
33.025039, -22.443794, 66.500000
32.780409, -22.277543, 66.625000
32.780409, -22.277543, 66.750000
32.780409, -22.277543, 66.875000
32.780409, -22.277543, 67.000000
32.535779, -22.111293, 67.125000
32.780409, -22.277543, 67.250000
32.535779, -22.111293, 67.375000
32.291150, -21.945043, 67.500000
32.291150, -21.945043, 67.625000
32.535779, -22.111293, 67.750000
32.291150, -21.945043, 67.875000
32.046520, -21.778792, 68.000000
32.291150, -21.945043, 68.125000
31.801890, -21.612542, 68.250000
31.801890, -21.612542, 68.375000
31.801890, -21.612542, 68.500000
31.557260, -21.446292, 68.625000
31.557260, -21.446292, 68.750000
31.312630, -21.280041, 68.875000
31.312630, -21.280041, 69.000000
31.312630, -21.280041, 69.125000
31.068000, -21.113791, 69.250000
31.068000, -21.113791, 69.375000
31.068000, -21.113791, 69.500000
31.068000, -21.113791, 69.625000
30.823370, -20.947541, 69.750000
30.578740, -20.781290, 69.875000
30.578740, -20.781290, 70.000000
30.334110, -20.615040, 70.125000
30.334110, -20.615040, 70.250000
30.089480, -20.448790, 70.375000
29.844850, -20.282539, 70.500000
29.844850, -20.282539, 70.625000
29.600220, -20.116289, 70.750000
29.600220, -20.116289, 70.875000
29.355590, -19.950039, 71.000000
29.110961, -19.783788, 71.125000
29.110961, -19.783788, 71.250000
29.110961, -19.783788, 71.375000
29.110961, -19.783788, 71.500000
28.621701, -19.451288, 71.625000
28.621701, -19.451288, 71.750000
28.377071, -19.285037, 71.875000
28.132441, -19.118787, 72.000000
27.887811, -18.952537, 72.125000
27.887811, -18.952537, 72.250000
27.887811, -18.952537, 72.375000
27.643181, -18.786286, 72.500000
27.398551, -18.620036, 72.625000
27.153921, -18.453786, 72.750000
27.153921, -18.453786, 72.875000
26.909291, -18.287535, 73.000000
26.664661, -18.121285, 73.125000
26.664661, -18.121285, 73.250000
26.664661, -18.121285, 73.375000
26.420031, -17.955035, 73.500000
26.420031, -17.955035, 73.625000
26.175401, -17.788784, 73.750000
25.930772, -17.622534, 73.875000
25.930772, -17.622534, 74.000000
25.930772, -17.622534, 74.125000
25.686142, -17.456284, 74.250000
25.441512, -17.290034, 74.375000
25.441512, -17.290034, 74.500000
25.686142, -17.456284, 74.625000
25.441512, -17.290034, 74.750000
25.441512, -17.290034, 74.875000
25.196882, -17.123783, 75.000000
25.196882, -17.123783, 75.125000
25.196882, -17.123783, 75.250000
25.196882, -17.123783, 75.375000
25.196882, -17.123783, 75.500000
25.196882, -17.123783, 75.625000
25.441512, -17.290034, 75.750000
25.441512, -17.290034, 75.875000
25.441512, -17.290034, 76.000000
25.441512, -17.290034, 76.125000
25.686142, -17.456284, 76.250000
25.686142, -17.456284, 76.375000
25.930772, -17.622534, 76.500000
26.175401, -17.788784, 76.625000
26.175401, -17.788784, 76.750000
26.420031, -17.955035, 76.875000
26.420031, -17.955035, 77.000000
26.664661, -18.121285, 77.125000
26.664661, -18.121285, 77.250000
26.909291, -18.287535, 77.375000
26.909291, -18.287535, 77.500000
27.153921, -18.453786, 77.625000
27.153921, -18.453786, 77.750000
27.398551, -18.620036, 77.875000
27.398551, -18.620036, 78.000000
27.643181, -18.786286, 78.125000
27.887811, -18.952537, 78.250000
28.132441, -19.118787, 78.375000
28.132441, -19.118787, 78.500000
28.377071, -19.285037, 78.625000
28.621701, -19.451288, 78.750000
28.621701, -19.451288, 78.875000
28.866331, -19.617538, 79.000000
29.110961, -19.783788, 79.125000
29.110961, -19.783788, 79.250000
29.355590, -19.950039, 79.375000
29.355590, -19.950039, 79.500000
29.600220, -20.116289, 79.625000
29.844850, -20.282539, 79.750000
29.844850, -20.282539, 79.875000
30.089480, -20.448790, 80.000000
30.334110, -20.615040, 80.125000
30.578740, -20.781290, 80.250000
30.823370, -20.947541, 80.375000
31.068000, -21.113791, 80.500000
31.068000, -21.113791, 80.625000
31.312630, -21.280041, 80.750000
31.312630, -21.280041, 80.875000
31.557260, -21.446292, 81.000000
31.801890, -21.612542, 81.125000
32.046520, -21.778792, 81.250000
32.046520, -21.778792, 81.375000
32.291150, -21.945043, 81.500000
32.535779, -22.111293, 81.625000
32.535779, -22.111293, 81.750000
32.780409, -22.277543, 81.875000
32.780409, -22.277543, 82.000000
33.269669, -22.610044, 82.125000
33.025039, -22.443794, 82.250000
33.025039, -22.443794, 82.375000
33.269669, -22.610044, 82.500000
33.269669, -22.610044, 82.625000
33.269669, -22.610044, 82.750000
33.514299, -22.776294, 82.875000
33.758929, -22.942544, 83.000000
33.758929, -22.942544, 83.125000
32.780409, -22.277543, 83.250000
51.616913, -35.078818, 86.750000
51.372283, -34.912568, 86.875000
51.616913, -35.078818, 87.000000
51.616913, -35.078818, 87.125000
51.616913, -35.078818, 87.250000
51.372283, -34.912568, 87.375000
51.372283, -34.912568, 87.500000
51.616913, -35.078818, 87.625000
51.861543, -35.245068, 87.750000
47.458205, -32.252563, 102.375000
48.436724, -32.917564, 102.625000
46.479685, -31.587561, 102.750000
47.702835, -32.418813, 102.875000
47.947464, -32.585063, 103.000000
47.947464, -32.585063, 103.125000
48.192094, -32.751313, 103.250000
48.192094, -32.751313, 103.375000
16.232532, -10.301478, 20.625000
15.982801, -10.142994, 20.750000
15.982801, -10.142994, 20.875000
16.482263, -10.459962, 21.000000
16.731994, -10.618447, 21.125000
16.981726, -10.776931, 21.250000
16.981726, -10.776931, 21.375000
17.730919, -11.252384, 21.500000
17.730919, -11.252384, 21.625000
17.980651, -11.410868, 21.750000
18.230382, -11.569352, 21.875000
18.480113, -11.727836, 22.000000
18.480113, -11.727836, 22.125000
18.480113, -11.727836, 22.250000
18.729844, -11.886321, 22.375000
18.979576, -12.044805, 22.500000
18.979576, -12.044805, 22.625000
19.479038, -12.361774, 22.750000
19.479038, -12.361774, 22.875000
19.728769, -12.520258, 23.000000
19.978501, -12.678742, 23.125000
19.978501, -12.678742, 23.250000
20.228232, -12.837226, 23.375000
20.477963, -12.995711, 23.500000
20.477963, -12.995711, 23.625000
20.477963, -12.995711, 23.750000
20.727695, -13.154195, 23.875000
20.727695, -13.154195, 24.000000
20.977426, -13.312679, 24.125000
21.476888, -13.629648, 24.250000
21.476888, -13.629648, 24.375000
21.726620, -13.788132, 24.500000
21.726620, -13.788132, 24.625000
21.976351, -13.946616, 24.750000
21.976351, -13.946616, 24.875000
22.226082, -14.105101, 25.000000
22.226082, -14.105101, 25.125000
22.475813, -14.263585, 25.250000
22.475813, -14.263585, 25.375000
22.975276, -14.580553, 25.500000
22.975276, -14.580553, 25.625000
22.975276, -14.580553, 25.750000
23.225007, -14.739038, 25.875000
23.225007, -14.739038, 26.000000
23.474738, -14.897522, 26.125000
23.474738, -14.897522, 26.250000
23.724470, -15.056006, 26.375000
23.974201, -15.214491, 26.500000
23.974201, -15.214491, 26.625000
24.223932, -15.372975, 26.750000
24.223932, -15.372975, 26.875000
24.473663, -15.531459, 27.000000
24.473663, -15.531459, 27.125000
24.723395, -15.689943, 27.250000
24.723395, -15.689943, 27.375000
24.973126, -15.848428, 27.500000
24.973126, -15.848428, 27.625000
25.222857, -16.006912, 27.750000
25.222857, -16.006912, 27.875000
25.472588, -16.165396, 28.000000
25.722320, -16.323880, 28.125000
25.722320, -16.323880, 28.250000
25.722320, -16.323880, 28.375000
25.972051, -16.482365, 28.500000
25.972051, -16.482365, 28.625000
25.972051, -16.482365, 28.750000
25.972051, -16.482365, 28.875000
26.471513, -16.799333, 29.000000
26.471513, -16.799333, 29.125000
26.471513, -16.799333, 29.250000
26.471513, -16.799333, 29.375000
26.471513, -16.799333, 29.500000
26.721245, -16.957818, 29.625000
26.721245, -16.957818, 29.750000
26.970976, -17.116302, 29.875000
26.970976, -17.116302, 30.000000
26.970976, -17.116302, 30.125000
27.220707, -17.274786, 30.250000
27.220707, -17.274786, 30.375000
27.470439, -17.433270, 30.500000
27.470439, -17.433270, 30.625000
27.470439, -17.433270, 30.750000
27.720170, -17.591755, 30.875000
27.969901, -17.750239, 31.000000
27.969901, -17.750239, 31.125000
27.969901, -17.750239, 31.250000
28.219632, -17.908723, 31.375000
28.219632, -17.908723, 31.500000
28.469364, -18.067208, 31.625000
28.469364, -18.067208, 31.750000
28.719095, -18.225692, 31.875000
28.719095, -18.225692, 32.000000
28.719095, -18.225692, 32.125000
28.968826, -18.384176, 32.250000
28.968826, -18.384176, 32.375000
28.968826, -18.384176, 32.500000
29.218557, -18.542660, 32.625000
29.218557, -18.542660, 32.750000
29.218557, -18.542660, 32.875000
29.718020, -18.859629, 33.000000
29.468289, -18.701145, 33.125000
29.468289, -18.701145, 33.250000
29.718020, -18.859629, 33.375000
29.718020, -18.859629, 33.500000
29.967751, -19.018113, 33.625000
29.967751, -19.018113, 33.750000
29.967751, -19.018113, 33.875000
30.217482, -19.176597, 34.000000
30.467214, -19.335082, 34.125000
30.217482, -19.176597, 34.250000
30.467214, -19.335082, 34.375000
30.716945, -19.493566, 34.500000
30.467214, -19.335082, 34.625000
30.467214, -19.335082, 34.750000
30.467214, -19.335082, 34.875000
30.716945, -19.493566, 35.000000
30.966676, -19.652050, 35.125000
30.966676, -19.652050, 35.250000
31.216407, -19.810535, 35.375000
30.966676, -19.652050, 35.500000
31.216407, -19.810535, 35.625000
31.216407, -19.810535, 35.750000
31.216407, -19.810535, 35.875000
31.216407, -19.810535, 36.000000
31.466139, -19.969019, 36.125000
31.466139, -19.969019, 36.250000
31.466139, -19.969019, 36.375000
31.466139, -19.969019, 36.500000
31.715870, -20.127503, 36.625000
31.715870, -20.127503, 36.750000
31.965601, -20.285987, 36.875000
31.715870, -20.127503, 37.000000
31.965601, -20.285987, 37.125000
31.715870, -20.127503, 37.250000
31.965601, -20.285987, 37.375000
31.965601, -20.285987, 37.500000
31.965601, -20.285987, 37.625000
32.215332, -20.444472, 37.750000
32.215332, -20.444472, 37.875000
32.215332, -20.444472, 38.000000
32.215332, -20.444472, 38.125000
32.215332, -20.444472, 38.250000
32.215332, -20.444472, 38.375000
32.215332, -20.444472, 38.500000
32.465064, -20.602956, 38.625000
32.465064, -20.602956, 38.750000
32.465064, -20.602956, 38.875000
32.465064, -20.602956, 39.000000
32.465064, -20.602956, 39.125000
32.465064, -20.602956, 39.250000
32.465064, -20.602956, 39.375000
32.465064, -20.602956, 39.500000
32.465064, -20.602956, 39.625000
32.465064, -20.602956, 39.750000
32.714795, -20.761440, 39.875000
32.714795, -20.761440, 40.000000
32.714795, -20.761440, 40.125000
32.714795, -20.761440, 40.250000
32.714795, -20.761440, 40.375000
32.714795, -20.761440, 40.500000
32.714795, -20.761440, 40.625000
32.714795, -20.761440, 40.750000
32.714795, -20.761440, 40.875000
32.714795, -20.761440, 41.000000
32.964526, -20.919924, 41.125000
32.964526, -20.919924, 41.250000
32.964526, -20.919924, 41.375000
32.964526, -20.919924, 41.500000
32.964526, -20.919924, 41.625000
32.964526, -20.919924, 41.750000
32.964526, -20.919924, 41.875000
32.964526, -20.919924, 42.000000
32.964526, -20.919924, 42.125000
32.964526, -20.919924, 42.250000
32.964526, -20.919924, 42.375000
32.964526, -20.919924, 42.500000
33.214257, -21.078409, 42.625000
32.964526, -20.919924, 42.750000
33.214257, -21.078409, 42.875000
33.214257, -21.078409, 43.000000
33.214257, -21.078409, 43.125000
33.214257, -21.078409, 43.250000
32.964526, -20.919924, 43.375000
32.964526, -20.919924, 43.500000
32.964526, -20.919924, 43.625000
32.964526, -20.919924, 43.750000
33.214257, -21.078409, 43.875000
33.214257, -21.078409, 44.000000
33.214257, -21.078409, 44.125000
33.214257, -21.078409, 44.250000
33.214257, -21.078409, 44.375000
33.214257, -21.078409, 44.500000
33.214257, -21.078409, 44.625000
33.214257, -21.078409, 44.750000
33.463989, -21.236893, 44.875000
33.463989, -21.236893, 45.000000
33.214257, -21.078409, 45.125000
33.214257, -21.078409, 45.250000
33.214257, -21.078409, 45.375000
33.463989, -21.236893, 45.500000
33.214257, -21.078409, 45.625000
33.214257, -21.078409, 45.750000
33.214257, -21.078409, 45.875000
33.463989, -21.236893, 46.000000
33.214257, -21.078409, 46.125000
33.214257, -21.078409, 46.250000
33.214257, -21.078409, 46.375000
33.463989, -21.236893, 46.500000
33.214257, -21.078409, 46.625000
33.214257, -21.078409, 46.750000
33.463989, -21.236893, 46.875000
33.214257, -21.078409, 47.000000
33.214257, -21.078409, 47.125000
33.463989, -21.236893, 47.250000
33.214257, -21.078409, 47.375000
33.463989, -21.236893, 47.500000
33.463989, -21.236893, 47.625000
33.713720, -21.395377, 47.750000
33.963451, -21.553862, 47.875000
33.463989, -21.236893, 48.000000
33.463989, -21.236893, 48.125000
33.463989, -21.236893, 48.250000
33.713720, -21.395377, 48.375000
32.714795, -20.761440, 48.500000
33.713720, -21.395377, 48.625000
33.713720, -21.395377, 48.750000
33.713720, -21.395377, 48.875000
33.713720, -21.395377, 49.000000
33.463989, -21.236893, 49.125000
33.214257, -21.078409, 49.250000
33.713720, -21.395377, 49.375000
33.463989, -21.236893, 49.500000
33.463989, -21.236893, 49.625000
33.463989, -21.236893, 49.750000
33.963451, -21.553862, 49.875000
33.463989, -21.236893, 50.000000
33.214257, -21.078409, 50.125000
32.964526, -20.919924, 50.250000
33.963451, -21.553862, 50.500000
33.963451, -21.553862, 50.625000
33.463989, -21.236893, 52.875000
33.463989, -21.236893, 53.000000
33.463989, -21.236893, 53.125000
33.963451, -21.553862, 53.250000
34.213183, -21.712346, 53.375000
33.963451, -21.553862, 53.500000
33.713720, -21.395377, 53.625000
33.713720, -21.395377, 53.750000
33.713720, -21.395377, 53.875000
34.213183, -21.712346, 54.000000
34.213183, -21.712346, 54.125000
34.213183, -21.712346, 54.250000
34.213183, -21.712346, 54.375000
34.213183, -21.712346, 54.500000
34.213183, -21.712346, 54.625000
34.462914, -21.870830, 54.750000
34.712645, -22.029314, 54.875000
34.462914, -21.870830, 55.000000
34.462914, -21.870830, 55.125000
34.462914, -21.870830, 55.250000
34.462914, -21.870830, 55.375000
34.462914, -21.870830, 55.500000
34.712645, -22.029314, 55.625000
34.712645, -22.029314, 55.750000
34.712645, -22.029314, 55.875000
34.712645, -22.029314, 56.000000
34.712645, -22.029314, 56.125000
34.712645, -22.029314, 56.250000
34.712645, -22.029314, 56.375000
34.712645, -22.029314, 56.500000
34.712645, -22.029314, 56.625000
34.962376, -22.187799, 56.750000
34.712645, -22.029314, 56.875000
34.712645, -22.029314, 57.000000
34.962376, -22.187799, 57.125000
34.712645, -22.029314, 57.250000
34.962376, -22.187799, 57.375000
34.962376, -22.187799, 57.500000
34.962376, -22.187799, 57.625000
34.962376, -22.187799, 57.750000
34.962376, -22.187799, 57.875000
34.962376, -22.187799, 58.000000
34.962376, -22.187799, 58.125000
34.962376, -22.187799, 58.250000
34.962376, -22.187799, 58.375000
34.962376, -22.187799, 58.500000
35.212108, -22.346283, 58.625000
35.212108, -22.346283, 58.750000
35.212108, -22.346283, 58.875000
35.212108, -22.346283, 59.000000
35.461839, -22.504767, 59.125000
35.212108, -22.346283, 59.250000
35.212108, -22.346283, 59.375000
35.212108, -22.346283, 59.500000
35.212108, -22.346283, 59.625000
35.212108, -22.346283, 59.750000
35.212108, -22.346283, 59.875000
35.212108, -22.346283, 60.000000
35.212108, -22.346283, 60.125000
35.461839, -22.504767, 60.250000
35.212108, -22.346283, 60.375000
35.212108, -22.346283, 60.500000
35.212108, -22.346283, 60.625000
35.212108, -22.346283, 60.750000
35.461839, -22.504767, 60.875000
35.461839, -22.504767, 61.000000
35.212108, -22.346283, 61.125000
35.212108, -22.346283, 61.250000
35.212108, -22.346283, 61.375000
35.461839, -22.504767, 61.500000
35.212108, -22.346283, 61.625000
35.212108, -22.346283, 61.750000
35.212108, -22.346283, 61.875000
35.212108, -22.346283, 62.000000
35.212108, -22.346283, 62.125000
35.212108, -22.346283, 62.250000
35.212108, -22.346283, 62.375000
35.212108, -22.346283, 62.500000
34.962376, -22.187799, 62.625000
34.962376, -22.187799, 62.750000
34.962376, -22.187799, 62.875000
34.962376, -22.187799, 63.000000
34.962376, -22.187799, 63.125000
34.962376, -22.187799, 63.250000
34.962376, -22.187799, 63.375000
34.962376, -22.187799, 63.500000
34.712645, -22.029314, 63.625000
34.712645, -22.029314, 63.750000
34.712645, -22.029314, 63.875000
34.712645, -22.029314, 64.000000
34.712645, -22.029314, 64.125000
34.462914, -21.870830, 64.250000
34.462914, -21.870830, 64.375000
34.712645, -22.029314, 64.500000
34.462914, -21.870830, 64.625000
34.462914, -21.870830, 64.750000
34.462914, -21.870830, 64.875000
34.462914, -21.870830, 65.000000
34.462914, -21.870830, 65.125000
34.213183, -21.712346, 65.250000
33.963451, -21.553862, 65.375000
34.213183, -21.712346, 65.500000
34.213183, -21.712346, 65.625000
34.213183, -21.712346, 65.750000
33.963451, -21.553862, 65.875000
33.963451, -21.553862, 66.000000
33.963451, -21.553862, 66.125000
33.713720, -21.395377, 66.250000
33.713720, -21.395377, 66.375000
33.713720, -21.395377, 66.500000
33.463989, -21.236893, 66.625000
33.463989, -21.236893, 66.750000
33.463989, -21.236893, 66.875000
33.463989, -21.236893, 67.000000
33.214257, -21.078409, 67.125000
33.214257, -21.078409, 67.250000
33.463989, -21.236893, 67.375000
32.964526, -20.919924, 67.500000
32.964526, -20.919924, 67.625000
32.964526, -20.919924, 67.750000
32.964526, -20.919924, 67.875000
32.714795, -20.761440, 68.000000
32.714795, -20.761440, 68.125000
32.714795, -20.761440, 68.250000
32.714795, -20.761440, 68.375000
32.465064, -20.602956, 68.500000
32.215332, -20.444472, 68.625000
32.215332, -20.444472, 68.750000
32.215332, -20.444472, 68.875000
32.215332, -20.444472, 69.000000
31.965601, -20.285987, 69.125000
31.965601, -20.285987, 69.250000
31.715870, -20.127503, 69.375000
31.715870, -20.127503, 69.500000
31.466139, -19.969019, 69.625000
31.466139, -19.969019, 69.750000
31.216407, -19.810535, 69.875000
31.216407, -19.810535, 70.000000
30.966676, -19.652050, 70.125000
31.216407, -19.810535, 70.250000
30.966676, -19.652050, 70.375000
30.716945, -19.493566, 70.500000
30.467214, -19.335082, 70.625000
30.217482, -19.176597, 70.750000
30.217482, -19.176597, 70.875000
30.217482, -19.176597, 71.000000
29.967751, -19.018113, 71.125000
29.967751, -19.018113, 71.250000
29.718020, -18.859629, 71.375000
29.468289, -18.701145, 71.500000
29.218557, -18.542660, 71.625000
28.968826, -18.384176, 71.750000
29.218557, -18.542660, 71.875000
28.719095, -18.225692, 72.000000
28.719095, -18.225692, 72.125000
28.469364, -18.067208, 72.250000
28.219632, -17.908723, 72.375000
28.219632, -17.908723, 72.500000
27.969901, -17.750239, 72.625000
27.720170, -17.591755, 72.750000
27.720170, -17.591755, 72.875000
27.470439, -17.433270, 73.000000
27.470439, -17.433270, 73.125000
27.470439, -17.433270, 73.250000
27.220707, -17.274786, 73.375000
26.970976, -17.116302, 73.500000
26.970976, -17.116302, 73.625000
26.721245, -16.957818, 73.750000
26.721245, -16.957818, 73.875000
26.471513, -16.799333, 74.000000
26.471513, -16.799333, 74.125000
26.221782, -16.640849, 74.250000
25.972051, -16.482365, 74.375000
26.221782, -16.640849, 74.500000
25.972051, -16.482365, 74.625000
25.972051, -16.482365, 74.750000
25.722320, -16.323880, 74.875000
25.722320, -16.323880, 75.000000
25.722320, -16.323880, 75.125000
25.722320, -16.323880, 75.250000
25.722320, -16.323880, 75.375000
25.722320, -16.323880, 75.500000
25.722320, -16.323880, 75.625000
25.972051, -16.482365, 75.750000
25.972051, -16.482365, 75.875000
25.972051, -16.482365, 76.000000
25.972051, -16.482365, 76.125000
26.221782, -16.640849, 76.250000
26.471513, -16.799333, 76.375000
26.471513, -16.799333, 76.500000
26.721245, -16.957818, 76.625000
26.721245, -16.957818, 76.750000
26.970976, -17.116302, 76.875000
26.970976, -17.116302, 77.000000
27.220707, -17.274786, 77.125000
27.220707, -17.274786, 77.250000
27.470439, -17.433270, 77.375000
27.470439, -17.433270, 77.500000
27.720170, -17.591755, 77.625000
27.969901, -17.750239, 77.750000
27.969901, -17.750239, 77.875000
28.469364, -18.067208, 78.000000
28.219632, -17.908723, 78.125000
28.469364, -18.067208, 78.250000
28.719095, -18.225692, 78.375000
28.968826, -18.384176, 78.500000
28.968826, -18.384176, 78.625000
29.218557, -18.542660, 78.750000
29.218557, -18.542660, 78.875000
29.468289, -18.701145, 79.000000
29.967751, -19.018113, 79.125000
29.718020, -18.859629, 79.250000
29.967751, -19.018113, 79.375000
30.217482, -19.176597, 79.500000
30.467214, -19.335082, 79.625000
30.467214, -19.335082, 79.750000
30.716945, -19.493566, 79.875000
30.716945, -19.493566, 80.000000
30.966676, -19.652050, 80.125000
31.216407, -19.810535, 80.250000
31.466139, -19.969019, 80.375000
31.715870, -20.127503, 80.500000
31.715870, -20.127503, 80.625000
31.965601, -20.285987, 80.750000
31.965601, -20.285987, 80.875000
32.215332, -20.444472, 81.000000
32.465064, -20.602956, 81.125000
32.714795, -20.761440, 81.250000
32.714795, -20.761440, 81.375000
32.964526, -20.919924, 81.500000
33.214257, -21.078409, 81.625000
33.214257, -21.078409, 81.750000
33.463989, -21.236893, 81.875000
33.463989, -21.236893, 82.000000
33.713720, -21.395377, 82.125000
33.713720, -21.395377, 82.250000
33.963451, -21.553862, 82.375000
33.963451, -21.553862, 82.500000
34.213183, -21.712346, 82.625000
34.213183, -21.712346, 82.750000
34.213183, -21.712346, 82.875000
33.963451, -21.553862, 83.000000
34.462914, -21.870830, 83.125000
34.712645, -22.029314, 83.250000
48.447864, -30.745950, 102.500000
49.446789, -31.379887, 102.625000
47.448939, -30.112013, 102.750000
49.446789, -31.379887, 102.875000
48.947327, -31.062918, 103.000000
48.947327, -31.062918, 103.125000
49.197058, -31.221402, 103.250000
47.698671, -30.270497, 103.375000
16.038927, -9.485395, 20.625000
16.293513, -9.635957, 20.750000
16.548099, -9.786519, 20.875000
16.802685, -9.937080, 21.000000
17.311858, -10.238204, 21.125000
17.311858, -10.238204, 21.250000
17.566444, -10.388766, 21.375000
18.075616, -10.689890, 21.500000
18.075616, -10.689890, 21.625000
18.330202, -10.840451, 21.750000
18.330202, -10.840451, 21.875000
18.839375, -11.141575, 22.000000
18.839375, -11.141575, 22.125000
18.839375, -11.141575, 22.250000
19.093961, -11.292137, 22.375000
19.603133, -11.593261, 22.500000
19.348547, -11.442699, 22.625000
19.857719, -11.743822, 22.750000
19.857719, -11.743822, 22.875000
20.366891, -12.044946, 23.000000
20.366891, -12.044946, 23.125000
20.621478, -12.195508, 23.250000
20.621478, -12.195508, 23.375000
20.621478, -12.195508, 23.500000
20.876064, -12.346070, 23.625000
21.130650, -12.496632, 23.750000
21.130650, -12.496632, 23.875000
21.385236, -12.647193, 24.000000
21.385236, -12.647193, 24.125000
21.894408, -12.948317, 24.250000
22.148994, -13.098879, 24.375000
21.894408, -12.948317, 24.500000
22.148994, -13.098879, 24.625000
22.403581, -13.249441, 24.750000
22.403581, -13.249441, 24.875000
22.658167, -13.400002, 25.000000
22.912753, -13.550564, 25.125000
23.167339, -13.701126, 25.250000
23.167339, -13.701126, 25.375000
23.167339, -13.701126, 25.500000
23.421925, -13.851688, 25.625000
23.421925, -13.851688, 25.750000
23.676511, -14.002250, 25.875000
23.931097, -14.152812, 26.000000
23.931097, -14.152812, 26.125000
23.931097, -14.152812, 26.250000
24.185684, -14.303373, 26.375000
24.440270, -14.453935, 26.500000
24.440270, -14.453935, 26.625000
24.694856, -14.604497, 26.750000
24.694856, -14.604497, 26.875000
24.949442, -14.755059, 27.000000
25.204028, -14.905621, 27.125000
25.204028, -14.905621, 27.250000
25.204028, -14.905621, 27.375000
25.458614, -15.056183, 27.500000
25.458614, -15.056183, 27.625000
25.967787, -15.357306, 27.750000
25.967787, -15.357306, 27.875000
25.967787, -15.357306, 28.000000
25.967787, -15.357306, 28.125000
26.222373, -15.507868, 28.250000
26.222373, -15.507868, 28.375000
26.476959, -15.658430, 28.500000
26.476959, -15.658430, 28.625000
26.476959, -15.658430, 28.750000
26.731545, -15.808992, 28.875000
26.731545, -15.808992, 29.000000
26.986131, -15.959554, 29.125000
26.986131, -15.959554, 29.250000
26.986131, -15.959554, 29.375000
26.986131, -15.959554, 29.500000
27.240717, -16.110115, 29.625000
27.240717, -16.110115, 29.750000
27.495303, -16.260677, 29.875000
27.495303, -16.260677, 30.000000
27.749890, -16.411239, 30.125000
27.749890, -16.411239, 30.250000
28.004476, -16.561801, 30.375000
28.004476, -16.561801, 30.500000
28.004476, -16.561801, 30.625000
28.259062, -16.712363, 30.750000
28.513648, -16.862924, 30.875000
28.513648, -16.862924, 31.000000
28.513648, -16.862924, 31.125000
28.768234, -17.013486, 31.250000
29.022820, -17.164048, 31.375000
29.022820, -17.164048, 31.500000
29.022820, -17.164048, 31.625000
29.022820, -17.164048, 31.750000
29.277406, -17.314610, 31.875000
29.277406, -17.314610, 32.000000
29.531993, -17.465172, 32.125000
29.531993, -17.465172, 32.250000
29.531993, -17.465172, 32.375000
29.786579, -17.615734, 32.500000
29.786579, -17.615734, 32.625000
29.786579, -17.615734, 32.750000
29.786579, -17.615734, 32.875000
30.295751, -17.916857, 33.000000
30.041165, -17.766295, 33.125000
30.041165, -17.766295, 33.250000
30.295751, -17.916857, 33.375000
30.295751, -17.916857, 33.500000
30.550337, -18.067419, 33.625000
30.550337, -18.067419, 33.750000
30.550337, -18.067419, 33.875000
30.804923, -18.217981, 34.000000
30.804923, -18.217981, 34.125000
30.804923, -18.217981, 34.250000
31.059509, -18.368543, 34.375000
31.059509, -18.368543, 34.500000
31.059509, -18.368543, 34.625000
31.059509, -18.368543, 34.750000
31.314096, -18.519105, 34.875000
31.314096, -18.519105, 35.000000
31.314096, -18.519105, 35.125000
31.568682, -18.669666, 35.250000
31.823268, -18.820228, 35.375000
31.568682, -18.669666, 35.500000
31.823268, -18.820228, 35.625000
31.823268, -18.820228, 35.750000
31.823268, -18.820228, 35.875000
31.823268, -18.820228, 36.000000
31.823268, -18.820228, 36.125000
32.077854, -18.970790, 36.250000
32.077854, -18.970790, 36.375000
32.077854, -18.970790, 36.500000
32.332440, -19.121352, 36.625000
32.077854, -18.970790, 36.750000
32.077854, -18.970790, 36.875000
32.077854, -18.970790, 37.000000
32.077854, -18.970790, 37.125000
32.332440, -19.121352, 37.250000
32.332440, -19.121352, 37.375000
32.332440, -19.121352, 37.500000
32.332440, -19.121352, 37.625000
32.332440, -19.121352, 37.750000
32.587026, -19.271914, 37.875000
32.332440, -19.121352, 38.000000
32.332440, -19.121352, 38.125000
32.332440, -19.121352, 38.250000
32.587026, -19.271914, 38.375000
32.587026, -19.271914, 38.500000
32.587026, -19.271914, 38.625000
32.587026, -19.271914, 38.750000
32.587026, -19.271914, 38.875000
32.587026, -19.271914, 39.000000
32.587026, -19.271914, 39.125000
32.587026, -19.271914, 39.250000
32.587026, -19.271914, 39.375000
32.587026, -19.271914, 39.500000
32.587026, -19.271914, 39.625000
32.587026, -19.271914, 39.750000
32.587026, -19.271914, 39.875000
32.587026, -19.271914, 40.000000
32.587026, -19.271914, 40.125000
32.587026, -19.271914, 40.250000
32.587026, -19.271914, 40.375000
32.587026, -19.271914, 40.500000
32.587026, -19.271914, 40.625000
32.587026, -19.271914, 40.750000
32.587026, -19.271914, 40.875000
32.587026, -19.271914, 41.000000
32.587026, -19.271914, 41.125000
32.587026, -19.271914, 41.250000
32.587026, -19.271914, 41.375000
32.841612, -19.422475, 41.500000
32.841612, -19.422475, 41.625000
32.587026, -19.271914, 41.750000
32.841612, -19.422475, 41.875000
32.841612, -19.422475, 42.000000
32.841612, -19.422475, 42.125000
32.841612, -19.422475, 42.250000
32.841612, -19.422475, 42.375000
32.587026, -19.271914, 42.500000
32.841612, -19.422475, 42.625000
32.587026, -19.271914, 42.750000
32.332440, -19.121352, 42.875000
32.587026, -19.271914, 43.000000
33.859957, -20.024723, 57.875000
34.369129, -20.325846, 58.000000
34.623715, -20.476408, 58.125000
34.878302, -20.626970, 58.250000
34.623715, -20.476408, 58.375000
34.878302, -20.626970, 58.500000
34.878302, -20.626970, 58.625000
34.878302, -20.626970, 58.750000
34.878302, -20.626970, 58.875000
34.878302, -20.626970, 59.000000
34.878302, -20.626970, 59.125000
35.132888, -20.777532, 59.250000
35.132888, -20.777532, 59.375000
35.132888, -20.777532, 59.500000
35.132888, -20.777532, 59.625000
35.132888, -20.777532, 59.750000
35.132888, -20.777532, 59.875000
35.132888, -20.777532, 60.000000
35.132888, -20.777532, 60.125000
35.387474, -20.928094, 60.250000
35.387474, -20.928094, 60.375000
35.387474, -20.928094, 60.500000
35.387474, -20.928094, 60.625000
35.387474, -20.928094, 60.750000
35.387474, -20.928094, 60.875000
35.387474, -20.928094, 61.000000
35.642060, -21.078656, 61.125000
35.642060, -21.078656, 61.250000
35.642060, -21.078656, 61.375000
35.642060, -21.078656, 61.500000
35.642060, -21.078656, 61.625000
35.642060, -21.078656, 61.750000
35.642060, -21.078656, 61.875000
35.642060, -21.078656, 62.000000
35.642060, -21.078656, 62.125000
35.642060, -21.078656, 62.250000
35.642060, -21.078656, 62.375000
35.642060, -21.078656, 62.500000
35.642060, -21.078656, 62.625000
35.642060, -21.078656, 62.750000
35.642060, -21.078656, 62.875000
35.642060, -21.078656, 63.000000
35.642060, -21.078656, 63.125000
35.387474, -20.928094, 63.250000
35.387474, -20.928094, 63.375000
35.387474, -20.928094, 63.500000
35.387474, -20.928094, 63.625000
35.387474, -20.928094, 63.750000
35.387474, -20.928094, 63.875000
35.387474, -20.928094, 64.000000
35.387474, -20.928094, 64.125000
35.132888, -20.777532, 64.250000
35.132888, -20.777532, 64.375000
35.387474, -20.928094, 64.500000
35.132888, -20.777532, 64.625000
35.132888, -20.777532, 64.750000
35.132888, -20.777532, 64.875000
35.132888, -20.777532, 65.000000
35.132888, -20.777532, 65.125000
34.878302, -20.626970, 65.250000
34.878302, -20.626970, 65.375000
34.623715, -20.476408, 65.500000
34.878302, -20.626970, 65.625000
34.878302, -20.626970, 65.750000
34.878302, -20.626970, 65.875000
34.623715, -20.476408, 66.000000
34.623715, -20.476408, 66.125000
34.623715, -20.476408, 66.250000
34.623715, -20.476408, 66.375000
34.369129, -20.325846, 66.500000
34.369129, -20.325846, 66.625000
34.114543, -20.175285, 66.750000
34.114543, -20.175285, 66.875000
34.114543, -20.175285, 67.000000
33.859957, -20.024723, 67.125000
33.859957, -20.024723, 67.250000
33.859957, -20.024723, 67.375000
33.605371, -19.874161, 67.500000
33.605371, -19.874161, 67.625000
33.859957, -20.024723, 67.750000
33.859957, -20.024723, 67.875000
33.350785, -19.723599, 68.000000
33.350785, -19.723599, 68.125000
33.350785, -19.723599, 68.250000
33.096199, -19.573037, 68.375000
33.096199, -19.573037, 68.500000
33.096199, -19.573037, 68.625000
32.841612, -19.422475, 68.750000
32.587026, -19.271914, 68.875000
32.587026, -19.271914, 69.000000
32.841612, -19.422475, 69.125000
32.587026, -19.271914, 69.250000
32.587026, -19.271914, 69.375000
32.332440, -19.121352, 69.500000
32.332440, -19.121352, 69.625000
32.077854, -18.970790, 69.750000
32.077854, -18.970790, 69.875000
31.823268, -18.820228, 70.000000
31.823268, -18.820228, 70.125000
31.568682, -18.669666, 70.250000
31.568682, -18.669666, 70.375000
31.568682, -18.669666, 70.500000
31.059509, -18.368543, 70.625000
31.059509, -18.368543, 70.750000
30.804923, -18.217981, 70.875000
30.550337, -18.067419, 71.000000
30.550337, -18.067419, 71.125000
30.550337, -18.067419, 71.250000
30.295751, -17.916857, 71.375000
30.295751, -17.916857, 71.500000
30.295751, -17.916857, 71.625000
29.786579, -17.615734, 71.750000
29.531993, -17.465172, 71.875000
29.277406, -17.314610, 72.000000
29.022820, -17.164048, 72.125000
29.022820, -17.164048, 72.250000
29.022820, -17.164048, 72.375000
28.513648, -16.862924, 72.500000
28.513648, -16.862924, 72.625000
28.259062, -16.712363, 72.750000
28.259062, -16.712363, 72.875000
28.259062, -16.712363, 73.000000
28.004476, -16.561801, 73.125000
28.004476, -16.561801, 73.250000
27.749890, -16.411239, 73.375000
27.495303, -16.260677, 73.500000
27.495303, -16.260677, 73.625000
27.240717, -16.110115, 73.750000
27.240717, -16.110115, 73.875000
26.986131, -15.959554, 74.000000
26.986131, -15.959554, 74.125000
26.731545, -15.808992, 74.250000
26.731545, -15.808992, 74.375000
26.476959, -15.658430, 74.500000
26.731545, -15.808992, 74.625000
26.476959, -15.658430, 74.750000
26.476959, -15.658430, 74.875000
26.222373, -15.507868, 75.000000
26.222373, -15.507868, 75.125000
26.222373, -15.507868, 75.250000
26.476959, -15.658430, 75.375000
26.476959, -15.658430, 75.500000
26.476959, -15.658430, 75.625000
26.476959, -15.658430, 75.750000
26.476959, -15.658430, 75.875000
26.476959, -15.658430, 76.000000
26.731545, -15.808992, 76.125000
26.731545, -15.808992, 76.250000
26.986131, -15.959554, 76.375000
26.986131, -15.959554, 76.500000
27.240717, -16.110115, 76.625000
27.240717, -16.110115, 76.750000
27.495303, -16.260677, 76.875000
27.495303, -16.260677, 77.000000
27.749890, -16.411239, 77.125000
27.749890, -16.411239, 77.250000
28.004476, -16.561801, 77.375000
28.259062, -16.712363, 77.500000
28.259062, -16.712363, 77.625000
28.513648, -16.862924, 77.750000
28.768234, -17.013486, 77.875000
28.513648, -16.862924, 78.000000
28.768234, -17.013486, 78.125000
29.277406, -17.314610, 78.250000
29.277406, -17.314610, 78.375000
29.277406, -17.314610, 78.500000
29.531993, -17.465172, 78.625000
29.786579, -17.615734, 78.750000
30.041165, -17.766295, 78.875000
30.295751, -17.916857, 79.000000
30.295751, -17.916857, 79.125000
30.295751, -17.916857, 79.250000
30.550337, -18.067419, 79.375000
30.804923, -18.217981, 79.500000
30.804923, -18.217981, 79.625000
31.059509, -18.368543, 79.750000
31.314096, -18.519105, 79.875000
31.568682, -18.669666, 80.000000
31.823268, -18.820228, 80.125000
32.077854, -18.970790, 80.250000
32.077854, -18.970790, 80.375000
32.332440, -19.121352, 80.500000
32.587026, -19.271914, 80.625000
32.587026, -19.271914, 80.750000
32.841612, -19.422475, 80.875000
32.841612, -19.422475, 81.000000
33.096199, -19.573037, 81.125000
33.350785, -19.723599, 81.250000
33.350785, -19.723599, 81.375000
33.859957, -20.024723, 81.500000
33.859957, -20.024723, 81.625000
34.114543, -20.175285, 81.750000
34.369129, -20.325846, 81.875000
34.369129, -20.325846, 82.000000
34.623715, -20.476408, 82.125000
34.623715, -20.476408, 82.250000
34.623715, -20.476408, 82.375000
34.623715, -20.476408, 82.500000
35.132888, -20.777532, 82.625000
34.878302, -20.626970, 82.750000
34.878302, -20.626970, 82.875000
35.132888, -20.777532, 83.000000
35.132888, -20.777532, 83.125000
35.387474, -20.928094, 83.250000
49.135126, -29.058432, 102.500000
50.408056, -29.811241, 102.625000
48.371367, -28.606747, 102.750000
50.153470, -29.660680, 102.875000
49.644298, -29.359556, 103.000000
49.898884, -29.510118, 103.125000
49.898884, -29.510118, 103.250000
49.898884, -29.510118, 103.375000
49.898884, -29.510118, 103.500000
17.365715, -9.546883, 20.875000
17.884095, -9.831864, 21.000000
17.884095, -9.831864, 21.125000
17.884095, -9.831864, 21.250000
17.884095, -9.831864, 21.375000
18.143285, -9.974355, 21.500000
18.143285, -9.974355, 21.625000
18.402475, -10.116846, 21.750000
18.920854, -10.401828, 21.875000
19.180044, -10.544318, 22.000000
19.180044, -10.544318, 22.125000
19.439234, -10.686809, 22.250000
19.180044, -10.544318, 22.375000
19.698423, -10.829300, 22.500000
19.957613, -10.971791, 22.625000
20.216803, -11.114281, 22.750000
20.475993, -11.256772, 22.875000
20.735183, -11.399263, 23.000000
20.735183, -11.399263, 23.125000
20.735183, -11.399263, 23.250000
21.253562, -11.684245, 23.375000
21.253562, -11.684245, 23.500000
21.512752, -11.826735, 23.625000
21.771942, -11.969226, 23.750000
21.512752, -11.826735, 23.875000
22.031131, -12.111717, 24.000000
22.031131, -12.111717, 24.125000
22.290321, -12.254208, 24.250000
22.290321, -12.254208, 24.375000
22.549511, -12.396699, 24.500000
22.808701, -12.539189, 24.625000
22.808701, -12.539189, 24.750000
23.067891, -12.681680, 24.875000
23.327080, -12.824171, 25.000000
23.327080, -12.824171, 25.125000
23.586270, -12.966662, 25.250000
23.586270, -12.966662, 25.375000
23.845460, -13.109153, 25.500000
23.845460, -13.109153, 25.625000
24.104650, -13.251643, 25.750000
24.104650, -13.251643, 25.875000
24.363839, -13.394134, 26.000000
24.363839, -13.394134, 26.125000
24.623029, -13.536625, 26.250000
24.882219, -13.679116, 26.375000
24.882219, -13.679116, 26.500000
24.882219, -13.679116, 26.625000
25.141409, -13.821606, 26.750000
25.400599, -13.964097, 26.875000
25.141409, -13.821606, 27.000000
25.400599, -13.964097, 27.125000
25.659788, -14.106588, 27.250000
25.659788, -14.106588, 27.375000
26.178168, -14.391570, 27.500000
25.918978, -14.249079, 27.625000
26.178168, -14.391570, 27.750000
26.437358, -14.534060, 27.875000
26.437358, -14.534060, 28.000000
26.696548, -14.676551, 28.125000
26.955737, -14.819042, 28.250000
26.696548, -14.676551, 28.375000
26.955737, -14.819042, 28.500000
26.955737, -14.819042, 28.625000
26.955737, -14.819042, 28.750000
27.214927, -14.961533, 28.875000
27.214927, -14.961533, 29.000000
27.474117, -15.104024, 29.125000
27.474117, -15.104024, 29.250000
27.733307, -15.246514, 29.375000
27.733307, -15.246514, 29.500000
27.992496, -15.389005, 29.625000
27.992496, -15.389005, 29.750000
27.992496, -15.389005, 29.875000
28.251686, -15.531496, 30.000000
28.251686, -15.531496, 30.125000
28.510876, -15.673987, 30.250000
28.510876, -15.673987, 30.375000
28.510876, -15.673987, 30.500000
28.770066, -15.816478, 30.625000
28.770066, -15.816478, 30.750000
29.029256, -15.958968, 30.875000
29.029256, -15.958968, 31.000000
29.029256, -15.958968, 31.125000
29.288445, -16.101459, 31.250000
29.288445, -16.101459, 31.375000
29.547635, -16.243950, 31.500000
29.547635, -16.243950, 31.625000
29.547635, -16.243950, 31.750000
29.806825, -16.386441, 31.875000
30.066015, -16.528931, 32.000000
30.066015, -16.528931, 32.125000
30.066015, -16.528931, 32.250000
30.066015, -16.528931, 32.375000
30.325204, -16.671422, 32.500000
30.325204, -16.671422, 32.625000
30.325204, -16.671422, 32.750000
30.584394, -16.813913, 32.875000
30.584394, -16.813913, 33.000000
30.843584, -16.956404, 33.125000
30.843584, -16.956404, 33.250000
30.843584, -16.956404, 33.375000
30.843584, -16.956404, 33.500000
31.102774, -17.098895, 33.625000
31.102774, -17.098895, 33.750000
31.361964, -17.241385, 33.875000
31.361964, -17.241385, 34.000000
31.361964, -17.241385, 34.125000
31.361964, -17.241385, 34.250000
31.621153, -17.383876, 34.375000
31.621153, -17.383876, 34.500000
31.621153, -17.383876, 34.625000
31.621153, -17.383876, 34.750000
31.621153, -17.383876, 34.875000
31.621153, -17.383876, 35.000000
31.880343, -17.526367, 35.125000
31.880343, -17.526367, 35.250000
31.880343, -17.526367, 35.375000
32.139533, -17.668858, 35.500000
32.139533, -17.668858, 35.625000
32.139533, -17.668858, 35.750000
32.139533, -17.668858, 35.875000
32.139533, -17.668858, 36.000000
32.398723, -17.811349, 36.125000
32.139533, -17.668858, 36.250000
32.139533, -17.668858, 36.375000
32.139533, -17.668858, 36.500000
32.139533, -17.668858, 36.625000
32.139533, -17.668858, 36.750000
32.139533, -17.668858, 36.875000
32.398723, -17.811349, 37.000000
32.398723, -17.811349, 37.125000
32.398723, -17.811349, 37.250000
32.398723, -17.811349, 37.375000
32.398723, -17.811349, 37.500000
32.398723, -17.811349, 37.625000
32.398723, -17.811349, 37.750000
32.398723, -17.811349, 37.875000
32.398723, -17.811349, 38.000000
32.398723, -17.811349, 38.125000
32.398723, -17.811349, 38.250000
32.398723, -17.811349, 38.375000
32.398723, -17.811349, 38.500000
32.139533, -17.668858, 38.625000
32.398723, -17.811349, 38.750000
32.139533, -17.668858, 38.875000
32.398723, -17.811349, 39.000000
32.398723, -17.811349, 39.125000
32.139533, -17.668858, 39.250000
32.139533, -17.668858, 39.375000
31.880343, -17.526367, 39.500000
31.880343, -17.526367, 39.625000
32.139533, -17.668858, 39.750000
31.880343, -17.526367, 39.875000
31.361964, -17.241385, 40.000000
34.731431, -19.093766, 60.500000
34.731431, -19.093766, 60.625000
34.990621, -19.236256, 60.750000
35.249810, -19.378747, 60.875000
35.249810, -19.378747, 61.000000
35.249810, -19.378747, 61.125000
35.509000, -19.521238, 61.250000
35.249810, -19.378747, 61.375000
35.509000, -19.521238, 61.500000
35.509000, -19.521238, 61.625000
35.509000, -19.521238, 61.750000
35.509000, -19.521238, 61.875000
35.509000, -19.521238, 62.000000
35.509000, -19.521238, 62.125000
35.768190, -19.663729, 62.250000
35.768190, -19.663729, 62.375000
35.768190, -19.663729, 62.500000
35.768190, -19.663729, 62.625000
35.768190, -19.663729, 62.750000
35.768190, -19.663729, 62.875000
35.768190, -19.663729, 63.000000
35.768190, -19.663729, 63.125000
35.768190, -19.663729, 63.250000
35.768190, -19.663729, 63.375000
35.768190, -19.663729, 63.500000
35.768190, -19.663729, 63.625000
35.768190, -19.663729, 63.750000
35.768190, -19.663729, 63.875000
35.768190, -19.663729, 64.000000
35.768190, -19.663729, 64.125000
35.768190, -19.663729, 64.250000
36.027380, -19.806220, 64.375000
35.768190, -19.663729, 64.500000
35.768190, -19.663729, 64.625000
35.768190, -19.663729, 64.750000
35.768190, -19.663729, 64.875000
35.509000, -19.521238, 65.000000
35.509000, -19.521238, 65.125000
35.509000, -19.521238, 65.250000
35.768190, -19.663729, 65.375000
35.768190, -19.663729, 65.500000
35.249810, -19.378747, 65.625000
35.249810, -19.378747, 65.750000
35.249810, -19.378747, 65.875000
35.249810, -19.378747, 66.000000
35.249810, -19.378747, 66.125000
34.990621, -19.236256, 66.250000
35.249810, -19.378747, 66.375000
34.990621, -19.236256, 66.500000
34.990621, -19.236256, 66.625000
34.990621, -19.236256, 66.750000
34.731431, -19.093766, 66.875000
34.731431, -19.093766, 67.000000
34.472241, -18.951275, 67.125000
34.472241, -18.951275, 67.250000
34.472241, -18.951275, 67.375000
34.472241, -18.951275, 67.500000
34.213051, -18.808784, 67.625000
34.213051, -18.808784, 67.750000
34.213051, -18.808784, 67.875000
34.213051, -18.808784, 68.000000
34.213051, -18.808784, 68.125000
33.694672, -18.523802, 68.250000
33.694672, -18.523802, 68.375000
33.694672, -18.523802, 68.500000
33.694672, -18.523802, 68.625000
33.435482, -18.381312, 68.750000
33.435482, -18.381312, 68.875000
33.176292, -18.238821, 69.000000
33.176292, -18.238821, 69.125000
33.176292, -18.238821, 69.250000
33.176292, -18.238821, 69.375000
32.657912, -17.953839, 69.500000
32.657912, -17.953839, 69.625000
32.657912, -17.953839, 69.750000
32.657912, -17.953839, 69.875000
32.657912, -17.953839, 70.000000
32.139533, -17.668858, 70.125000
32.139533, -17.668858, 70.250000
31.880343, -17.526367, 70.375000
31.880343, -17.526367, 70.500000
31.621153, -17.383876, 70.625000
31.621153, -17.383876, 70.750000
31.621153, -17.383876, 70.875000
31.621153, -17.383876, 71.000000
31.102774, -17.098895, 71.125000
31.102774, -17.098895, 71.250000
31.102774, -17.098895, 71.375000
30.843584, -16.956404, 71.500000
30.584394, -16.813913, 71.625000
30.325204, -16.671422, 71.750000
30.325204, -16.671422, 71.875000
30.066015, -16.528931, 72.000000
29.806825, -16.386441, 72.125000
29.547635, -16.243950, 72.250000
29.547635, -16.243950, 72.375000
29.288445, -16.101459, 72.500000
29.029256, -15.958968, 72.625000
28.770066, -15.816478, 72.750000
28.770066, -15.816478, 72.875000
28.770066, -15.816478, 73.000000
28.510876, -15.673987, 73.125000
28.510876, -15.673987, 73.250000
28.251686, -15.531496, 73.375000
27.992496, -15.389005, 73.500000
27.992496, -15.389005, 73.625000
27.733307, -15.246514, 73.750000
27.733307, -15.246514, 73.875000
27.474117, -15.104024, 74.000000
27.474117, -15.104024, 74.125000
27.474117, -15.104024, 74.250000
27.214927, -14.961533, 74.375000
27.214927, -14.961533, 74.500000
26.955737, -14.819042, 74.625000
26.955737, -14.819042, 74.750000
26.955737, -14.819042, 74.875000
26.955737, -14.819042, 75.000000
26.696548, -14.676551, 75.125000
26.696548, -14.676551, 75.250000
26.955737, -14.819042, 75.375000
26.696548, -14.676551, 75.500000
26.955737, -14.819042, 75.625000
26.955737, -14.819042, 75.750000
27.214927, -14.961533, 75.875000
27.214927, -14.961533, 76.000000
27.214927, -14.961533, 76.125000
27.214927, -14.961533, 76.250000
27.474117, -15.104024, 76.375000
27.733307, -15.246514, 76.500000
27.733307, -15.246514, 76.625000
27.733307, -15.246514, 76.750000
27.992496, -15.389005, 76.875000
27.992496, -15.389005, 77.000000
28.251686, -15.531496, 77.125000
28.510876, -15.673987, 77.250000
28.510876, -15.673987, 77.375000
28.510876, -15.673987, 77.500000
28.770066, -15.816478, 77.625000
29.029256, -15.958968, 77.750000
29.029256, -15.958968, 77.875000
29.288445, -16.101459, 78.000000
29.547635, -16.243950, 78.125000
29.547635, -16.243950, 78.250000
29.806825, -16.386441, 78.375000
30.066015, -16.528931, 78.500000
30.066015, -16.528931, 78.625000
30.325204, -16.671422, 78.750000
30.584394, -16.813913, 78.875000
30.584394, -16.813913, 79.000000
30.843584, -16.956404, 79.125000
30.843584, -16.956404, 79.250000
31.102774, -17.098895, 79.375000
31.361964, -17.241385, 79.500000
31.621153, -17.383876, 79.625000
31.621153, -17.383876, 79.750000
31.880343, -17.526367, 79.875000
32.139533, -17.668858, 80.000000
32.398723, -17.811349, 80.125000
32.398723, -17.811349, 80.250000
32.917102, -18.096330, 80.375000
32.917102, -18.096330, 80.500000
33.176292, -18.238821, 80.625000
33.176292, -18.238821, 80.750000
33.435482, -18.381312, 80.875000
33.694672, -18.523802, 81.000000
33.694672, -18.523802, 81.125000
33.953861, -18.666293, 81.250000
34.213051, -18.808784, 81.375000
34.472241, -18.951275, 81.500000
34.472241, -18.951275, 81.625000
34.731431, -19.093766, 81.750000
34.731431, -19.093766, 81.875000
34.990621, -19.236256, 82.000000
34.990621, -19.236256, 82.125000
35.249810, -19.378747, 82.250000
35.509000, -19.521238, 82.375000
35.509000, -19.521238, 82.500000
35.509000, -19.521238, 82.625000
35.768190, -19.663729, 82.750000
35.768190, -19.663729, 82.875000
36.027380, -19.806220, 83.000000
36.027380, -19.806220, 83.125000
36.027380, -19.806220, 83.250000
50.023628, -27.500722, 102.500000
51.319577, -28.213176, 102.625000
49.246059, -27.073250, 102.750000
51.060387, -28.070685, 102.875000
50.542007, -27.785704, 103.000000
50.801197, -27.928195, 103.125000
50.801197, -27.928195, 103.250000
50.801197, -27.928195, 103.375000
50.801197, -27.928195, 103.500000
18.184097, -9.265260, 20.750000
17.920559, -9.130981, 20.875000
17.920559, -9.130981, 21.000000
17.920559, -9.130981, 21.125000
18.184097, -9.265260, 21.250000
17.920559, -9.130981, 21.375000
18.184097, -9.265260, 21.500000
18.711172, -9.533818, 21.625000
18.974709, -9.668097, 21.750000
18.974709, -9.668097, 21.875000
18.974709, -9.668097, 22.000000
19.501785, -9.936656, 22.125000
19.765322, -10.070935, 22.250000
20.028860, -10.205214, 22.375000
20.292398, -10.339493, 22.500000
20.292398, -10.339493, 22.625000
20.555935, -10.473772, 22.750000
20.555935, -10.473772, 22.875000
20.555935, -10.473772, 23.000000
20.819473, -10.608051, 23.125000
21.083010, -10.742330, 23.250000
21.610086, -11.010889, 23.375000
21.873623, -11.145168, 23.500000
21.610086, -11.010889, 23.625000
21.873623, -11.145168, 23.750000
22.137161, -11.279447, 23.875000
