10.332405, 26.096677, 75.750000
10.430343, 26.344039, 75.875000
10.479312, 26.467720, 76.000000
10.528280, 26.591401, 76.125000
10.626218, 26.838763, 76.250000
10.724155, 27.086124, 76.375000
10.773124, 27.209805, 76.500000
10.871062, 27.457167, 76.625000
10.920030, 27.580848, 76.750000
10.968999, 27.704529, 76.875000
11.066937, 27.951891, 77.000000
11.115905, 28.075572, 77.125000
11.213843, 28.322934, 77.250000
11.262812, 28.446615, 77.375000
11.360749, 28.693977, 77.500000
11.360749, 28.693977, 77.625000
11.360749, 28.693977, 77.750000
11.360749, 28.693977, 77.875000
11.409718, 28.817658, 78.000000
11.458687, 28.941338, 78.125000
11.507655, 29.065019, 78.250000
10.949500, 30.413406, 31.875000
10.949500, 30.413406, 32.000000
10.994560, 30.538564, 32.125000
10.949500, 30.413406, 32.250000
11.039619, 30.663722, 32.375000
11.039619, 30.663722, 32.500000
10.994560, 30.538564, 32.625000
11.219858, 31.164354, 32.750000
11.174798, 31.039196, 32.875000
11.174798, 31.039196, 33.000000
11.129739, 30.914038, 33.125000
11.174798, 31.039196, 33.250000
11.264918, 31.289513, 33.375000
11.219858, 31.164354, 33.500000
11.309977, 31.414671, 33.625000
11.264918, 31.289513, 33.750000
11.309977, 31.414671, 33.875000
11.309977, 31.414671, 34.000000
11.355037, 31.539829, 34.125000
11.400097, 31.664987, 34.250000
11.445156, 31.790145, 34.375000
11.445156, 31.790145, 34.500000
11.490216, 31.915303, 34.625000
11.490216, 31.915303, 34.750000
11.625395, 32.290777, 34.875000
11.580335, 32.165619, 35.000000
11.625395, 32.290777, 35.125000
11.625395, 32.290777, 35.250000
11.580335, 32.165619, 35.375000
11.625395, 32.290777, 35.500000
11.670455, 32.415935, 35.625000
11.625395, 32.290777, 35.750000
11.670455, 32.415935, 35.875000
11.715514, 32.541093, 36.000000
11.715514, 32.541093, 36.125000
11.760574, 32.666251, 36.250000
11.760574, 32.666251, 36.375000
11.805634, 32.791409, 36.500000
11.805634, 32.791409, 36.625000
11.895753, 33.041725, 36.750000
11.895753, 33.041725, 36.875000
11.940813, 33.166883, 37.000000
11.895753, 33.041725, 37.125000
11.985872, 33.292041, 37.250000
12.030932, 33.417199, 37.375000
11.940813, 33.166883, 37.500000
11.985872, 33.292041, 37.625000
11.985872, 33.292041, 37.750000
11.985872, 33.292041, 37.875000
12.075992, 33.542357, 38.000000
12.075992, 33.542357, 38.125000
12.075992, 33.542357, 38.250000
12.121051, 33.667515, 38.375000
12.166111, 33.792674, 38.500000
12.121051, 33.667515, 38.625000
12.166111, 33.792674, 38.750000
12.166111, 33.792674, 38.875000
12.166111, 33.792674, 39.000000
12.211171, 33.917832, 39.125000
12.211171, 33.917832, 39.250000
12.211171, 33.917832, 39.375000
12.256230, 34.042990, 39.500000
12.256230, 34.042990, 39.625000
12.256230, 34.042990, 39.750000
12.301290, 34.168148, 39.875000
12.301290, 34.168148, 40.000000
12.301290, 34.168148, 40.125000
12.301290, 34.168148, 40.250000
12.346350, 34.293306, 40.375000
12.346350, 34.293306, 40.500000
12.391409, 34.418464, 40.625000
12.346350, 34.293306, 40.750000
12.391409, 34.418464, 40.875000
12.391409, 34.418464, 41.000000
12.391409, 34.418464, 41.125000
12.391409, 34.418464, 41.250000
12.391409, 34.418464, 41.375000
12.436469, 34.543622, 41.500000
12.436469, 34.543622, 41.625000
12.436469, 34.543622, 41.750000
12.436469, 34.543622, 41.875000
12.481529, 34.668780, 42.000000
12.481529, 34.668780, 42.125000
12.481529, 34.668780, 42.250000
12.481529, 34.668780, 42.375000
12.526588, 34.793938, 42.500000
12.526588, 34.793938, 42.625000
12.526588, 34.793938, 42.750000
12.526588, 34.793938, 42.875000
12.526588, 34.793938, 43.000000
12.526588, 34.793938, 43.125000
12.526588, 34.793938, 43.250000
12.526588, 34.793938, 43.375000
12.571648, 34.919096, 43.500000
12.571648, 34.919096, 43.625000
12.571648, 34.919096, 43.750000
12.571648, 34.919096, 43.875000
12.571648, 34.919096, 44.000000
12.571648, 34.919096, 44.125000
12.616708, 35.044254, 44.250000
12.616708, 35.044254, 44.375000
12.616708, 35.044254, 44.500000
12.616708, 35.044254, 44.625000
12.616708, 35.044254, 44.750000
12.616708, 35.044254, 44.875000
12.616708, 35.044254, 45.000000
12.661767, 35.169412, 45.125000
12.661767, 35.169412, 45.250000
12.661767, 35.169412, 45.375000
12.661767, 35.169412, 45.500000
12.661767, 35.169412, 45.625000
12.661767, 35.169412, 45.750000
12.616708, 35.044254, 45.875000
12.616708, 35.044254, 46.000000
12.616708, 35.044254, 46.125000
12.661767, 35.169412, 46.250000
12.661767, 35.169412, 46.375000
12.706827, 35.294570, 46.500000
12.706827, 35.294570, 46.625000
12.706827, 35.294570, 46.750000
12.706827, 35.294570, 46.875000
12.661767, 35.169412, 47.000000
12.706827, 35.294570, 47.125000
12.706827, 35.294570, 47.250000
12.706827, 35.294570, 47.375000
12.706827, 35.294570, 47.500000
12.706827, 35.294570, 47.625000
12.706827, 35.294570, 47.750000
12.706827, 35.294570, 47.875000
12.706827, 35.294570, 48.000000
12.706827, 35.294570, 48.125000
12.706827, 35.294570, 48.250000
12.661767, 35.169412, 48.375000
12.706827, 35.294570, 48.500000
12.706827, 35.294570, 48.625000
12.706827, 35.294570, 48.750000
12.706827, 35.294570, 48.875000
12.706827, 35.294570, 49.000000
12.706827, 35.294570, 49.125000
12.616708, 35.044254, 49.250000
12.616708, 35.044254, 49.375000
12.616708, 35.044254, 49.500000
12.616708, 35.044254, 49.625000
12.661767, 35.169412, 49.750000
12.661767, 35.169412, 49.875000
12.616708, 35.044254, 50.000000
12.571648, 34.919096, 50.125000
12.571648, 34.919096, 50.250000
12.616708, 35.044254, 50.375000
12.526588, 34.793938, 50.500000
12.481529, 34.668780, 50.625000
12.526588, 34.793938, 50.750000
8.245920, 22.903923, 72.375000
8.245920, 22.903923, 72.500000
8.245920, 22.903923, 72.625000
8.245920, 22.903923, 72.750000
8.245920, 22.903923, 72.875000
8.290979, 23.029081, 73.000000
8.290979, 23.029081, 73.125000
8.336039, 23.154239, 73.250000
8.381099, 23.279397, 73.375000
8.426158, 23.404555, 73.500000
8.471218, 23.529713, 73.625000
8.471218, 23.529713, 73.750000
8.516278, 23.654871, 73.875000
8.606397, 23.905188, 74.000000
8.651457, 24.030346, 74.125000
8.696516, 24.155504, 74.250000
8.786636, 24.405820, 74.375000
8.876755, 24.656136, 74.500000
8.921815, 24.781294, 74.625000
8.966874, 24.906452, 74.750000
9.056994, 25.156768, 74.875000
9.056994, 25.156768, 75.000000
9.147113, 25.407084, 75.125000
9.192173, 25.532242, 75.250000
9.282292, 25.782558, 75.375000
9.327352, 25.907716, 75.500000
9.417471, 26.158032, 75.625000
9.507591, 26.408349, 75.750000
9.552650, 26.533507, 75.875000
9.687829, 26.908981, 76.000000
9.687829, 26.908981, 76.125000
9.777949, 27.159297, 76.250000
9.823008, 27.284455, 76.375000
9.913128, 27.534771, 76.500000
10.048307, 27.910245, 76.625000
10.048307, 27.910245, 76.750000
10.138426, 28.160561, 76.875000
10.183486, 28.285719, 77.000000
10.273605, 28.536035, 77.125000
10.318665, 28.661193, 77.250000
10.363724, 28.786352, 77.375000
10.453844, 29.036668, 77.500000
10.498903, 29.161826, 77.625000
10.498903, 29.161826, 77.750000
10.498903, 29.161826, 77.875000
10.589023, 29.412142, 78.000000
10.589023, 29.412142, 78.125000
10.634082, 29.537300, 78.375000
9.947683, 30.615819, 31.875000
9.947683, 30.615819, 32.000000
10.029895, 30.868843, 32.125000
10.029895, 30.868843, 32.250000
10.029895, 30.868843, 32.375000
10.029895, 30.868843, 32.500000
10.071001, 30.995354, 32.625000
10.071001, 30.995354, 32.750000
10.112107, 31.121866, 32.875000
10.112107, 31.121866, 33.000000
10.153213, 31.248378, 33.125000
10.194320, 31.374889, 33.250000
10.194320, 31.374889, 33.375000
10.276532, 31.627913, 33.500000
10.358744, 31.880936, 33.625000
10.358744, 31.880936, 33.750000
10.440956, 32.133959, 33.875000
10.440956, 32.133959, 34.000000
10.440956, 32.133959, 34.125000
10.440956, 32.133959, 34.250000
10.399850, 32.007448, 34.375000
10.440956, 32.133959, 34.500000
10.523169, 32.386983, 34.625000
10.564275, 32.513494, 34.750000
10.605381, 32.640006, 34.875000
10.605381, 32.640006, 35.000000
10.646487, 32.766518, 35.125000
10.646487, 32.766518, 35.250000
10.687593, 32.893029, 35.375000
10.687593, 32.893029, 35.500000
10.728699, 33.019541, 35.625000
10.769805, 33.146052, 35.750000
10.687593, 32.893029, 35.875000
10.728699, 33.019541, 36.000000
10.810911, 33.272564, 36.125000
10.810911, 33.272564, 36.250000
10.852018, 33.399076, 36.375000
10.852018, 33.399076, 36.500000
10.852018, 33.399076, 36.625000
10.852018, 33.399076, 36.750000
10.893124, 33.525587, 36.875000
10.934230, 33.652099, 37.000000
10.934230, 33.652099, 37.125000
10.934230, 33.652099, 37.250000
10.975336, 33.778611, 37.375000
10.934230, 33.652099, 37.500000
10.975336, 33.778611, 37.625000
10.975336, 33.778611, 37.750000
11.016442, 33.905122, 37.875000
11.016442, 33.905122, 38.000000
11.016442, 33.905122, 38.125000
11.057548, 34.031634, 38.250000
11.057548, 34.031634, 38.375000
11.057548, 34.031634, 38.500000
11.098654, 34.158146, 38.625000
11.098654, 34.158146, 38.750000
11.098654, 34.158146, 38.875000
11.139760, 34.284657, 39.000000
11.139760, 34.284657, 39.125000
11.139760, 34.284657, 39.250000
11.180867, 34.411169, 39.375000
11.180867, 34.411169, 39.500000
11.180867, 34.411169, 39.625000
11.180867, 34.411169, 39.750000
11.221973, 34.537681, 39.875000
11.221973, 34.537681, 40.000000
11.221973, 34.537681, 40.125000
11.221973, 34.537681, 40.250000
11.263079, 34.664192, 40.375000
11.263079, 34.664192, 40.500000
11.263079, 34.664192, 40.625000
11.304185, 34.790704, 40.750000
11.304185, 34.790704, 40.875000
11.304185, 34.790704, 41.000000
11.304185, 34.790704, 41.125000
11.304185, 34.790704, 41.250000
11.304185, 34.790704, 41.375000
11.345291, 34.917216, 41.500000
11.345291, 34.917216, 41.625000
11.345291, 34.917216, 41.750000
11.345291, 34.917216, 41.875000
11.345291, 34.917216, 42.000000
11.345291, 34.917216, 42.125000
11.345291, 34.917216, 42.250000
11.386397, 35.043727, 42.375000
11.386397, 35.043727, 42.500000
11.386397, 35.043727, 42.625000
11.386397, 35.043727, 42.750000
11.386397, 35.043727, 42.875000
11.427503, 35.170239, 43.000000
11.427503, 35.170239, 43.125000
11.468609, 35.296751, 43.250000
11.468609, 35.296751, 43.375000
11.468609, 35.296751, 43.500000
11.468609, 35.296751, 43.625000
11.468609, 35.296751, 43.750000
11.468609, 35.296751, 43.875000
11.509716, 35.423262, 44.000000
11.509716, 35.423262, 44.125000
11.509716, 35.423262, 44.250000
11.468609, 35.296751, 44.375000
11.468609, 35.296751, 44.500000
11.468609, 35.296751, 44.625000
11.509716, 35.423262, 44.750000
11.509716, 35.423262, 44.875000
11.509716, 35.423262, 45.000000
11.509716, 35.423262, 45.125000
11.509716, 35.423262, 45.250000
11.509716, 35.423262, 45.375000
11.509716, 35.423262, 45.500000
11.550822, 35.549774, 45.625000
11.509716, 35.423262, 45.750000
11.509716, 35.423262, 45.875000
11.509716, 35.423262, 46.000000
11.509716, 35.423262, 46.125000
11.509716, 35.423262, 46.250000
11.509716, 35.423262, 46.375000
11.633034, 35.802797, 46.500000
11.550822, 35.549774, 46.625000
11.591928, 35.676285, 46.750000
11.509716, 35.423262, 46.875000
11.509716, 35.423262, 47.000000
11.509716, 35.423262, 47.125000
11.509716, 35.423262, 47.250000
11.509716, 35.423262, 47.375000
11.550822, 35.549774, 47.500000
11.509716, 35.423262, 47.625000
11.509716, 35.423262, 47.750000
11.509716, 35.423262, 47.875000
11.550822, 35.549774, 48.000000
11.550822, 35.549774, 48.125000
11.509716, 35.423262, 48.250000
11.550822, 35.549774, 48.375000
11.550822, 35.549774, 48.500000
11.509716, 35.423262, 48.625000
11.509716, 35.423262, 48.750000
11.509716, 35.423262, 48.875000
11.550822, 35.549774, 49.000000
11.509716, 35.423262, 49.250000
11.468609, 35.296751, 49.375000
11.427503, 35.170239, 50.125000
11.427503, 35.170239, 50.250000
7.522421, 23.151632, 72.250000
7.481315, 23.025120, 72.375000
7.481315, 23.025120, 72.500000
7.481315, 23.025120, 72.625000
7.522421, 23.151632, 72.750000
7.522421, 23.151632, 72.875000
7.563527, 23.278144, 73.000000
7.604634, 23.404655, 73.125000
7.604634, 23.404655, 73.250000
7.645740, 23.531167, 73.375000
7.645740, 23.531167, 73.500000
7.727952, 23.784190, 73.625000
7.727952, 23.784190, 73.750000
7.810164, 24.037214, 73.875000
7.851270, 24.163725, 74.000000
7.933483, 24.416749, 74.125000
8.015695, 24.669772, 74.250000
8.015695, 24.669772, 74.375000
8.139013, 25.049307, 74.500000
8.180119, 25.175818, 74.625000
8.221225, 25.302330, 74.750000
8.262332, 25.428842, 74.875000
8.303438, 25.555353, 75.000000
8.344544, 25.681865, 75.125000
8.385650, 25.808377, 75.250000
8.467862, 26.061400, 75.375000
8.508968, 26.187912, 75.500000
8.591181, 26.440935, 75.625000
8.673393, 26.693958, 75.750000
8.755605, 26.946982, 75.875000
8.837817, 27.200005, 76.000000
8.920030, 27.453028, 76.125000
8.961136, 27.579540, 76.250000
9.043348, 27.832563, 76.375000
9.084454, 27.959075, 76.500000
9.125560, 28.085586, 76.625000
9.207772, 28.338610, 76.750000
9.289985, 28.591633, 76.875000
9.289985, 28.591633, 77.000000
9.372197, 28.844656, 77.125000
9.413303, 28.971168, 77.250000
9.454409, 29.097680, 77.375000
9.495515, 29.224191, 77.500000
9.577728, 29.477215, 77.625000
9.577728, 29.477215, 77.750000
9.577728, 29.477215, 77.875000
9.618834, 29.603726, 78.000000
9.618834, 29.603726, 78.125000
9.659940, 29.730238, 78.250000
9.783258, 30.109773, 78.375000
9.166668, 31.551879, 33.000000
9.166668, 31.551879, 33.125000
9.315116, 32.062840, 33.250000
9.278004, 31.935100, 33.375000
9.352228, 32.190581, 33.500000
9.352228, 32.190581, 33.625000
9.389340, 32.318321, 33.750000
9.463564, 32.573802, 33.875000
9.463564, 32.573802, 34.000000
9.463564, 32.573802, 34.125000
9.500676, 32.701542, 34.250000
9.500676, 32.701542, 34.375000
9.537788, 32.829283, 34.500000
9.537788, 32.829283, 34.625000
9.574900, 32.957023, 34.750000
9.612012, 33.084763, 34.875000
9.649124, 33.212504, 35.000000
9.612012, 33.084763, 35.125000
9.649124, 33.212504, 35.250000
9.649124, 33.212504, 35.375000
9.686236, 33.340244, 35.500000
9.723348, 33.467985, 35.625000
9.723348, 33.467985, 35.750000
9.723348, 33.467985, 35.875000
9.760460, 33.595725, 36.000000
9.760460, 33.595725, 36.125000
9.760460, 33.595725, 36.250000
9.797572, 33.723465, 36.375000
9.797572, 33.723465, 36.500000
9.834684, 33.851206, 36.625000
9.834684, 33.851206, 36.750000
9.834684, 33.851206, 36.875000
9.871796, 33.978946, 37.000000
9.871796, 33.978946, 37.125000
9.871796, 33.978946, 37.250000
9.908908, 34.106687, 37.375000
9.908908, 34.106687, 37.500000
9.946020, 34.234427, 37.625000
9.946020, 34.234427, 37.750000
9.946020, 34.234427, 37.875000
9.946020, 34.234427, 38.000000
9.983132, 34.362167, 38.125000
9.983132, 34.362167, 38.250000
9.983132, 34.362167, 38.375000
9.983132, 34.362167, 38.500000
10.020245, 34.489908, 38.625000
10.057357, 34.617648, 38.750000
10.057357, 34.617648, 38.875000
10.057357, 34.617648, 39.000000
10.057357, 34.617648, 39.125000
10.094469, 34.745389, 39.250000
10.094469, 34.745389, 39.375000
10.094469, 34.745389, 39.500000
10.094469, 34.745389, 39.625000
10.131581, 34.873129, 39.750000
10.131581, 34.873129, 39.875000
10.131581, 34.873129, 40.000000
10.168693, 35.000869, 40.125000
10.168693, 35.000869, 40.250000
10.168693, 35.000869, 40.375000
10.168693, 35.000869, 40.500000
10.205805, 35.128610, 40.625000
10.205805, 35.128610, 40.750000
10.205805, 35.128610, 40.875000
10.205805, 35.128610, 41.000000
10.242917, 35.256350, 41.125000
10.242917, 35.256350, 41.250000
10.242917, 35.256350, 41.375000
10.242917, 35.256350, 41.500000
10.242917, 35.256350, 41.625000
10.242917, 35.256350, 41.750000
10.280029, 35.384091, 41.875000
10.280029, 35.384091, 42.000000
10.280029, 35.384091, 42.125000
10.317141, 35.511831, 42.250000
10.317141, 35.511831, 42.375000
10.317141, 35.511831, 42.500000
10.317141, 35.511831, 42.625000
10.317141, 35.511831, 42.750000
10.354253, 35.639571, 42.875000
10.354253, 35.639571, 43.000000
10.354253, 35.639571, 43.125000
10.354253, 35.639571, 43.250000
10.354253, 35.639571, 43.375000
10.354253, 35.639571, 43.500000
10.391365, 35.767312, 43.625000
10.354253, 35.639571, 43.750000
10.391365, 35.767312, 43.875000
10.391365, 35.767312, 44.000000
10.391365, 35.767312, 44.125000
10.354253, 35.639571, 44.250000
10.391365, 35.767312, 44.375000
10.391365, 35.767312, 44.500000
10.391365, 35.767312, 44.625000
10.391365, 35.767312, 44.750000
10.391365, 35.767312, 44.875000
10.428477, 35.895052, 45.000000
10.428477, 35.895052, 45.125000
10.465589, 36.022793, 45.250000
10.428477, 35.895052, 45.375000
10.465589, 36.022793, 45.500000
10.465589, 36.022793, 45.625000
10.465589, 36.022793, 45.750000
10.465589, 36.022793, 45.875000
10.465589, 36.022793, 46.000000
10.428477, 35.895052, 46.125000
10.465589, 36.022793, 46.250000
10.465589, 36.022793, 46.375000
10.465589, 36.022793, 46.500000
10.465589, 36.022793, 46.625000
10.465589, 36.022793, 46.750000
10.465589, 36.022793, 46.875000
10.465589, 36.022793, 47.000000
10.465589, 36.022793, 47.125000
10.465589, 36.022793, 47.250000
10.465589, 36.022793, 47.375000
10.465589, 36.022793, 47.500000
10.465589, 36.022793, 47.625000
10.465589, 36.022793, 47.750000
10.465589, 36.022793, 47.875000
10.465589, 36.022793, 48.000000
10.465589, 36.022793, 48.125000
10.465589, 36.022793, 48.250000
10.465589, 36.022793, 48.375000
10.465589, 36.022793, 48.500000
10.428477, 35.895052, 48.625000
10.428477, 35.895052, 48.750000
10.428477, 35.895052, 48.875000
10.428477, 35.895052, 49.000000
10.428477, 35.895052, 49.125000
10.428477, 35.895052, 49.250000
10.391365, 35.767312, 49.375000
10.391365, 35.767312, 49.500000
10.391365, 35.767312, 49.625000
10.428477, 35.895052, 49.750000
10.391365, 35.767312, 49.875000
10.354253, 35.639571, 50.000000
10.354253, 35.639571, 50.125000
10.391365, 35.767312, 50.250000
10.428477, 35.895052, 50.375000
10.391365, 35.767312, 50.500000
10.391365, 35.767312, 50.625000
10.391365, 35.767312, 50.750000
10.391365, 35.767312, 50.875000
10.280029, 35.384091, 51.000000
10.317141, 35.511831, 51.125000
10.354253, 35.639571, 51.250000
10.354253, 35.639571, 51.375000
10.317141, 35.511831, 51.500000
10.354253, 35.639571, 51.625000
10.354253, 35.639571, 51.750000
6.754387, 23.248753, 72.375000
6.754387, 23.248753, 72.500000
6.754387, 23.248753, 72.625000
6.791499, 23.376493, 72.750000
6.791499, 23.376493, 72.875000
6.828611, 23.504233, 73.000000
6.865723, 23.631974, 73.125000
6.865723, 23.631974, 73.250000
6.902835, 23.759714, 73.375000
6.939947, 23.887455, 73.500000
6.977059, 24.015195, 73.625000
6.977059, 24.015195, 73.750000
7.051283, 24.270676, 73.875000
7.051283, 24.270676, 74.000000
7.125507, 24.526157, 74.125000
7.162619, 24.653897, 74.250000
7.236843, 24.909378, 74.375000
7.311067, 25.164859, 74.500000
7.348179, 25.292599, 74.625000
7.385291, 25.420339, 74.750000
7.422403, 25.548080, 74.875000
7.496627, 25.803561, 75.000000
7.533739, 25.931301, 75.125000
7.570851, 26.059041, 75.250000
7.645075, 26.314522, 75.375000
7.719299, 26.570003, 75.500000
7.756411, 26.697743, 75.625000
7.830636, 26.953224, 75.750000
7.867748, 27.080965, 75.875000
7.941972, 27.336445, 76.000000
8.016196, 27.591926, 76.125000
8.053308, 27.719667, 76.250000
8.164644, 28.102888, 76.375000
8.201756, 28.230628, 76.500000
8.275980, 28.486109, 76.625000
8.313092, 28.613849, 76.750000
8.350204, 28.741590, 76.875000
8.387316, 28.869330, 77.000000
8.461540, 29.124811, 77.125000
8.498652, 29.252551, 77.250000
8.535764, 29.380292, 77.375000
8.609988, 29.635773, 77.500000
8.647100, 29.763513, 77.625000
8.647100, 29.763513, 77.750000
8.647100, 29.763513, 77.875000
8.647100, 29.763513, 78.000000
8.684212, 29.891253, 78.125000
8.758436, 30.146734, 78.250000
8.795548, 30.274475, 78.375000
7.840264, 30.535811, 30.875000
7.840264, 30.535811, 31.000000
7.840264, 30.535811, 31.125000
7.873345, 30.664654, 31.250000
7.906426, 30.793497, 31.375000
7.939508, 30.922340, 31.500000
7.972589, 31.051183, 31.625000
8.005670, 31.180026, 31.750000
8.038751, 31.308869, 31.875000
8.071833, 31.437712, 32.000000
8.071833, 31.437712, 32.125000
8.137995, 31.695399, 32.250000
8.104914, 31.566556, 32.375000
8.137995, 31.695399, 32.500000
8.171076, 31.824242, 32.625000
8.171076, 31.824242, 32.750000
8.171076, 31.824242, 32.875000
8.204158, 31.953085, 33.000000
8.204158, 31.953085, 33.125000
8.237239, 32.081928, 33.250000
8.270320, 32.210771, 33.375000
8.270320, 32.210771, 33.500000
8.336483, 32.468457, 33.625000
8.336483, 32.468457, 33.750000
8.369564, 32.597300, 33.875000
8.369564, 32.597300, 34.000000
8.402645, 32.726143, 34.125000
8.402645, 32.726143, 34.250000
8.468808, 32.983829, 34.375000
8.435727, 32.854986, 34.500000
8.468808, 32.983829, 34.625000
8.501889, 33.112673, 34.750000
8.534971, 33.241516, 34.875000
8.534971, 33.241516, 35.000000
8.568052, 33.370359, 35.125000
8.601133, 33.499202, 35.250000
8.601133, 33.499202, 35.375000
8.634214, 33.628045, 35.500000
8.667296, 33.756888, 35.625000
8.667296, 33.756888, 35.750000
8.667296, 33.756888, 35.875000
8.700377, 33.885731, 36.000000
8.700377, 33.885731, 36.125000
8.700377, 33.885731, 36.250000
8.733458, 34.014574, 36.375000
8.733458, 34.014574, 36.500000
8.766540, 34.143417, 36.625000
8.766540, 34.143417, 36.750000
8.799621, 34.272260, 36.875000
8.799621, 34.272260, 37.000000
8.799621, 34.272260, 37.125000
8.799621, 34.272260, 37.250000
8.832702, 34.401103, 37.375000
8.799621, 34.272260, 37.500000
8.799621, 34.272260, 37.625000
8.865783, 34.529946, 37.750000
8.865783, 34.529946, 37.875000
8.898865, 34.658790, 38.000000
8.898865, 34.658790, 38.125000
8.931946, 34.787633, 38.250000
8.931946, 34.787633, 38.375000
8.931946, 34.787633, 38.500000
8.931946, 34.787633, 38.625000
8.965027, 34.916476, 38.750000
8.965027, 34.916476, 38.875000
8.965027, 34.916476, 39.000000
8.965027, 34.916476, 39.125000
8.998109, 35.045319, 39.250000
8.998109, 35.045319, 39.375000
8.998109, 35.045319, 39.500000
9.031190, 35.174162, 39.625000
9.031190, 35.174162, 39.750000
9.031190, 35.174162, 39.875000
9.031190, 35.174162, 40.000000
9.064271, 35.303005, 40.125000
9.064271, 35.303005, 40.250000
9.064271, 35.303005, 40.375000
9.064271, 35.303005, 40.500000
9.064271, 35.303005, 40.625000
9.097352, 35.431848, 40.750000
9.097352, 35.431848, 40.875000
9.097352, 35.431848, 41.000000
9.097352, 35.431848, 41.125000
9.130434, 35.560691, 41.250000
9.130434, 35.560691, 41.375000
9.163515, 35.689534, 41.500000
9.163515, 35.689534, 41.625000
9.163515, 35.689534, 41.750000
9.163515, 35.689534, 41.875000
9.163515, 35.689534, 42.000000
9.163515, 35.689534, 42.125000
9.196596, 35.818377, 42.250000
9.196596, 35.818377, 42.375000
9.196596, 35.818377, 42.500000
9.196596, 35.818377, 42.625000
9.196596, 35.818377, 42.750000
9.196596, 35.818377, 42.875000
9.196596, 35.818377, 43.000000
9.229677, 35.947220, 43.125000
9.229677, 35.947220, 43.250000
9.229677, 35.947220, 43.375000
9.229677, 35.947220, 43.500000
9.262759, 36.076063, 43.625000
9.262759, 36.076063, 43.750000
9.262759, 36.076063, 43.875000
9.262759, 36.076063, 44.000000
9.262759, 36.076063, 44.125000
9.262759, 36.076063, 44.250000
9.262759, 36.076063, 44.375000
9.295840, 36.204907, 44.500000
9.295840, 36.204907, 44.625000
9.295840, 36.204907, 44.750000
9.295840, 36.204907, 44.875000
9.295840, 36.204907, 45.000000
9.295840, 36.204907, 45.125000
9.295840, 36.204907, 45.250000
9.295840, 36.204907, 45.375000
9.328921, 36.333750, 45.500000
9.328921, 36.333750, 45.625000
9.328921, 36.333750, 45.750000
9.328921, 36.333750, 45.875000
9.328921, 36.333750, 46.000000
9.328921, 36.333750, 46.125000
9.328921, 36.333750, 46.250000
9.328921, 36.333750, 46.375000
9.328921, 36.333750, 46.500000
9.328921, 36.333750, 46.625000
9.328921, 36.333750, 46.750000
9.328921, 36.333750, 46.875000
9.328921, 36.333750, 47.000000
9.328921, 36.333750, 47.125000
9.328921, 36.333750, 47.250000
9.328921, 36.333750, 47.375000
9.328921, 36.333750, 47.500000
9.328921, 36.333750, 47.625000
9.328921, 36.333750, 47.750000
9.328921, 36.333750, 47.875000
9.328921, 36.333750, 48.000000
9.328921, 36.333750, 48.125000
9.328921, 36.333750, 48.250000
9.328921, 36.333750, 48.375000
9.328921, 36.333750, 48.500000
9.328921, 36.333750, 48.625000
9.328921, 36.333750, 48.750000
9.295840, 36.204907, 48.875000
9.295840, 36.204907, 49.000000
9.295840, 36.204907, 49.125000
9.295840, 36.204907, 49.250000
9.262759, 36.076063, 49.375000
9.295840, 36.204907, 49.500000
9.262759, 36.076063, 49.625000
9.328921, 36.333750, 49.750000
9.295840, 36.204907, 49.875000
9.196596, 35.818377, 50.000000
9.262759, 36.076063, 50.125000
9.229677, 35.947220, 50.250000
9.295840, 36.204907, 50.375000
9.262759, 36.076063, 50.500000
9.262759, 36.076063, 50.625000
9.295840, 36.204907, 50.750000
9.262759, 36.076063, 50.875000
9.229677, 35.947220, 51.000000
9.229677, 35.947220, 51.125000
9.229677, 35.947220, 51.250000
9.229677, 35.947220, 51.375000
9.229677, 35.947220, 51.500000
9.262759, 36.076063, 51.625000
9.229677, 35.947220, 51.750000
9.229677, 35.947220, 51.875000
9.229677, 35.947220, 52.000000
9.229677, 35.947220, 52.125000
6.053874, 23.578284, 72.375000
6.020793, 23.449441, 72.500000
6.053874, 23.578284, 72.625000
6.053874, 23.578284, 72.750000
6.086956, 23.707127, 72.875000
6.086956, 23.707127, 73.000000
6.120037, 23.835971, 73.125000
6.153118, 23.964814, 73.250000
6.153118, 23.964814, 73.375000
6.186200, 24.093657, 73.500000
6.219281, 24.222500, 73.625000
6.252362, 24.351343, 73.750000
6.285443, 24.480186, 73.875000
6.318525, 24.609029, 74.000000
6.351606, 24.737872, 74.125000
6.384687, 24.866715, 74.250000
6.450850, 25.124401, 74.375000
6.483931, 25.253244, 74.500000
6.550094, 25.510931, 74.625000
6.583175, 25.639774, 74.750000
6.649338, 25.897460, 74.875000
6.682419, 26.026303, 75.000000
6.715500, 26.155146, 75.125000
6.781663, 26.412832, 75.250000
6.814744, 26.541675, 75.375000
6.880907, 26.799361, 75.500000
6.913988, 26.928205, 75.625000
6.980150, 27.185891, 75.750000
7.046313, 27.443577, 75.875000
7.079394, 27.572420, 76.000000
7.112475, 27.701263, 76.125000
7.178638, 27.958949, 76.250000
7.244801, 28.216635, 76.375000
7.310963, 28.474322, 76.500000
7.377126, 28.732008, 76.625000
7.410207, 28.860851, 76.750000
7.476370, 29.118537, 76.875000
7.509451, 29.247380, 77.000000
7.542532, 29.376223, 77.125000
7.575613, 29.505066, 77.250000
7.608695, 29.633909, 77.375000
7.674857, 29.891595, 77.500000
7.707939, 30.020439, 77.625000
7.774101, 30.278125, 77.750000
7.741020, 30.149282, 77.875000
7.741020, 30.149282, 78.000000
7.741020, 30.149282, 78.125000
7.774101, 30.278125, 78.250000
7.840264, 30.535811, 78.375000
6.906260, 30.896831, 30.750000
6.935278, 31.026649, 30.875000
6.964296, 31.156468, 31.000000
6.935278, 31.026649, 31.125000
6.993314, 31.286286, 31.250000
6.993314, 31.286286, 31.375000
7.022331, 31.416105, 31.500000
7.051349, 31.545924, 31.625000
7.051349, 31.545924, 31.750000
7.051349, 31.545924, 31.875000
7.080367, 31.675742, 32.000000
7.109385, 31.805561, 32.125000
7.138403, 31.935379, 32.250000
7.138403, 31.935379, 32.375000
7.109385, 31.805561, 32.500000
7.167421, 32.065198, 32.625000
7.196439, 32.195017, 32.750000
7.167421, 32.065198, 32.875000
7.196439, 32.195017, 33.000000
7.196439, 32.195017, 33.250000
7.312510, 32.714291, 33.375000
7.283493, 32.584473, 33.500000
7.283493, 32.584473, 33.625000
7.283493, 32.584473, 33.750000
7.341528, 32.844110, 33.875000
7.370546, 32.973928, 34.000000
7.370546, 32.973928, 34.125000
7.486618, 33.493203, 34.250000
7.486618, 33.493203, 34.375000
7.486618, 33.493203, 34.500000
7.486618, 33.493203, 34.625000
7.486618, 33.493203, 34.750000
7.515636, 33.623021, 34.875000
7.515636, 33.623021, 35.000000
7.515636, 33.623021, 35.125000
7.515636, 33.623021, 35.250000
7.515636, 33.623021, 35.375000
7.544654, 33.752840, 35.500000
7.544654, 33.752840, 35.625000
7.602689, 34.012477, 35.750000
7.573672, 33.882659, 35.875000
7.573672, 33.882659, 36.000000
7.631707, 34.142296, 36.125000
7.718761, 34.531752, 36.250000
7.631707, 34.142296, 36.375000
7.747779, 34.661570, 36.500000
7.660725, 34.272115, 36.625000
7.660725, 34.272115, 36.750000
7.718761, 34.531752, 36.875000
7.718761, 34.531752, 37.000000
7.718761, 34.531752, 37.125000
7.747779, 34.661570, 37.250000
7.718761, 34.531752, 37.375000
7.718761, 34.531752, 37.500000
7.776797, 34.791389, 37.625000
7.776797, 34.791389, 37.750000
7.805815, 34.921208, 37.875000
7.805815, 34.921208, 38.000000
7.805815, 34.921208, 38.125000
7.834833, 35.051026, 38.250000
7.834833, 35.051026, 38.375000
7.834833, 35.051026, 38.500000
7.863851, 35.180845, 38.625000
7.863851, 35.180845, 38.750000
7.892868, 35.310663, 38.875000
7.892868, 35.310663, 39.000000
7.892868, 35.310663, 39.125000
7.892868, 35.310663, 39.250000
7.921886, 35.440482, 39.375000
7.921886, 35.440482, 39.500000
7.921886, 35.440482, 39.625000
7.921886, 35.440482, 39.750000
7.921886, 35.440482, 39.875000
7.950904, 35.570301, 40.000000
7.950904, 35.570301, 40.125000
7.950904, 35.570301, 40.250000
7.979922, 35.700119, 40.375000
7.979922, 35.700119, 40.500000
7.979922, 35.700119, 40.625000
7.979922, 35.700119, 40.750000
7.979922, 35.700119, 40.875000
7.979922, 35.700119, 41.000000
8.008940, 35.829938, 41.125000
8.008940, 35.829938, 41.250000
8.008940, 35.829938, 41.375000
8.037958, 35.959757, 41.500000
8.037958, 35.959757, 41.625000
8.037958, 35.959757, 41.750000
8.037958, 35.959757, 41.875000
8.037958, 35.959757, 42.000000
8.066976, 36.089575, 42.125000
8.066976, 36.089575, 42.250000
8.066976, 36.089575, 42.375000
8.066976, 36.089575, 42.500000
8.095994, 36.219394, 42.625000
8.095994, 36.219394, 42.750000
8.095994, 36.219394, 42.875000
8.095994, 36.219394, 43.000000
8.095994, 36.219394, 43.125000
8.125012, 36.349212, 43.250000
8.125012, 36.349212, 43.375000
8.125012, 36.349212, 43.500000
8.125012, 36.349212, 43.625000
8.125012, 36.349212, 43.750000
8.125012, 36.349212, 43.875000
8.125012, 36.349212, 44.000000
8.154030, 36.479031, 44.125000
8.154030, 36.479031, 44.250000
8.154030, 36.479031, 44.375000
8.154030, 36.479031, 44.500000
8.154030, 36.479031, 44.625000
8.154030, 36.479031, 44.750000
8.154030, 36.479031, 44.875000
8.154030, 36.479031, 45.000000
8.183047, 36.608850, 45.125000
8.183047, 36.608850, 45.250000
8.183047, 36.608850, 45.375000
8.183047, 36.608850, 45.500000
8.183047, 36.608850, 45.625000
8.183047, 36.608850, 45.750000
8.154030, 36.479031, 45.875000
8.212065, 36.738668, 46.000000
8.212065, 36.738668, 46.125000
8.183047, 36.608850, 46.250000
8.154030, 36.479031, 46.375000
8.183047, 36.608850, 46.500000
8.183047, 36.608850, 46.625000
8.183047, 36.608850, 46.750000
8.154030, 36.479031, 46.875000
8.154030, 36.479031, 47.000000
8.183047, 36.608850, 47.125000
8.183047, 36.608850, 47.250000
8.212065, 36.738668, 47.375000
8.183047, 36.608850, 47.500000
8.154030, 36.479031, 47.625000
8.183047, 36.608850, 47.750000
8.212065, 36.738668, 47.875000
8.154030, 36.479031, 48.000000
8.183047, 36.608850, 48.125000
8.183047, 36.608850, 48.250000
8.212065, 36.738668, 48.375000
8.154030, 36.479031, 48.500000
8.154030, 36.479031, 48.625000
8.154030, 36.479031, 48.750000
8.183047, 36.608850, 48.875000
8.183047, 36.608850, 49.000000
8.154030, 36.479031, 49.125000
8.154030, 36.479031, 49.250000
8.154030, 36.479031, 49.375000
8.154030, 36.479031, 49.500000
8.154030, 36.479031, 49.625000
8.095994, 36.219394, 49.750000
5.339293, 23.886625, 72.250000
5.310275, 23.756807, 72.375000
5.339293, 23.886625, 72.500000
5.339293, 23.886625, 72.625000
5.310275, 23.756807, 72.750000
5.339293, 23.886625, 72.875000
5.368311, 24.016444, 73.000000
5.397329, 24.146263, 73.125000
5.397329, 24.146263, 73.250000
5.397329, 24.146263, 73.375000
5.426347, 24.276081, 73.500000
5.455365, 24.405900, 73.625000
5.484383, 24.535718, 73.750000
5.484383, 24.535718, 73.875000
5.513401, 24.665537, 74.000000
5.542419, 24.795356, 74.125000
5.600454, 25.054993, 74.250000
5.658490, 25.314630, 74.375000
5.687508, 25.444449, 74.500000
5.716526, 25.574267, 74.625000
5.774562, 25.833905, 74.750000
5.803580, 25.963723, 74.875000
5.861616, 26.223360, 75.000000
5.890633, 26.353179, 75.125000
5.919651, 26.482998, 75.250000
5.977687, 26.742635, 75.375000
6.035723, 27.002272, 75.500000
6.064741, 27.132091, 75.625000
6.122777, 27.391728, 75.750000
6.180812, 27.651365, 75.875000
6.209830, 27.781184, 76.000000
6.238848, 27.911002, 76.125000
6.296884, 28.170640, 76.250000
6.354920, 28.430277, 76.375000
6.383938, 28.560095, 76.500000
6.441973, 28.819733, 76.625000
6.470991, 28.949551, 76.750000
6.529027, 29.209189, 76.875000
6.558045, 29.339007, 77.000000
6.616081, 29.598644, 77.125000
6.674117, 29.858282, 77.250000
6.703135, 29.988100, 77.375000
6.761170, 30.247737, 77.500000
6.790188, 30.377556, 77.625000
6.790188, 30.377556, 77.750000
6.790188, 30.377556, 77.875000
6.848224, 30.637193, 78.000000
6.848224, 30.637193, 78.125000
6.877242, 30.767012, 78.250000
6.848224, 30.637193, 78.375000
6.106840, 32.013178, 31.875000
6.131766, 32.143844, 32.250000
6.131766, 32.143844, 32.375000
6.156692, 32.274510, 32.500000
6.156692, 32.274510, 32.625000
6.206544, 32.535842, 32.750000
6.231470, 32.666508, 32.875000
6.256396, 32.797174, 33.000000
6.231470, 32.666508, 33.125000
6.231470, 32.666508, 33.250000
6.231470, 32.666508, 33.375000
6.331173, 33.189172, 33.500000
6.356099, 33.319838, 33.625000
6.356099, 33.319838, 33.750000
6.356099, 33.319838, 33.875000
6.381025, 33.450504, 34.000000
6.381025, 33.450504, 34.125000
6.405951, 33.581170, 34.250000
6.405951, 33.581170, 34.375000
6.405951, 33.581170, 34.500000
6.430877, 33.711836, 34.625000
6.455803, 33.842502, 34.750000
6.455803, 33.842502, 34.875000
6.480728, 33.973168, 35.000000
6.480728, 33.973168, 35.125000
6.505654, 34.103834, 35.250000
6.505654, 34.103834, 35.375000
6.530580, 34.234500, 35.500000
6.530580, 34.234500, 35.625000
6.555506, 34.365166, 35.750000
6.555506, 34.365166, 35.875000
6.555506, 34.365166, 36.000000
6.580432, 34.495833, 36.125000
6.580432, 34.495833, 36.250000
6.605358, 34.626499, 36.375000
6.605358, 34.626499, 36.500000
6.605358, 34.626499, 36.625000
6.630284, 34.757165, 36.750000
6.630284, 34.757165, 36.875000
6.655210, 34.887831, 37.000000
6.655210, 34.887831, 37.125000
6.655210, 34.887831, 37.250000
6.680136, 35.018497, 37.375000
6.680136, 35.018497, 37.500000
6.680136, 35.018497, 37.625000
6.705061, 35.149163, 37.750000
6.705061, 35.149163, 37.875000
6.705061, 35.149163, 38.000000
6.729987, 35.279829, 38.125000
6.729987, 35.279829, 38.250000
6.729987, 35.279829, 38.375000
6.754913, 35.410495, 38.500000
6.754913, 35.410495, 38.625000
6.754913, 35.410495, 38.750000
6.754913, 35.410495, 38.875000
6.779839, 35.541161, 39.000000
6.779839, 35.541161, 39.125000
6.779839, 35.541161, 39.250000
6.804765, 35.671827, 39.375000
6.804765, 35.671827, 39.500000
6.804765, 35.671827, 39.625000
6.829691, 35.802493, 39.750000
6.829691, 35.802493, 39.875000
6.829691, 35.802493, 40.000000
6.829691, 35.802493, 40.125000
6.829691, 35.802493, 40.250000
6.854617, 35.933159, 40.375000
6.854617, 35.933159, 40.500000
6.854617, 35.933159, 40.625000
6.854617, 35.933159, 40.750000
6.879543, 36.063825, 40.875000
6.879543, 36.063825, 41.000000
6.879543, 36.063825, 41.125000
6.879543, 36.063825, 41.250000
6.904468, 36.194491, 41.375000
6.904468, 36.194491, 41.500000
6.904468, 36.194491, 41.625000
6.904468, 36.194491, 41.750000
6.929394, 36.325157, 41.875000
6.929394, 36.325157, 42.000000
6.929394, 36.325157, 42.125000
6.929394, 36.325157, 42.250000
6.929394, 36.325157, 42.375000
6.954320, 36.455823, 42.500000
6.954320, 36.455823, 42.625000
6.979246, 36.586489, 42.750000
6.954320, 36.455823, 42.875000
6.979246, 36.586489, 43.000000
6.979246, 36.586489, 43.125000
6.979246, 36.586489, 43.250000
6.979246, 36.586489, 43.375000
6.979246, 36.586489, 43.500000
6.979246, 36.586489, 43.625000
6.979246, 36.586489, 43.750000
7.004172, 36.717155, 43.875000
7.004172, 36.717155, 44.000000
7.029098, 36.847821, 44.125000
6.979246, 36.586489, 44.250000
6.979246, 36.586489, 44.375000
7.004172, 36.717155, 44.500000
7.029098, 36.847821, 44.625000
7.029098, 36.847821, 44.750000
7.029098, 36.847821, 44.875000
7.029098, 36.847821, 45.000000
7.004172, 36.717155, 45.125000
7.029098, 36.847821, 45.250000
7.029098, 36.847821, 45.375000
7.004172, 36.717155, 45.500000
7.054024, 36.978487, 45.625000
7.029098, 36.847821, 45.750000
7.029098, 36.847821, 45.875000
7.029098, 36.847821, 46.000000
7.029098, 36.847821, 46.125000
7.029098, 36.847821, 46.250000
7.029098, 36.847821, 46.375000
7.029098, 36.847821, 46.500000
7.029098, 36.847821, 46.625000
7.029098, 36.847821, 46.750000
7.029098, 36.847821, 46.875000
7.078950, 37.109153, 47.000000
7.054024, 36.978487, 47.125000
7.029098, 36.847821, 47.250000
7.029098, 36.847821, 47.375000
7.029098, 36.847821, 47.500000
7.029098, 36.847821, 47.625000
7.029098, 36.847821, 47.750000
7.029098, 36.847821, 47.875000
7.004172, 36.717155, 48.000000
7.029098, 36.847821, 48.125000
7.029098, 36.847821, 48.250000
7.029098, 36.847821, 48.375000
7.029098, 36.847821, 48.500000
7.029098, 36.847821, 48.625000
7.029098, 36.847821, 48.750000
7.029098, 36.847821, 48.875000
7.029098, 36.847821, 49.000000
7.029098, 36.847821, 49.125000
7.004172, 36.717155, 49.250000
7.004172, 36.717155, 49.375000
7.029098, 36.847821, 49.500000
7.004172, 36.717155, 49.625000
7.004172, 36.717155, 49.750000
7.004172, 36.717155, 49.875000
6.954320, 36.455823, 50.000000
6.954320, 36.455823, 50.125000
7.004172, 36.717155, 50.250000
7.004172, 36.717155, 50.375000
4.985176, 26.133206, 69.375000
4.960250, 26.002540, 69.500000
4.611288, 24.173216, 72.125000
4.611288, 24.173216, 72.250000
4.611288, 24.173216, 72.375000
4.611288, 24.173216, 72.500000
4.611288, 24.173216, 72.625000
4.636213, 24.303882, 72.750000
4.611288, 24.173216, 72.875000
4.611288, 24.173216, 73.000000
4.636213, 24.303882, 73.125000
4.636213, 24.303882, 73.250000
4.661139, 24.434548, 73.375000
4.661139, 24.434548, 73.500000
4.686065, 24.565214, 73.625000
4.710991, 24.695880, 73.750000
4.710991, 24.695880, 73.875000
4.760843, 24.957212, 74.000000
4.810695, 25.218544, 74.125000
4.835620, 25.349210, 74.250000
4.860546, 25.479876, 74.375000
4.885472, 25.610542, 74.500000
4.935324, 25.871874, 74.625000
4.960250, 26.002540, 74.750000
5.010102, 26.263872, 74.875000
5.035028, 26.394539, 75.000000
5.084879, 26.655871, 75.125000
5.109805, 26.786537, 75.250000
5.159657, 27.047869, 75.375000
5.184583, 27.178535, 75.500000
5.209509, 27.309201, 75.625000
5.259360, 27.570533, 75.750000
5.309212, 27.831865, 75.875000
5.334138, 27.962531, 76.000000
5.359064, 28.093197, 76.125000
5.408916, 28.354529, 76.250000
5.433842, 28.485195, 76.375000
5.483693, 28.746527, 76.500000
5.533545, 29.007859, 76.625000
5.558471, 29.138525, 76.750000
5.608323, 29.399857, 76.875000
5.633249, 29.530523, 77.000000
5.683100, 29.791855, 77.125000
5.732952, 30.053187, 77.250000
5.757878, 30.183853, 77.375000
5.782804, 30.314519, 77.500000
5.832656, 30.575852, 77.625000
5.857582, 30.706518, 77.750000
5.832656, 30.575852, 77.875000
5.857582, 30.706518, 78.000000
5.857582, 30.706518, 78.125000
5.882507, 30.837184, 78.250000
5.035841, 31.795048, 31.500000
5.015032, 31.663664, 31.625000
5.035841, 31.795048, 31.750000
5.077459, 32.057817, 31.875000
5.077459, 32.057817, 32.000000
5.077459, 32.057817, 32.125000
5.160696, 32.583355, 32.250000
5.181506, 32.714740, 32.375000
5.160696, 32.583355, 32.500000
5.181506, 32.714740, 32.625000
5.181506, 32.714740, 32.750000
5.202315, 32.846124, 32.875000
5.264743, 33.240278, 33.000000
5.285552, 33.371662, 33.125000
5.243934, 33.108893, 33.250000
5.223124, 32.977509, 33.375000
5.306361, 33.503047, 33.500000
5.306361, 33.503047, 33.625000
5.306361, 33.503047, 33.750000
5.327171, 33.634431, 33.875000
5.327171, 33.634431, 34.000000
5.347980, 33.765816, 34.125000
5.347980, 33.765816, 34.250000
5.347980, 33.765816, 34.375000
5.368789, 33.897200, 34.500000
5.368789, 33.897200, 34.625000
5.389598, 34.028585, 34.750000
5.389598, 34.028585, 34.875000
5.410408, 34.159969, 35.000000
5.410408, 34.159969, 35.125000
5.410408, 34.159969, 35.250000
5.431217, 34.291354, 35.375000
5.452026, 34.422738, 35.500000
5.410408, 34.159969, 35.625000
5.472835, 34.554123, 35.750000
5.493645, 34.685507, 35.875000
5.472835, 34.554123, 36.000000
5.493645, 34.685507, 36.125000
5.514454, 34.816892, 36.250000
5.514454, 34.816892, 36.375000
5.493645, 34.685507, 36.500000
5.535263, 34.948276, 36.625000
5.535263, 34.948276, 36.750000
5.535263, 34.948276, 36.875000
5.556072, 35.079661, 37.000000
5.556072, 35.079661, 37.125000
5.576882, 35.211045, 37.250000
5.576882, 35.211045, 37.375000
5.576882, 35.211045, 37.500000
5.576882, 35.211045, 37.625000
5.597691, 35.342430, 37.750000
5.597691, 35.342430, 37.875000
5.597691, 35.342430, 38.000000
5.618500, 35.473814, 38.125000
5.618500, 35.473814, 38.250000
5.618500, 35.473814, 38.375000
5.639309, 35.605199, 38.500000
5.639309, 35.605199, 38.625000
5.660119, 35.736583, 38.750000
5.660119, 35.736583, 38.875000
5.660119, 35.736583, 39.000000
5.680928, 35.867968, 39.125000
5.660119, 35.736583, 39.250000
5.701737, 35.999352, 39.375000
5.680928, 35.867968, 39.500000
5.680928, 35.867968, 39.625000
5.701737, 35.999352, 39.750000
5.701737, 35.999352, 39.875000
5.701737, 35.999352, 40.000000
5.701737, 35.999352, 40.125000
5.722547, 36.130737, 40.250000
5.722547, 36.130737, 40.375000
5.722547, 36.130737, 40.500000
5.722547, 36.130737, 40.625000
5.743356, 36.262121, 40.750000
5.743356, 36.262121, 40.875000
5.743356, 36.262121, 41.000000
5.764165, 36.393506, 41.125000
5.764165, 36.393506, 41.250000
5.764165, 36.393506, 41.375000
5.764165, 36.393506, 41.500000
5.784974, 36.524890, 41.625000
5.784974, 36.524890, 41.750000
5.784974, 36.524890, 41.875000
5.784974, 36.524890, 42.000000
5.805784, 36.656275, 42.125000
5.784974, 36.524890, 42.250000
5.805784, 36.656275, 42.375000
5.805784, 36.656275, 42.500000
5.805784, 36.656275, 42.625000
5.805784, 36.656275, 42.750000
5.805784, 36.656275, 42.875000
5.826593, 36.787659, 43.000000
5.826593, 36.787659, 43.125000
5.826593, 36.787659, 43.250000
5.826593, 36.787659, 43.375000
5.826593, 36.787659, 43.500000
5.826593, 36.787659, 43.625000
5.826593, 36.787659, 43.750000
5.826593, 36.787659, 43.875000
5.847402, 36.919044, 44.000000
5.847402, 36.919044, 44.125000
5.847402, 36.919044, 44.250000
5.847402, 36.919044, 44.375000
5.847402, 36.919044, 44.500000
5.868211, 37.050428, 44.625000
5.868211, 37.050428, 44.750000
5.868211, 37.050428, 44.875000
5.868211, 37.050428, 45.000000
5.868211, 37.050428, 45.125000
5.868211, 37.050428, 45.250000
5.868211, 37.050428, 45.375000
5.868211, 37.050428, 45.500000
5.889021, 37.181813, 45.625000
5.889021, 37.181813, 45.750000
5.889021, 37.181813, 45.875000
5.889021, 37.181813, 46.000000
5.889021, 37.181813, 46.125000
5.889021, 37.181813, 46.250000
5.889021, 37.181813, 46.375000
5.889021, 37.181813, 46.500000
5.889021, 37.181813, 46.625000
5.889021, 37.181813, 46.750000
5.889021, 37.181813, 46.875000
5.889021, 37.181813, 47.000000
5.889021, 37.181813, 47.125000
5.889021, 37.181813, 47.250000
5.889021, 37.181813, 47.375000
5.889021, 37.181813, 47.500000
5.889021, 37.181813, 47.625000
5.889021, 37.181813, 47.750000
5.868211, 37.050428, 47.875000
5.868211, 37.050428, 48.000000
5.868211, 37.050428, 48.125000
5.868211, 37.050428, 48.250000
5.889021, 37.181813, 48.375000
5.868211, 37.050428, 48.500000
5.868211, 37.050428, 48.625000
5.868211, 37.050428, 48.750000
5.868211, 37.050428, 48.875000
5.889021, 37.181813, 49.000000
5.868211, 37.050428, 49.125000
5.868211, 37.050428, 49.250000
5.868211, 37.050428, 49.375000
5.847402, 36.919044, 49.500000
5.847402, 36.919044, 49.625000
5.868211, 37.050428, 49.750000
5.847402, 36.919044, 49.875000
5.847402, 36.919044, 50.000000
5.868211, 37.050428, 50.125000
5.847402, 36.919044, 50.250000
5.847402, 36.919044, 50.375000
5.847402, 36.919044, 50.500000
5.847402, 36.919044, 50.625000
3.870522, 24.437516, 71.875000
3.891332, 24.568901, 72.000000
3.891332, 24.568901, 72.125000
3.870522, 24.437516, 72.250000
3.870522, 24.437516, 72.375000
3.870522, 24.437516, 72.500000
3.849713, 24.306132, 72.625000
3.870522, 24.437516, 72.750000
3.870522, 24.437516, 72.875000
3.870522, 24.437516, 73.000000
3.870522, 24.437516, 73.125000
3.891332, 24.568901, 73.250000
3.891332, 24.568901, 73.375000
3.891332, 24.568901, 73.500000
3.912141, 24.700285, 73.625000
3.912141, 24.700285, 73.750000
3.932950, 24.831670, 73.875000
3.974569, 25.094439, 74.000000
3.995378, 25.225823, 74.125000
4.016187, 25.357208, 74.250000
4.057806, 25.619977, 74.375000
4.099424, 25.882746, 74.500000
4.120233, 26.014130, 74.625000
4.161852, 26.276899, 74.750000
4.182661, 26.408284, 74.875000
4.224280, 26.671053, 75.000000
4.245089, 26.802437, 75.125000
4.265898, 26.933822, 75.250000
4.307517, 27.196591, 75.375000
4.328326, 27.327975, 75.500000
4.369945, 27.590744, 75.625000
4.390754, 27.722129, 75.750000
4.432372, 27.984898, 75.875000
4.473991, 28.247667, 76.000000
4.473991, 28.247667, 76.125000
4.515609, 28.510436, 76.250000
4.557228, 28.773205, 76.375000
4.598846, 29.035974, 76.500000
4.619656, 29.167358, 76.625000
4.661274, 29.430127, 76.750000
4.682084, 29.561512, 76.875000
4.702893, 29.692896, 77.000000
4.744511, 29.955665, 77.125000
4.786130, 30.218434, 77.250000
4.806939, 30.349819, 77.375000
4.827748, 30.481203, 77.500000
4.848558, 30.612588, 77.625000
4.869367, 30.743972, 77.750000
4.890176, 30.875357, 77.875000
4.890176, 30.875357, 78.000000
4.910985, 31.006741, 78.125000
4.910985, 31.006741, 78.250000
4.910985, 31.006741, 78.375000
4.034649, 31.937539, 30.000000
4.034649, 31.937539, 30.125000
3.951289, 31.277672, 30.250000
3.934617, 31.145699, 30.375000
3.951289, 31.277672, 30.500000
3.951289, 31.277672, 30.625000
4.001305, 31.673592, 30.750000
4.034649, 31.937539, 30.875000
4.017977, 31.805566, 31.000000
4.017977, 31.805566, 31.125000
4.017977, 31.805566, 31.250000
4.017977, 31.805566, 31.375000
4.034649, 31.937539, 31.500000
4.034649, 31.937539, 31.625000
4.067994, 32.201486, 31.750000
4.067994, 32.201486, 31.875000
4.084666, 32.333459, 32.000000
4.101338, 32.465432, 32.125000
4.118010, 32.597405, 32.250000
4.101338, 32.465432, 32.375000
4.101338, 32.465432, 32.500000
4.118010, 32.597405, 32.625000
4.134682, 32.729379, 32.750000
4.134682, 32.729379, 32.875000
4.201371, 33.257272, 33.000000
4.184698, 33.125299, 33.125000
4.201371, 33.257272, 33.250000
4.201371, 33.257272, 33.375000
4.218043, 33.389245, 33.500000
4.201371, 33.257272, 33.625000
4.234715, 33.521219, 33.750000
4.234715, 33.521219, 33.875000
4.234715, 33.521219, 34.000000
4.234715, 33.521219, 34.125000
4.268059, 33.785165, 34.250000
4.234715, 33.521219, 34.375000
4.251387, 33.653192, 34.500000
4.284731, 33.917139, 34.625000
4.268059, 33.785165, 34.750000
4.318075, 34.181085, 34.875000
4.334747, 34.313058, 35.000000
4.334747, 34.313058, 35.125000
4.318075, 34.181085, 35.250000
4.334747, 34.313058, 35.375000
4.368092, 34.577005, 35.500000
4.384764, 34.708978, 35.625000
4.368092, 34.577005, 35.750000
4.351419, 34.445032, 35.875000
4.351419, 34.445032, 36.000000
4.368092, 34.577005, 36.125000
4.401436, 34.840952, 36.250000
4.401436, 34.840952, 36.375000
4.401436, 34.840952, 36.500000
4.401436, 34.840952, 36.625000
4.418108, 34.972925, 36.750000
4.451452, 35.236872, 36.875000
4.418108, 34.972925, 37.000000
4.434780, 35.104898, 37.125000
4.434780, 35.104898, 37.250000
4.468124, 35.368845, 37.375000
4.468124, 35.368845, 37.500000
4.468124, 35.368845, 37.625000
4.484796, 35.500818, 37.750000
4.484796, 35.500818, 37.875000
4.501468, 35.632791, 38.000000
4.501468, 35.632791, 38.125000
4.501468, 35.632791, 38.250000
4.501468, 35.632791, 38.375000
4.518140, 35.764765, 38.500000
4.518140, 35.764765, 38.625000
4.534813, 35.896738, 38.750000
4.534813, 35.896738, 38.875000
4.534813, 35.896738, 39.000000
4.534813, 35.896738, 39.125000
4.551485, 36.028711, 39.250000
4.551485, 36.028711, 39.375000
4.551485, 36.028711, 39.500000
4.551485, 36.028711, 39.625000
4.568157, 36.160685, 39.750000
4.568157, 36.160685, 39.875000
4.568157, 36.160685, 40.000000
4.568157, 36.160685, 40.125000
4.584829, 36.292658, 40.250000
4.584829, 36.292658, 40.375000
4.584829, 36.292658, 40.500000
4.584829, 36.292658, 40.625000
4.601501, 36.424631, 40.750000
4.601501, 36.424631, 40.875000
4.601501, 36.424631, 41.000000
4.618173, 36.556605, 41.125000
4.618173, 36.556605, 41.250000
4.618173, 36.556605, 41.375000
4.618173, 36.556605, 41.500000
