-41.898427, 9.365408, 43.000000
-41.898427, 9.365408, 43.125000
-41.898427, 9.365408, 43.250000
-41.898427, 9.365408, 43.375000
-42.111109, 9.412948, 43.500000
-42.111109, 9.412948, 43.625000
-42.111109, 9.412948, 43.750000
-42.111109, 9.412948, 43.875000
-42.111109, 9.412948, 44.000000
-42.111109, 9.412948, 44.125000
-42.111109, 9.412948, 44.250000
-42.111109, 9.412948, 44.375000
-42.323791, 9.460488, 44.500000
-42.323791, 9.460488, 44.625000
-42.323791, 9.460488, 44.750000
-42.323791, 9.460488, 44.875000
-42.536474, 9.508028, 45.000000
-42.536474, 9.508028, 45.125000
-42.536474, 9.508028, 45.250000
-42.536474, 9.508028, 45.375000
-42.536474, 9.508028, 45.500000
-42.536474, 9.508028, 45.625000
-42.536474, 9.508028, 45.750000
-42.536474, 9.508028, 45.875000
-42.536474, 9.508028, 46.000000
-42.536474, 9.508028, 46.125000
-42.536474, 9.508028, 46.250000
-42.536474, 9.508028, 46.375000
-42.536474, 9.508028, 46.500000
-42.536474, 9.508028, 46.625000
-42.536474, 9.508028, 46.750000
-42.536474, 9.508028, 46.875000
-42.536474, 9.508028, 47.000000
-42.536474, 9.508028, 47.125000
-42.536474, 9.508028, 47.250000
-42.749156, 9.555569, 47.375000
-42.749156, 9.555569, 47.500000
-42.961839, 9.603109, 47.625000
-42.749156, 9.555569, 47.750000
-42.749156, 9.555569, 47.875000
-42.961839, 9.603109, 48.000000
-42.749156, 9.555569, 48.125000
-42.749156, 9.555569, 48.250000
-42.749156, 9.555569, 48.375000
-42.961839, 9.603109, 48.500000
-42.961839, 9.603109, 48.625000
-42.961839, 9.603109, 48.750000
-42.961839, 9.603109, 48.875000
-42.961839, 9.603109, 49.000000
-42.961839, 9.603109, 49.125000
-42.961839, 9.603109, 49.250000
-42.961839, 9.603109, 49.375000
-42.961839, 9.603109, 49.500000
-42.961839, 9.603109, 49.625000
-42.961839, 9.603109, 49.750000
-42.961839, 9.603109, 49.875000
-42.961839, 9.603109, 50.000000
-42.961839, 9.603109, 50.125000
-42.961839, 9.603109, 50.250000
-42.961839, 9.603109, 50.375000
-42.961839, 9.603109, 50.500000
-43.174521, 9.650649, 50.625000
-43.174521, 9.650649, 50.750000
-43.174521, 9.650649, 50.875000
-43.174521, 9.650649, 51.000000
-43.174521, 9.650649, 51.125000
-43.174521, 9.650649, 51.250000
-43.174521, 9.650649, 51.375000
-43.174521, 9.650649, 51.500000
-43.174521, 9.650649, 51.625000
-43.174521, 9.650649, 51.750000
-43.174521, 9.650649, 51.875000
-43.174521, 9.650649, 52.000000
-43.174521, 9.650649, 52.125000
-42.961839, 9.603109, 52.250000
-43.174521, 9.650649, 52.375000
-42.961839, 9.603109, 52.500000
-42.961839, 9.603109, 52.625000
-42.961839, 9.603109, 52.750000
-42.961839, 9.603109, 52.875000
-42.961839, 9.603109, 53.000000
-43.174521, 9.650649, 53.125000
-43.174521, 9.650649, 53.250000
-42.961839, 9.603109, 53.375000
-42.961839, 9.603109, 53.500000
-42.961839, 9.603109, 53.625000
-42.961839, 9.603109, 53.750000
-42.961839, 9.603109, 53.875000
-42.961839, 9.603109, 54.000000
-42.961839, 9.603109, 54.125000
-42.961839, 9.603109, 54.250000
-42.961839, 9.603109, 54.375000
-43.174521, 9.650649, 54.500000
-42.749156, 9.555569, 54.625000
-42.749156, 9.555569, 54.750000
-42.961839, 9.603109, 54.875000
-42.961839, 9.603109, 55.000000
-42.749156, 9.555569, 55.125000
-42.749156, 9.555569, 55.250000
-42.749156, 9.555569, 55.375000
-42.961839, 9.603109, 55.500000
-42.961839, 9.603109, 55.625000
-42.749156, 9.555569, 55.750000
-42.749156, 9.555569, 55.875000
-42.536474, 9.508028, 56.000000
-42.536474, 9.508028, 56.125000
-42.536474, 9.508028, 56.250000
-42.536474, 9.508028, 56.375000
-42.536474, 9.508028, 56.500000
-42.749156, 9.555569, 56.625000
-42.536474, 9.508028, 56.750000
-42.536474, 9.508028, 56.875000
-42.536474, 9.508028, 57.000000
-42.323791, 9.460488, 57.125000
-42.323791, 9.460488, 57.250000
-42.323791, 9.460488, 57.375000
-42.323791, 9.460488, 57.500000
-42.323791, 9.460488, 57.625000
-42.323791, 9.460488, 57.750000
-42.323791, 9.460488, 57.875000
-42.111109, 9.412948, 58.000000
-42.111109, 9.412948, 58.125000
-42.111109, 9.412948, 58.250000
-42.111109, 9.412948, 58.375000
-42.111109, 9.412948, 58.500000
-42.323791, 9.460488, 58.625000
-42.111109, 9.412948, 58.750000
-41.898427, 9.365408, 58.875000
-41.898427, 9.365408, 59.000000
-41.898427, 9.365408, 59.125000
-41.898427, 9.365408, 59.250000
-42.111109, 9.412948, 59.375000
-41.898427, 9.365408, 59.500000
-41.685744, 9.317868, 59.625000
-41.685744, 9.317868, 59.750000
-41.685744, 9.317868, 59.875000
-41.685744, 9.317868, 60.000000
-41.685744, 9.317868, 60.125000
-41.473062, 9.270328, 60.250000
-41.473062, 9.270328, 60.375000
-41.473062, 9.270328, 60.500000
-41.473062, 9.270328, 60.625000
-41.473062, 9.270328, 60.750000
-41.260380, 9.222788, 60.875000
-41.260380, 9.222788, 61.000000
-41.260380, 9.222788, 61.125000
-41.260380, 9.222788, 61.250000
-41.047697, 9.175247, 61.375000
-41.047697, 9.175247, 61.500000
-41.047697, 9.175247, 61.625000
-40.835015, 9.127707, 61.750000
-40.835015, 9.127707, 61.875000
-41.047697, 9.175247, 62.000000
-40.622332, 9.080167, 62.125000
-40.622332, 9.080167, 62.250000
-40.622332, 9.080167, 62.375000
-40.409650, 9.032627, 62.500000
-40.409650, 9.032627, 62.625000
-40.622332, 9.080167, 62.750000
-40.409650, 9.032627, 62.875000
-40.196968, 8.985087, 63.000000
-40.196968, 8.985087, 63.125000
-40.196968, 8.985087, 63.250000
-40.409650, 9.032627, 63.375000
-40.196968, 8.985087, 63.500000
-39.984285, 8.937547, 63.625000
-39.771603, 8.890007, 63.750000
-39.984285, 8.937547, 63.875000
-39.771603, 8.890007, 64.000000
-39.771603, 8.890007, 64.125000
-39.558921, 8.842466, 64.250000
-39.558921, 8.842466, 64.375000
-39.558921, 8.842466, 64.500000
-39.346238, 8.794926, 64.625000
-39.346238, 8.794926, 64.750000
-39.133556, 8.747386, 64.875000
-39.133556, 8.747386, 65.000000
-38.920874, 8.699846, 65.125000
-38.920874, 8.699846, 65.250000
-38.708191, 8.652306, 65.375000
-38.708191, 8.652306, 65.500000
-38.708191, 8.652306, 65.625000
-38.708191, 8.652306, 65.750000
-38.495509, 8.604766, 65.875000
-38.282826, 8.557226, 66.000000
-38.282826, 8.557226, 66.125000
-38.070144, 8.509685, 66.250000
-38.070144, 8.509685, 66.375000
-38.070144, 8.509685, 66.500000
-38.070144, 8.509685, 66.625000
-37.857462, 8.462145, 66.750000
-37.644779, 8.414605, 66.875000
-37.644779, 8.414605, 67.000000
-37.432097, 8.367065, 67.125000
-37.432097, 8.367065, 67.250000
-37.006732, 8.271985, 67.375000
-36.794050, 8.224445, 67.500000
-36.581367, 8.176904, 67.625000
-36.368685, 8.129364, 67.750000
-36.156003, 8.081824, 67.875000
-35.943320, 8.034284, 68.000000
-35.943320, 8.034284, 68.125000
-35.943320, 8.034284, 68.250000
-35.730638, 7.986744, 68.375000
-35.730638, 7.986744, 68.500000
-35.517956, 7.939204, 68.625000
-35.305273, 7.891664, 68.750000
-35.305273, 7.891664, 68.875000
-35.092591, 7.844123, 69.000000
-34.879909, 7.796583, 69.125000
-34.667226, 7.749043, 69.250000
-34.667226, 7.749043, 69.375000
-34.454544, 7.701503, 69.500000
-34.454544, 7.701503, 69.625000
-34.241861, 7.653963, 69.750000
-33.816497, 7.558883, 69.875000
-33.816497, 7.558883, 70.000000
-33.603814, 7.511342, 70.125000
-33.391132, 7.463802, 70.250000
-33.391132, 7.463802, 70.375000
-33.178450, 7.416262, 70.500000
-33.178450, 7.416262, 70.625000
-32.753085, 7.321182, 70.750000
-32.753085, 7.321182, 70.875000
-32.753085, 7.321182, 71.000000
-32.540402, 7.273642, 71.125000
-32.327720, 7.226102, 71.250000
-32.327720, 7.226102, 71.375000
-32.115038, 7.178561, 71.500000
-32.327720, 7.226102, 71.625000
-32.115038, 7.178561, 71.750000
-31.902355, 7.131021, 71.875000
-31.689673, 7.083481, 72.000000
-31.689673, 7.083481, 72.125000
-31.476991, 7.035941, 72.250000
-31.264308, 6.988401, 72.375000
-31.051626, 6.940861, 72.500000
-31.051626, 6.940861, 72.625000
-30.626261, 6.845780, 72.750000
-30.626261, 6.845780, 72.875000
-30.413579, 6.798240, 73.000000
-30.413579, 6.798240, 73.125000
-30.413579, 6.798240, 73.250000
-29.988214, 6.703160, 73.375000
-29.775532, 6.655620, 73.500000
-29.775532, 6.655620, 73.625000
-29.775532, 6.655620, 73.750000
-29.562849, 6.608080, 73.875000
-29.562849, 6.608080, 74.000000
-29.350167, 6.560540, 74.125000
-29.137485, 6.512999, 74.250000
-28.924802, 6.465459, 74.375000
-28.924802, 6.465459, 74.500000
-28.924802, 6.465459, 74.625000
-28.712120, 6.417919, 74.750000
-28.712120, 6.417919, 74.875000
-28.712120, 6.417919, 75.000000
-28.712120, 6.417919, 75.125000
-28.712120, 6.417919, 75.250000
-28.712120, 6.417919, 75.375000
-28.712120, 6.417919, 75.500000
-28.924802, 6.465459, 75.625000
-28.924802, 6.465459, 75.750000
-29.137485, 6.512999, 75.875000
-29.137485, 6.512999, 76.000000
-29.137485, 6.512999, 76.125000
-29.350167, 6.560540, 76.250000
-29.562849, 6.608080, 76.375000
-29.775532, 6.655620, 76.500000
-29.775532, 6.655620, 76.625000
-29.988214, 6.703160, 76.750000
-30.200896, 6.750700, 76.875000
-30.200896, 6.750700, 77.000000
-30.413579, 6.798240, 77.125000
-30.626261, 6.845780, 77.250000
-30.838943, 6.893321, 77.375000
-30.838943, 6.893321, 77.500000
-31.051626, 6.940861, 77.625000
-31.476991, 7.035941, 77.750000
-31.476991, 7.035941, 77.875000
-31.689673, 7.083481, 78.000000
-31.902355, 7.131021, 78.125000
-32.115038, 7.178561, 78.250000
-32.327720, 7.226102, 78.375000
-32.327720, 7.226102, 78.500000
-32.753085, 7.321182, 78.625000
-32.965767, 7.368722, 78.750000
-32.965767, 7.368722, 78.875000
-33.391132, 7.463802, 79.000000
-33.603814, 7.511342, 79.125000
-33.603814, 7.511342, 79.250000
-33.816497, 7.558883, 79.375000
-34.029179, 7.606423, 79.500000
-34.241861, 7.653963, 79.625000
-34.454544, 7.701503, 79.750000
-34.454544, 7.701503, 79.875000
-34.879909, 7.796583, 80.000000
-35.092591, 7.844123, 80.125000
-35.092591, 7.844123, 80.250000
-35.517956, 7.939204, 80.375000
-35.517956, 7.939204, 80.500000
-35.730638, 7.986744, 80.625000
-35.943320, 8.034284, 80.750000
-36.368685, 8.129364, 80.875000
-36.368685, 8.129364, 81.000000
-36.581367, 8.176904, 81.125000
-36.794050, 8.224445, 81.250000
-37.006732, 8.271985, 81.375000
-37.006732, 8.271985, 81.500000
-37.219415, 8.319525, 81.625000
-37.432097, 8.367065, 81.750000
-37.432097, 8.367065, 81.875000
-37.857462, 8.462145, 82.000000
-37.857462, 8.462145, 82.125000
-37.857462, 8.462145, 82.250000
-38.070144, 8.509685, 82.375000
-37.857462, 8.462145, 82.500000
-37.857462, 8.462145, 82.625000
-38.070144, 8.509685, 82.750000
-25.902554, 4.941176, 22.125000
-26.758837, 5.104521, 22.250000
-26.972908, 5.145357, 22.375000
-27.186978, 5.186193, 22.500000
-26.972908, 5.145357, 22.625000
-27.401049, 5.227030, 22.750000
-27.401049, 5.227030, 22.875000
-27.401049, 5.227030, 23.000000
-27.615120, 5.267866, 23.125000
-27.829190, 5.308702, 23.250000
-28.043261, 5.349538, 23.375000
-28.043261, 5.349538, 23.500000
-28.257332, 5.390374, 23.625000
-28.471402, 5.431210, 23.750000
-28.685473, 5.472047, 23.875000
-28.685473, 5.472047, 24.000000
-28.899544, 5.512883, 24.125000
-29.113615, 5.553719, 24.250000
-29.327685, 5.594555, 24.375000
-29.541756, 5.635391, 24.500000
-29.541756, 5.635391, 24.625000
-29.755827, 5.676227, 24.750000
-29.969897, 5.717064, 24.875000
-30.183968, 5.757900, 25.000000
-30.398039, 5.798736, 25.125000
-30.612109, 5.839572, 25.250000
-30.612109, 5.839572, 25.375000
-30.612109, 5.839572, 25.500000
-31.040251, 5.921245, 25.625000
-31.254321, 5.962081, 25.750000
-31.254321, 5.962081, 25.875000
-31.254321, 5.962081, 26.000000
-31.468392, 6.002917, 26.125000
-31.468392, 6.002917, 26.250000
-31.682463, 6.043753, 26.375000
-31.896534, 6.084589, 26.500000
-31.896534, 6.084589, 26.625000
-32.110604, 6.125425, 26.750000
-32.324675, 6.166262, 26.875000
-32.324675, 6.166262, 27.000000
-32.538746, 6.207098, 27.125000
-32.538746, 6.207098, 27.250000
-32.752816, 6.247934, 27.375000
-32.966887, 6.288770, 27.500000
-32.966887, 6.288770, 27.625000
-33.180958, 6.329606, 27.750000
-33.180958, 6.329606, 27.875000
-33.395028, 6.370442, 28.000000
-33.395028, 6.370442, 28.125000
-33.609099, 6.411279, 28.250000
-33.609099, 6.411279, 28.375000
-33.823170, 6.452115, 28.500000
-33.823170, 6.452115, 28.625000
-34.037240, 6.492951, 28.750000
-34.251311, 6.533787, 28.875000
-34.251311, 6.533787, 29.000000
-34.251311, 6.533787, 29.125000
-34.465382, 6.574623, 29.250000
-34.465382, 6.574623, 29.375000
-34.679453, 6.615459, 29.500000
-34.679453, 6.615459, 29.625000
-34.893523, 6.656296, 29.750000
-35.107594, 6.697132, 29.875000
-35.107594, 6.697132, 30.000000
-35.321665, 6.737968, 30.125000
-35.321665, 6.737968, 30.250000
-35.321665, 6.737968, 30.375000
-35.535735, 6.778804, 30.500000
-35.535735, 6.778804, 30.625000
-35.749806, 6.819640, 30.750000
-35.749806, 6.819640, 30.875000
-35.963877, 6.860476, 31.000000
-35.963877, 6.860476, 31.125000
-36.177947, 6.901313, 31.250000
-36.177947, 6.901313, 31.375000
-36.177947, 6.901313, 31.500000
-36.392018, 6.942149, 31.625000
-36.392018, 6.942149, 31.750000
-36.392018, 6.942149, 31.875000
-36.606089, 6.982985, 32.000000
-36.820160, 7.023821, 32.125000
-36.820160, 7.023821, 32.250000
-36.820160, 7.023821, 32.375000
-37.248301, 7.105493, 32.500000
-37.034230, 7.064657, 32.625000
-37.248301, 7.105493, 32.750000
-37.248301, 7.105493, 32.875000
-37.462372, 7.146330, 33.000000
-37.462372, 7.146330, 33.125000
-37.462372, 7.146330, 33.250000
-37.676442, 7.187166, 33.375000
-37.676442, 7.187166, 33.500000
-37.890513, 7.228002, 33.625000
-37.890513, 7.228002, 33.750000
-37.890513, 7.228002, 33.875000
-38.104584, 7.268838, 34.000000
-38.104584, 7.268838, 34.125000
-38.318654, 7.309674, 34.250000
-38.318654, 7.309674, 34.375000
-38.318654, 7.309674, 34.500000
-38.532725, 7.350510, 34.625000
-38.532725, 7.350510, 34.750000
-38.746796, 7.391347, 34.875000
-38.746796, 7.391347, 35.000000
-38.746796, 7.391347, 35.125000
-38.960866, 7.432183, 35.250000
-38.960866, 7.432183, 35.375000
-38.960866, 7.432183, 35.500000
-38.960866, 7.432183, 35.625000
-39.174937, 7.473019, 35.750000
-39.389008, 7.513855, 35.875000
-39.174937, 7.473019, 36.000000
-39.389008, 7.513855, 36.125000
-39.389008, 7.513855, 36.250000
-39.389008, 7.513855, 36.375000
-39.603079, 7.554691, 36.500000
-39.603079, 7.554691, 36.625000
-39.603079, 7.554691, 36.750000
-39.817149, 7.595527, 36.875000
-39.817149, 7.595527, 37.000000
-39.817149, 7.595527, 37.125000
-39.817149, 7.595527, 37.250000
-40.031220, 7.636364, 37.375000
-40.031220, 7.636364, 37.500000
-40.031220, 7.636364, 37.625000
-40.031220, 7.636364, 37.750000
-40.245291, 7.677200, 37.875000
-40.245291, 7.677200, 38.000000
-40.245291, 7.677200, 38.125000
-40.459361, 7.718036, 38.250000
-40.459361, 7.718036, 38.375000
-40.459361, 7.718036, 38.500000
-40.459361, 7.718036, 38.625000
-40.673432, 7.758872, 38.750000
-40.673432, 7.758872, 38.875000
-40.673432, 7.758872, 39.000000
-40.673432, 7.758872, 39.125000
-40.887503, 7.799708, 39.250000
-40.887503, 7.799708, 39.375000
-40.887503, 7.799708, 39.500000
-41.101573, 7.840544, 39.625000
-41.101573, 7.840544, 39.750000
-41.101573, 7.840544, 39.875000
-41.101573, 7.840544, 40.000000
-41.101573, 7.840544, 40.125000
-41.315644, 7.881381, 40.250000
-41.315644, 7.881381, 40.375000
-41.315644, 7.881381, 40.500000
-41.315644, 7.881381, 40.625000
-41.529715, 7.922217, 40.750000
-41.529715, 7.922217, 40.875000
-41.529715, 7.922217, 41.000000
-41.529715, 7.922217, 41.125000
-41.529715, 7.922217, 41.250000
-41.529715, 7.922217, 41.375000
-41.743786, 7.963053, 41.500000
-41.743786, 7.963053, 41.625000
-41.743786, 7.963053, 41.750000
-41.743786, 7.963053, 41.875000
-41.743786, 7.963053, 42.000000
-41.743786, 7.963053, 42.125000
-42.171927, 8.044725, 42.250000
-41.957856, 8.003889, 42.375000
-41.957856, 8.003889, 42.500000
-41.957856, 8.003889, 42.625000
-41.957856, 8.003889, 42.750000
-41.957856, 8.003889, 42.875000
-42.171927, 8.044725, 43.000000
-42.171927, 8.044725, 43.125000
-42.171927, 8.044725, 43.250000
-42.171927, 8.044725, 43.375000
-42.171927, 8.044725, 43.500000
-42.385998, 8.085561, 43.625000
-42.385998, 8.085561, 43.750000
-42.385998, 8.085561, 43.875000
-42.385998, 8.085561, 44.000000
-42.385998, 8.085561, 44.125000
-42.600068, 8.126398, 44.250000
-42.600068, 8.126398, 44.375000
-42.600068, 8.126398, 44.500000
-42.600068, 8.126398, 44.625000
-42.600068, 8.126398, 44.750000
-42.600068, 8.126398, 44.875000
-42.814139, 8.167234, 45.000000
-42.814139, 8.167234, 45.125000
-42.814139, 8.167234, 45.250000
-42.600068, 8.126398, 45.375000
-42.600068, 8.126398, 45.500000
-42.600068, 8.126398, 45.625000
-42.814139, 8.167234, 45.750000
-42.814139, 8.167234, 45.875000
-42.814139, 8.167234, 46.000000
-43.028210, 8.208070, 46.125000
-42.814139, 8.167234, 46.250000
-42.814139, 8.167234, 46.375000
-42.814139, 8.167234, 46.500000
-42.814139, 8.167234, 46.625000
-42.814139, 8.167234, 46.750000
-43.028210, 8.208070, 46.875000
-42.814139, 8.167234, 47.000000
-42.814139, 8.167234, 47.125000
-42.814139, 8.167234, 47.250000
-43.028210, 8.208070, 47.375000
-42.814139, 8.167234, 47.500000
-43.028210, 8.208070, 47.625000
-43.028210, 8.208070, 47.750000
-43.028210, 8.208070, 47.875000
-43.028210, 8.208070, 48.000000
-43.242280, 8.248906, 48.125000
-43.028210, 8.208070, 48.250000
-43.242280, 8.248906, 48.375000
-43.028210, 8.208070, 48.500000
-43.242280, 8.248906, 48.625000
-43.242280, 8.248906, 48.750000
-43.242280, 8.248906, 48.875000
-43.242280, 8.248906, 49.000000
-43.242280, 8.248906, 49.125000
-43.242280, 8.248906, 49.250000
-43.242280, 8.248906, 49.375000
-43.242280, 8.248906, 49.500000
-43.242280, 8.248906, 49.625000
-43.242280, 8.248906, 49.750000
-43.242280, 8.248906, 49.875000
-43.242280, 8.248906, 50.000000
-43.242280, 8.248906, 50.125000
-43.242280, 8.248906, 50.250000
-43.242280, 8.248906, 50.375000
-43.242280, 8.248906, 50.500000
-43.242280, 8.248906, 50.625000
-43.456351, 8.289742, 50.750000
-43.242280, 8.248906, 50.875000
-43.242280, 8.248906, 51.000000
-43.242280, 8.248906, 51.125000
-43.456351, 8.289742, 51.250000
-43.456351, 8.289742, 51.375000
-43.456351, 8.289742, 51.500000
-43.456351, 8.289742, 51.625000
-43.456351, 8.289742, 51.750000
-43.456351, 8.289742, 51.875000
-43.456351, 8.289742, 52.000000
-43.456351, 8.289742, 52.125000
-43.242280, 8.248906, 52.250000
-43.242280, 8.248906, 52.375000
-43.242280, 8.248906, 52.500000
-43.242280, 8.248906, 52.625000
-43.242280, 8.248906, 52.750000
-43.242280, 8.248906, 52.875000
-43.242280, 8.248906, 53.000000
-43.242280, 8.248906, 53.125000
-43.242280, 8.248906, 53.250000
-43.242280, 8.248906, 53.375000
-43.242280, 8.248906, 53.500000
-43.242280, 8.248906, 53.625000
-43.242280, 8.248906, 53.750000
-43.242280, 8.248906, 53.875000
-43.242280, 8.248906, 54.000000
-43.028210, 8.208070, 54.125000
-43.028210, 8.208070, 54.250000
-43.028210, 8.208070, 54.375000
-43.028210, 8.208070, 54.500000
-43.028210, 8.208070, 54.625000
-43.028210, 8.208070, 54.750000
-43.028210, 8.208070, 54.875000
-43.028210, 8.208070, 55.000000
-43.028210, 8.208070, 55.125000
-43.028210, 8.208070, 55.250000
-43.028210, 8.208070, 55.375000
-42.814139, 8.167234, 55.500000
-42.814139, 8.167234, 55.625000
-42.814139, 8.167234, 55.750000
-42.814139, 8.167234, 55.875000
-42.814139, 8.167234, 56.000000
-42.814139, 8.167234, 56.125000
-42.814139, 8.167234, 56.250000
-42.814139, 8.167234, 56.375000
-43.028210, 8.208070, 56.500000
-42.814139, 8.167234, 56.625000
-42.814139, 8.167234, 56.750000
-42.600068, 8.126398, 56.875000
-42.600068, 8.126398, 57.000000
-42.600068, 8.126398, 57.125000
-42.600068, 8.126398, 57.250000
-42.600068, 8.126398, 57.375000
-42.600068, 8.126398, 57.500000
-42.600068, 8.126398, 57.625000
-42.600068, 8.126398, 57.750000
-42.385998, 8.085561, 57.875000
-42.385998, 8.085561, 58.000000
-42.385998, 8.085561, 58.125000
-42.385998, 8.085561, 58.250000
-42.385998, 8.085561, 58.375000
-42.385998, 8.085561, 58.500000
-42.171927, 8.044725, 58.625000
-42.171927, 8.044725, 58.750000
-42.171927, 8.044725, 58.875000
-42.171927, 8.044725, 59.000000
-42.171927, 8.044725, 59.125000
-42.171927, 8.044725, 59.250000
-42.171927, 8.044725, 59.375000
-42.171927, 8.044725, 59.500000
-41.957856, 8.003889, 59.625000
-41.957856, 8.003889, 59.750000
-41.957856, 8.003889, 59.875000
-41.957856, 8.003889, 60.000000
-41.957856, 8.003889, 60.125000
-41.743786, 7.963053, 60.250000
-41.743786, 7.963053, 60.375000
-41.743786, 7.963053, 60.500000
-41.743786, 7.963053, 60.625000
-41.529715, 7.922217, 60.750000
-41.529715, 7.922217, 60.875000
-41.529715, 7.922217, 61.000000
-41.529715, 7.922217, 61.125000
-41.315644, 7.881381, 61.250000
-41.315644, 7.881381, 61.375000
-41.315644, 7.881381, 61.500000
-41.315644, 7.881381, 61.625000
-41.101573, 7.840544, 61.750000
-41.101573, 7.840544, 61.875000
-41.101573, 7.840544, 62.000000
-41.101573, 7.840544, 62.125000
-40.887503, 7.799708, 62.250000
-40.673432, 7.758872, 62.375000
-40.673432, 7.758872, 62.500000
-40.673432, 7.758872, 62.625000
-40.887503, 7.799708, 62.750000
-40.673432, 7.758872, 62.875000
-40.459361, 7.718036, 63.000000
-40.673432, 7.758872, 63.125000
-40.459361, 7.718036, 63.250000
-40.245291, 7.677200, 63.375000
-40.245291, 7.677200, 63.500000
-40.245291, 7.677200, 63.625000
-40.031220, 7.636364, 63.750000
-40.031220, 7.636364, 63.875000
-40.031220, 7.636364, 64.000000
-40.031220, 7.636364, 64.125000
-39.817149, 7.595527, 64.250000
-39.817149, 7.595527, 64.375000
-39.603079, 7.554691, 64.500000
-39.603079, 7.554691, 64.625000
-39.603079, 7.554691, 64.750000
-39.603079, 7.554691, 64.875000
-39.174937, 7.473019, 65.000000
-39.174937, 7.473019, 65.125000
-39.174937, 7.473019, 65.250000
-38.960866, 7.432183, 65.375000
-38.960866, 7.432183, 65.500000
-38.960866, 7.432183, 65.625000
-38.746796, 7.391347, 65.750000
-38.746796, 7.391347, 65.875000
-38.532725, 7.350510, 66.000000
-38.532725, 7.350510, 66.125000
-38.318654, 7.309674, 66.250000
-38.318654, 7.309674, 66.375000
-38.104584, 7.268838, 66.500000
-37.890513, 7.228002, 66.625000
-37.890513, 7.228002, 66.750000
-37.676442, 7.187166, 66.875000
-37.462372, 7.146330, 67.000000
-37.462372, 7.146330, 67.125000
-37.248301, 7.105493, 67.250000
-37.034230, 7.064657, 67.375000
-36.606089, 6.982985, 67.500000
-36.606089, 6.982985, 67.625000
-36.392018, 6.942149, 67.750000
-36.392018, 6.942149, 67.875000
-35.963877, 6.860476, 68.000000
-35.963877, 6.860476, 68.125000
-35.963877, 6.860476, 68.250000
-35.749806, 6.819640, 68.375000
-35.535735, 6.778804, 68.500000
-35.535735, 6.778804, 68.625000
-35.321665, 6.737968, 68.750000
-35.321665, 6.737968, 68.875000
-35.321665, 6.737968, 69.000000
-35.107594, 6.697132, 69.125000
-34.893523, 6.656296, 69.250000
-34.893523, 6.656296, 69.375000
-34.679453, 6.615459, 69.500000
-34.465382, 6.574623, 69.625000
-34.251311, 6.533787, 69.750000
-34.251311, 6.533787, 69.875000
-34.037240, 6.492951, 70.000000
-33.823170, 6.452115, 70.125000
-33.609099, 6.411279, 70.250000
-33.395028, 6.370442, 70.375000
-33.395028, 6.370442, 70.500000
-33.180958, 6.329606, 70.625000
-32.966887, 6.288770, 70.750000
-32.966887, 6.288770, 70.875000
-32.966887, 6.288770, 71.000000
-32.966887, 6.288770, 71.125000
-32.538746, 6.207098, 71.250000
-32.538746, 6.207098, 71.375000
-32.324675, 6.166262, 71.500000
-32.538746, 6.207098, 71.625000
-32.324675, 6.166262, 71.750000
-32.324675, 6.166262, 71.875000
-32.110604, 6.125425, 72.000000
-31.896534, 6.084589, 72.125000
-31.682463, 6.043753, 72.250000
-31.682463, 6.043753, 72.375000
-31.254321, 5.962081, 72.500000
-31.254321, 5.962081, 72.625000
-30.826180, 5.880408, 72.750000
-30.612109, 5.839572, 72.875000
-30.398039, 5.798736, 73.000000
-30.398039, 5.798736, 73.125000
-30.398039, 5.798736, 73.250000
-30.398039, 5.798736, 73.375000
-29.969897, 5.717064, 73.500000
-29.969897, 5.717064, 73.625000
-29.755827, 5.676227, 73.750000
-29.755827, 5.676227, 73.875000
-29.541756, 5.635391, 74.000000
-29.327685, 5.594555, 74.125000
-29.327685, 5.594555, 74.250000
-29.113615, 5.553719, 74.375000
-29.113615, 5.553719, 74.500000
-28.899544, 5.512883, 74.625000
-28.899544, 5.512883, 74.750000
-28.899544, 5.512883, 74.875000
-28.899544, 5.512883, 75.000000
-28.899544, 5.512883, 75.125000
-28.899544, 5.512883, 75.250000
-28.899544, 5.512883, 75.375000
-28.899544, 5.512883, 75.500000
-29.113615, 5.553719, 75.625000
-29.113615, 5.553719, 75.750000
-29.113615, 5.553719, 75.875000
-29.327685, 5.594555, 76.000000
-29.327685, 5.594555, 76.125000
-29.541756, 5.635391, 76.250000
-29.755827, 5.676227, 76.375000
-29.969897, 5.717064, 76.500000
-30.183968, 5.757900, 76.625000
-30.183968, 5.757900, 76.750000
-30.398039, 5.798736, 76.875000
-30.398039, 5.798736, 77.000000
-30.612109, 5.839572, 77.125000
-30.826180, 5.880408, 77.250000
-31.040251, 5.921245, 77.375000
-31.254321, 5.962081, 77.500000
-31.468392, 6.002917, 77.625000
-31.468392, 6.002917, 77.750000
-31.682463, 6.043753, 77.875000
-31.896534, 6.084589, 78.000000
-32.110604, 6.125425, 78.125000
-32.324675, 6.166262, 78.250000
-32.538746, 6.207098, 78.375000
-32.538746, 6.207098, 78.500000
-32.752816, 6.247934, 78.625000
-33.180958, 6.329606, 78.750000
-33.180958, 6.329606, 78.875000
-33.395028, 6.370442, 79.000000
-33.609099, 6.411279, 79.125000
-33.823170, 6.452115, 79.250000
-33.823170, 6.452115, 79.375000
-34.037240, 6.492951, 79.500000
-34.251311, 6.533787, 79.625000
-34.679453, 6.615459, 79.750000
-34.679453, 6.615459, 79.875000
-35.107594, 6.697132, 80.000000
-35.107594, 6.697132, 80.125000
-35.321665, 6.737968, 80.250000
-35.535735, 6.778804, 80.375000
-35.749806, 6.819640, 80.500000
-35.749806, 6.819640, 80.625000
-36.177947, 6.901313, 80.750000
-36.392018, 6.942149, 80.875000
-36.606089, 6.982985, 81.000000
-36.820160, 7.023821, 81.125000
-37.034230, 7.064657, 81.250000
-37.248301, 7.105493, 81.375000
-37.248301, 7.105493, 81.500000
-37.462372, 7.146330, 81.625000
-37.462372, 7.146330, 81.750000
-37.676442, 7.187166, 81.875000
-37.676442, 7.187166, 82.000000
-37.890513, 7.228002, 82.125000
-37.890513, 7.228002, 82.250000
-38.104584, 7.268838, 82.375000
-38.104584, 7.268838, 82.500000
-38.318654, 7.309674, 82.625000
-38.318654, 7.309674, 82.750000
-38.532725, 7.350510, 82.875000
-26.260227, 4.159211, 22.125000
-26.475474, 4.193303, 22.250000
-26.690722, 4.227395, 22.375000
-27.121218, 4.295579, 22.500000
-27.336465, 4.329671, 22.625000
-27.336465, 4.329671, 22.750000
-27.336465, 4.329671, 22.875000
-27.766961, 4.397855, 23.000000
-27.766961, 4.397855, 23.125000
-27.982209, 4.431946, 23.250000
-28.197456, 4.466038, 23.375000
-28.197456, 4.466038, 23.500000
-28.627952, 4.534222, 23.625000
-28.412704, 4.500130, 23.750000
-28.627952, 4.534222, 23.875000
-28.843200, 4.568314, 24.000000
-29.058447, 4.602406, 24.125000
-29.058447, 4.602406, 24.250000
-29.273695, 4.636498, 24.375000
-29.704191, 4.704682, 24.500000
-29.704191, 4.704682, 24.625000
-29.919439, 4.738774, 24.750000
-29.919439, 4.738774, 24.875000
-30.349934, 4.806957, 25.000000
-30.349934, 4.806957, 25.125000
-30.565182, 4.841049, 25.250000
-30.780430, 4.875141, 25.375000
-30.780430, 4.875141, 25.500000
-30.995677, 4.909233, 25.625000
-30.995677, 4.909233, 25.750000
-31.426173, 4.977417, 25.875000
-31.426173, 4.977417, 26.000000
-31.426173, 4.977417, 26.125000
-31.641421, 5.011509, 26.250000
-31.856668, 5.045601, 26.375000
-32.071916, 5.079692, 26.500000
-32.287164, 5.113784, 26.625000
-32.071916, 5.079692, 26.750000
-32.287164, 5.113784, 26.875000
-32.287164, 5.113784, 27.000000
-32.502412, 5.147876, 27.125000
-32.717659, 5.181968, 27.250000
-32.717659, 5.181968, 27.375000
-32.932907, 5.216060, 27.500000
-33.148155, 5.250152, 27.625000
-33.363403, 5.284244, 27.750000
-33.363403, 5.284244, 27.875000
-33.578650, 5.318336, 28.000000
-33.578650, 5.318336, 28.125000
-33.578650, 5.318336, 28.250000
-33.793898, 5.352428, 28.375000
-33.793898, 5.352428, 28.500000
-34.009146, 5.386520, 28.625000
-34.009146, 5.386520, 28.750000
-34.224394, 5.420611, 28.875000
-34.439641, 5.454703, 29.000000
-34.439641, 5.454703, 29.125000
-34.439641, 5.454703, 29.250000
-34.654889, 5.488795, 29.375000
-34.870137, 5.522887, 29.500000
-34.870137, 5.522887, 29.625000
-35.085385, 5.556979, 29.750000
-35.085385, 5.556979, 29.875000
-35.300632, 5.591071, 30.000000
-35.300632, 5.591071, 30.125000
-35.515880, 5.625163, 30.250000
-35.515880, 5.625163, 30.375000
-35.731128, 5.659255, 30.500000
-35.731128, 5.659255, 30.625000
-35.731128, 5.659255, 30.750000
-35.946376, 5.693347, 30.875000
-36.161624, 5.727439, 31.000000
-36.161624, 5.727439, 31.125000
-36.161624, 5.727439, 31.250000
-36.161624, 5.727439, 31.375000
-36.376871, 5.761530, 31.500000
-36.376871, 5.761530, 31.625000
-36.592119, 5.795622, 31.750000
-36.592119, 5.795622, 31.875000
-36.807367, 5.829714, 32.000000
-36.807367, 5.829714, 32.125000
-37.022615, 5.863806, 32.250000
-37.022615, 5.863806, 32.375000
-37.022615, 5.863806, 32.500000
-37.237862, 5.897898, 32.625000
-37.237862, 5.897898, 32.750000
-37.453110, 5.931990, 32.875000
-37.453110, 5.931990, 33.000000
-37.668358, 5.966082, 33.125000
-37.668358, 5.966082, 33.250000
-37.668358, 5.966082, 33.375000
-37.883606, 6.000174, 33.500000
-38.098853, 6.034266, 33.625000
-38.098853, 6.034266, 33.750000
-38.314101, 6.068357, 33.875000
-38.314101, 6.068357, 34.000000
-38.314101, 6.068357, 34.125000
-38.314101, 6.068357, 34.250000
-38.529349, 6.102449, 34.375000
-38.529349, 6.102449, 34.500000
-38.529349, 6.102449, 34.625000
-38.744597, 6.136541, 34.750000
-38.744597, 6.136541, 34.875000
-38.959844, 6.170633, 35.000000
-38.959844, 6.170633, 35.125000
-38.959844, 6.170633, 35.250000
-38.959844, 6.170633, 35.375000
-39.175092, 6.204725, 35.500000
-39.175092, 6.204725, 35.625000
-39.390340, 6.238817, 35.750000
-39.390340, 6.238817, 35.875000
-39.390340, 6.238817, 36.000000
-39.390340, 6.238817, 36.125000
-39.605588, 6.272909, 36.250000
-39.820835, 6.307001, 36.375000
-39.820835, 6.307001, 36.500000
-40.036083, 6.341093, 36.625000
-39.820835, 6.307001, 36.750000
-39.820835, 6.307001, 36.875000
-40.036083, 6.341093, 37.000000
-40.036083, 6.341093, 37.125000
-40.036083, 6.341093, 37.250000
-40.036083, 6.341093, 37.375000
-40.466579, 6.409276, 37.500000
-40.251331, 6.375185, 37.625000
-40.251331, 6.375185, 37.750000
-40.251331, 6.375185, 37.875000
-40.251331, 6.375185, 38.000000
-40.466579, 6.409276, 38.125000
-40.681826, 6.443368, 38.250000
-40.897074, 6.477460, 38.375000
-40.681826, 6.443368, 38.500000
-40.681826, 6.443368, 38.625000
-40.681826, 6.443368, 38.750000
-40.897074, 6.477460, 38.875000
-40.897074, 6.477460, 39.000000
-40.897074, 6.477460, 39.125000
-40.897074, 6.477460, 39.250000
-41.112322, 6.511552, 39.375000
-41.327570, 6.545644, 39.500000
-41.112322, 6.511552, 39.625000
-41.327570, 6.545644, 39.750000
-41.327570, 6.545644, 39.875000
-41.327570, 6.545644, 40.000000
-41.327570, 6.545644, 40.125000
-41.327570, 6.545644, 40.250000
-41.542817, 6.579736, 40.375000
-41.542817, 6.579736, 40.500000
-41.542817, 6.579736, 40.625000
-41.542817, 6.579736, 40.750000
-41.758065, 6.613828, 40.875000
-41.758065, 6.613828, 41.000000
-41.758065, 6.613828, 41.125000
-41.758065, 6.613828, 41.250000
-41.758065, 6.613828, 41.375000
-41.758065, 6.613828, 41.500000
-41.973313, 6.647920, 41.625000
-41.758065, 6.613828, 41.750000
-41.973313, 6.647920, 41.875000
-42.188561, 6.682012, 42.000000
-42.188561, 6.682012, 42.125000
-41.973313, 6.647920, 42.250000
-41.973313, 6.647920, 42.375000
-42.188561, 6.682012, 42.500000
-42.188561, 6.682012, 42.625000
-42.188561, 6.682012, 42.750000
-42.188561, 6.682012, 42.875000
-42.403809, 6.716103, 43.000000
-42.403809, 6.716103, 43.125000
-42.403809, 6.716103, 43.250000
-42.403809, 6.716103, 43.375000
-42.403809, 6.716103, 43.500000
-42.403809, 6.716103, 43.625000
-42.403809, 6.716103, 43.750000
-42.834304, 6.784287, 43.875000
-42.834304, 6.784287, 44.000000
-42.619056, 6.750195, 44.125000
-42.619056, 6.750195, 44.250000
-42.619056, 6.750195, 44.375000
-42.619056, 6.750195, 44.500000
-42.619056, 6.750195, 44.625000
-42.834304, 6.784287, 44.750000
-42.834304, 6.784287, 44.875000
-42.834304, 6.784287, 45.000000
-42.834304, 6.784287, 45.125000
-42.834304, 6.784287, 45.250000
-42.834304, 6.784287, 45.375000
-42.834304, 6.784287, 45.500000
-42.834304, 6.784287, 45.625000
-43.049552, 6.818379, 45.750000
-43.049552, 6.818379, 45.875000
-43.049552, 6.818379, 46.000000
-43.049552, 6.818379, 46.125000
-43.049552, 6.818379, 46.250000
-43.049552, 6.818379, 46.375000
-43.049552, 6.818379, 46.500000
-43.049552, 6.818379, 46.625000
-43.049552, 6.818379, 46.750000
-43.049552, 6.818379, 46.875000
-43.049552, 6.818379, 47.000000
-43.049552, 6.818379, 47.125000
-43.049552, 6.818379, 47.250000
-43.049552, 6.818379, 47.375000
-43.049552, 6.818379, 47.500000
-43.049552, 6.818379, 47.625000
-43.049552, 6.818379, 47.750000
-43.264800, 6.852471, 47.875000
-43.264800, 6.852471, 48.000000
-43.264800, 6.852471, 48.125000
-43.480047, 6.886563, 48.250000
-43.264800, 6.852471, 48.375000
-43.264800, 6.852471, 48.500000
-43.264800, 6.852471, 48.625000
-43.264800, 6.852471, 48.750000
-43.264800, 6.852471, 48.875000
-43.480047, 6.886563, 49.000000
-43.480047, 6.886563, 49.125000
-43.480047, 6.886563, 49.250000
-43.480047, 6.886563, 49.375000
-43.480047, 6.886563, 49.500000
-43.480047, 6.886563, 49.625000
-43.480047, 6.886563, 49.750000
-43.480047, 6.886563, 49.875000
-43.480047, 6.886563, 50.000000
-43.480047, 6.886563, 50.125000
-43.480047, 6.886563, 50.250000
-43.480047, 6.886563, 50.375000
-43.480047, 6.886563, 50.500000
-43.480047, 6.886563, 50.625000
-43.480047, 6.886563, 50.750000
-43.480047, 6.886563, 50.875000
-43.480047, 6.886563, 51.000000
-43.480047, 6.886563, 51.125000
-43.695295, 6.920655, 51.250000
-43.480047, 6.886563, 51.375000
-43.695295, 6.920655, 51.500000
-43.695295, 6.920655, 51.625000
-43.695295, 6.920655, 51.750000
-43.480047, 6.886563, 51.875000
-43.480047, 6.886563, 52.000000
-43.695295, 6.920655, 52.125000
-43.480047, 6.886563, 52.250000
-43.480047, 6.886563, 52.375000
-43.480047, 6.886563, 52.500000
-43.480047, 6.886563, 52.625000
-43.480047, 6.886563, 52.750000
-43.480047, 6.886563, 52.875000
-43.480047, 6.886563, 53.000000
-43.480047, 6.886563, 53.125000
-43.480047, 6.886563, 53.250000
-43.480047, 6.886563, 53.375000
-43.264800, 6.852471, 53.500000
-43.480047, 6.886563, 53.625000
-43.480047, 6.886563, 53.750000
-43.480047, 6.886563, 53.875000
-43.480047, 6.886563, 54.000000
-43.480047, 6.886563, 54.125000
-43.264800, 6.852471, 54.250000
-43.264800, 6.852471, 54.375000
-43.264800, 6.852471, 54.500000
-43.264800, 6.852471, 54.625000
-43.264800, 6.852471, 54.750000
-43.264800, 6.852471, 54.875000
-43.264800, 6.852471, 55.000000
-43.480047, 6.886563, 55.125000
-43.264800, 6.852471, 55.250000
-43.049552, 6.818379, 55.375000
-43.049552, 6.818379, 55.500000
-43.049552, 6.818379, 55.625000
-43.049552, 6.818379, 55.750000
-43.049552, 6.818379, 55.875000
-43.049552, 6.818379, 56.000000
-43.049552, 6.818379, 56.125000
-43.049552, 6.818379, 56.250000
-43.049552, 6.818379, 56.375000
-42.834304, 6.784287, 56.500000
-42.834304, 6.784287, 56.625000
-42.834304, 6.784287, 56.750000
-42.834304, 6.784287, 56.875000
-42.834304, 6.784287, 57.000000
-42.834304, 6.784287, 57.125000
-42.834304, 6.784287, 57.250000
-42.834304, 6.784287, 57.375000
-42.834304, 6.784287, 57.500000
-42.834304, 6.784287, 57.625000
-42.834304, 6.784287, 57.750000
-42.619056, 6.750195, 57.875000
-42.619056, 6.750195, 58.000000
-42.619056, 6.750195, 58.125000
-42.403809, 6.716103, 58.250000
-42.403809, 6.716103, 58.375000
-42.403809, 6.716103, 58.500000
-42.403809, 6.716103, 58.625000
-42.403809, 6.716103, 58.750000
-42.403809, 6.716103, 58.875000
-42.403809, 6.716103, 59.000000
-42.403809, 6.716103, 59.125000
-42.188561, 6.682012, 59.250000
-42.403809, 6.716103, 59.375000
-42.403809, 6.716103, 59.500000
-42.188561, 6.682012, 59.625000
-42.188561, 6.682012, 59.750000
-42.188561, 6.682012, 59.875000
-41.973313, 6.647920, 60.000000
-41.973313, 6.647920, 60.125000
-41.973313, 6.647920, 60.250000
-41.973313, 6.647920, 60.375000
-41.973313, 6.647920, 60.500000
-41.973313, 6.647920, 60.625000
-41.758065, 6.613828, 60.750000
-41.758065, 6.613828, 60.875000
-41.758065, 6.613828, 61.000000
-41.758065, 6.613828, 61.125000
-41.542817, 6.579736, 61.250000
-41.542817, 6.579736, 61.375000
-41.327570, 6.545644, 61.500000
-41.327570, 6.545644, 61.625000
-41.327570, 6.545644, 61.750000
-41.327570, 6.545644, 61.875000
-41.112322, 6.511552, 62.000000
-41.112322, 6.511552, 62.125000
-41.112322, 6.511552, 62.250000
-40.897074, 6.477460, 62.375000
-40.897074, 6.477460, 62.500000
-40.897074, 6.477460, 62.625000
-40.897074, 6.477460, 62.750000
-40.681826, 6.443368, 62.875000
-40.681826, 6.443368, 63.000000
-40.466579, 6.409276, 63.125000
-40.466579, 6.409276, 63.250000
-40.466579, 6.409276, 63.375000
-40.466579, 6.409276, 63.500000
-40.251331, 6.375185, 63.625000
-40.251331, 6.375185, 63.750000
-40.251331, 6.375185, 63.875000
-40.251331, 6.375185, 64.000000
-40.036083, 6.341093, 64.125000
-40.036083, 6.341093, 64.250000
-39.820835, 6.307001, 64.375000
-39.820835, 6.307001, 64.500000
-39.820835, 6.307001, 64.625000
-39.820835, 6.307001, 64.750000
-39.605588, 6.272909, 64.875000
-39.390340, 6.238817, 65.000000
-39.390340, 6.238817, 65.125000
-39.390340, 6.238817, 65.250000
-39.175092, 6.204725, 65.375000
-39.175092, 6.204725, 65.500000
-38.959844, 6.170633, 65.625000
-38.959844, 6.170633, 65.750000
-38.959844, 6.170633, 65.875000
-38.744597, 6.136541, 66.000000
-38.744597, 6.136541, 66.125000
-38.529349, 6.102449, 66.250000
-38.314101, 6.068357, 66.375000
-38.314101, 6.068357, 66.500000
-38.314101, 6.068357, 66.625000
-38.314101, 6.068357, 66.750000
-38.098853, 6.034266, 66.875000
-37.668358, 5.966082, 67.000000
-37.668358, 5.966082, 67.125000
-37.453110, 5.931990, 67.250000
-37.022615, 5.863806, 67.375000
-36.807367, 5.829714, 67.500000
-36.592119, 5.795622, 67.625000
-36.592119, 5.795622, 67.750000
-36.376871, 5.761530, 67.875000
-36.376871, 5.761530, 68.000000
-36.161624, 5.727439, 68.125000
-36.161624, 5.727439, 68.250000
-35.946376, 5.693347, 68.375000
-35.731128, 5.659255, 68.500000
-35.731128, 5.659255, 68.625000
-35.515880, 5.625163, 68.750000
-35.515880, 5.625163, 68.875000
-35.300632, 5.591071, 69.000000
-35.515880, 5.625163, 69.125000
-35.085385, 5.556979, 69.250000
-35.085385, 5.556979, 69.375000
-34.870137, 5.522887, 69.500000
-34.654889, 5.488795, 69.625000
-34.439641, 5.454703, 69.750000
-34.224394, 5.420611, 69.875000
-34.224394, 5.420611, 70.000000
-34.224394, 5.420611, 70.125000
-34.009146, 5.386520, 70.250000
-33.793898, 5.352428, 70.375000
-33.578650, 5.318336, 70.500000
-33.578650, 5.318336, 70.625000
-33.148155, 5.250152, 70.750000
-33.148155, 5.250152, 70.875000
-32.932907, 5.216060, 71.000000
-32.932907, 5.216060, 71.125000
-32.717659, 5.181968, 71.250000
-32.717659, 5.181968, 71.375000
-32.717659, 5.181968, 71.500000
-32.502412, 5.147876, 71.625000
-32.502412, 5.147876, 71.750000
-32.287164, 5.113784, 71.875000
-32.287164, 5.113784, 72.000000
-32.071916, 5.079692, 72.125000
-31.856668, 5.045601, 72.250000
-31.641421, 5.011509, 72.375000
-31.426173, 4.977417, 72.500000
-31.426173, 4.977417, 72.625000
-31.210925, 4.943325, 72.750000
-30.780430, 4.875141, 72.875000
-30.565182, 4.841049, 73.000000
-30.565182, 4.841049, 73.125000
-30.349934, 4.806957, 73.250000
-30.134686, 4.772865, 73.375000
-30.134686, 4.772865, 73.500000
-30.134686, 4.772865, 73.625000
-29.919439, 4.738774, 73.750000
-29.919439, 4.738774, 73.875000
-29.919439, 4.738774, 74.000000
-29.704191, 4.704682, 74.125000
-29.273695, 4.636498, 74.250000
-29.273695, 4.636498, 74.375000
-29.273695, 4.636498, 74.500000
-29.273695, 4.636498, 74.625000
-29.058447, 4.602406, 74.750000
-28.843200, 4.568314, 74.875000
-28.843200, 4.568314, 75.000000
-28.843200, 4.568314, 75.125000
-29.058447, 4.602406, 75.250000
-29.058447, 4.602406, 75.375000
-29.058447, 4.602406, 75.500000
-29.058447, 4.602406, 75.625000
-29.273695, 4.636498, 75.750000
-29.273695, 4.636498, 75.875000
-29.488943, 4.670590, 76.000000
-29.704191, 4.704682, 76.125000
-29.704191, 4.704682, 76.250000
-29.919439, 4.738774, 76.375000
-30.134686, 4.772865, 76.500000
-30.134686, 4.772865, 76.625000
-30.349934, 4.806957, 76.750000
-30.565182, 4.841049, 76.875000
-30.565182, 4.841049, 77.000000
-30.780430, 4.875141, 77.125000
-30.995677, 4.909233, 77.250000
-31.210925, 4.943325, 77.375000
-31.210925, 4.943325, 77.500000
-31.426173, 4.977417, 77.625000
-31.641421, 5.011509, 77.750000
-31.856668, 5.045601, 77.875000
-32.071916, 5.079692, 78.000000
-32.287164, 5.113784, 78.125000
-32.502412, 5.147876, 78.250000
-32.502412, 5.147876, 78.375000
-32.717659, 5.181968, 78.500000
-33.148155, 5.250152, 78.625000
-33.148155, 5.250152, 78.750000
-33.363403, 5.284244, 78.875000
-33.578650, 5.318336, 79.000000
-33.793898, 5.352428, 79.125000
-34.009146, 5.386520, 79.250000
-34.224394, 5.420611, 79.375000
-34.439641, 5.454703, 79.500000
-34.439641, 5.454703, 79.625000
-34.654889, 5.488795, 79.750000
-34.870137, 5.522887, 79.875000
-35.085385, 5.556979, 80.000000
-35.300632, 5.591071, 80.125000
-35.515880, 5.625163, 80.250000
-35.946376, 5.693347, 80.375000
-36.161624, 5.727439, 80.500000
-36.161624, 5.727439, 80.625000
-36.376871, 5.761530, 80.750000
-36.592119, 5.795622, 80.875000
-36.807367, 5.829714, 81.000000
-37.022615, 5.863806, 81.125000
-37.022615, 5.863806, 81.250000
-37.453110, 5.931990, 81.375000
-37.453110, 5.931990, 81.500000
-37.453110, 5.931990, 81.625000
-37.668358, 5.966082, 81.750000
-37.883606, 6.000174, 81.875000
-37.883606, 6.000174, 82.000000
-37.883606, 6.000174, 82.125000
-38.098853, 6.034266, 82.250000
-38.098853, 6.034266, 82.375000
-38.098853, 6.034266, 82.500000
-38.314101, 6.068357, 82.625000
-38.744597, 6.136541, 82.750000
-26.594125, 3.359619, 22.125000
-26.377913, 3.332305, 22.250000
-26.594125, 3.359619, 22.375000
-26.810338, 3.386933, 22.500000
-27.242762, 3.441561, 22.625000
-27.458975, 3.468875, 22.750000
-27.458975, 3.468875, 22.875000
-27.675187, 3.496189, 23.000000
-27.891400, 3.523503, 23.125000
-28.107612, 3.550817, 23.250000
-27.891400, 3.523503, 23.375000
-28.323824, 3.578131, 23.500000
-28.540037, 3.605445, 23.625000
-28.540037, 3.605445, 23.750000
-28.756249, 3.632759, 23.875000
-29.188674, 3.687387, 24.000000
-28.972462, 3.660073, 24.125000
-29.188674, 3.687387, 24.250000
-29.404886, 3.714701, 24.375000
-29.621099, 3.742015, 24.500000
-29.837311, 3.769329, 24.625000
-30.053524, 3.796643, 24.750000
-30.053524, 3.796643, 24.875000
-30.269736, 3.823957, 25.000000
-30.702161, 3.878585, 25.125000
-30.702161, 3.878585, 25.250000
-30.702161, 3.878585, 25.375000
-30.918373, 3.905899, 25.500000
-31.134586, 3.933213, 25.625000
-31.134586, 3.933213, 25.750000
-31.350798, 3.960527, 25.875000
-31.350798, 3.960527, 26.000000
-31.567010, 3.987841, 26.125000
-31.783223, 4.015155, 26.250000
-31.999435, 4.042469, 26.375000
-31.999435, 4.042469, 26.500000
-32.215648, 4.069783, 26.625000
-32.431860, 4.097097, 26.750000
-32.431860, 4.097097, 26.875000
-32.431860, 4.097097, 27.000000
-32.648072, 4.124411, 27.125000
-32.864285, 4.151725, 27.250000
-32.864285, 4.151725, 27.375000
-33.080497, 4.179039, 27.500000
-33.080497, 4.179039, 27.625000
-33.296710, 4.206353, 27.750000
-33.512922, 4.233667, 27.875000
-33.729134, 4.260981, 28.000000
-33.729134, 4.260981, 28.125000
-33.945347, 4.288295, 28.250000
-33.729134, 4.260981, 28.375000
-33.945347, 4.288295, 28.500000
-34.377772, 4.342923, 28.625000
-34.161559, 4.315609, 28.750000
-34.377772, 4.342923, 28.875000
-34.377772, 4.342923, 29.000000
-34.593984, 4.370236, 29.125000
-34.593984, 4.370236, 29.250000
-34.810196, 4.397550, 29.375000
-34.810196, 4.397550, 29.500000
-35.026409, 4.424864, 29.625000
-35.026409, 4.424864, 29.750000
-35.458834, 4.479492, 29.875000
-35.458834, 4.479492, 30.000000
-35.675046, 4.506806, 30.125000
-35.458834, 4.479492, 30.250000
-35.675046, 4.506806, 30.375000
-35.891258, 4.534120, 30.500000
-35.891258, 4.534120, 30.625000
-35.891258, 4.534120, 30.750000
-36.107471, 4.561434, 30.875000
-36.107471, 4.561434, 31.000000
-36.107471, 4.561434, 31.125000
-36.323683, 4.588748, 31.250000
-36.323683, 4.588748, 31.375000
-36.539896, 4.616062, 31.500000
-36.539896, 4.616062, 31.625000
-36.756108, 4.643376, 31.750000
-36.756108, 4.643376, 31.875000
-36.972320, 4.670690, 32.000000
-36.972320, 4.670690, 32.125000
-36.972320, 4.670690, 32.250000
-37.188533, 4.698004, 32.375000
-37.188533, 4.698004, 32.500000
-37.188533, 4.698004, 32.625000
-37.404745, 4.725318, 32.750000
-37.620958, 4.752632, 32.875000
-37.620958, 4.752632, 33.000000
-37.837170, 4.779946, 33.125000
-37.837170, 4.779946, 33.250000
-37.837170, 4.779946, 33.375000
-38.053382, 4.807260, 33.500000
-38.053382, 4.807260, 33.625000
-38.269595, 4.834574, 33.750000
-38.269595, 4.834574, 33.875000
-38.485807, 4.861888, 34.000000
-38.485807, 4.861888, 34.125000
-38.485807, 4.861888, 34.250000
-38.485807, 4.861888, 34.375000
-38.702020, 4.889202, 34.500000
-38.918232, 4.916516, 34.625000
-38.702020, 4.889202, 34.750000
-38.918232, 4.916516, 34.875000
-38.918232, 4.916516, 35.000000
-39.134444, 4.943830, 35.125000
-39.134444, 4.943830, 35.250000
-39.134444, 4.943830, 35.375000
-39.134444, 4.943830, 35.500000
-39.350657, 4.971144, 35.625000
-39.350657, 4.971144, 35.750000
-39.566869, 4.998458, 35.875000
-39.783082, 5.025772, 36.000000
-39.566869, 4.998458, 36.125000
-39.783082, 5.025772, 36.250000
-39.783082, 5.025772, 36.375000
-39.783082, 5.025772, 36.500000
-39.999294, 5.053086, 36.625000
-39.999294, 5.053086, 36.750000
-39.999294, 5.053086, 36.875000
-39.999294, 5.053086, 37.000000
-39.999294, 5.053086, 37.125000
-40.215506, 5.080400, 37.250000
-40.215506, 5.080400, 37.375000
-40.431719, 5.107714, 37.500000
-40.431719, 5.107714, 37.625000
-40.431719, 5.107714, 37.750000
-40.431719, 5.107714, 37.875000
-40.431719, 5.107714, 38.000000
-40.647931, 5.135028, 38.125000
-40.647931, 5.135028, 38.250000
-40.864144, 5.162342, 38.375000
-41.080356, 5.189656, 38.500000
-40.864144, 5.162342, 38.625000
-40.864144, 5.162342, 38.750000
-41.080356, 5.189656, 38.875000
-41.080356, 5.189656, 39.000000
-41.080356, 5.189656, 39.125000
-41.080356, 5.189656, 39.250000
-41.080356, 5.189656, 39.375000
-41.296568, 5.216970, 39.500000
-41.296568, 5.216970, 39.625000
-41.512781, 5.244284, 39.750000
-41.296568, 5.216970, 39.875000
-41.512781, 5.244284, 40.000000
-41.512781, 5.244284, 40.125000
-41.512781, 5.244284, 40.250000
-41.728993, 5.271598, 40.375000
-41.728993, 5.271598, 40.500000
-41.728993, 5.271598, 40.625000
-41.728993, 5.271598, 40.750000
-41.945206, 5.298912, 40.875000
-41.728993, 5.271598, 41.000000
-41.728993, 5.271598, 41.125000
-41.945206, 5.298912, 41.250000
-41.945206, 5.298912, 41.375000
-42.161418, 5.326226, 41.500000
-41.945206, 5.298912, 41.625000
-41.945206, 5.298912, 41.750000
-42.161418, 5.326226, 41.875000
-42.161418, 5.326226, 42.000000
-42.377630, 5.353540, 42.125000
-42.161418, 5.326226, 42.250000
-42.161418, 5.326226, 42.375000
-42.377630, 5.353540, 42.500000
-42.593843, 5.380854, 42.625000
-42.377630, 5.353540, 42.750000
-42.377630, 5.353540, 42.875000
-42.377630, 5.353540, 43.000000
-42.377630, 5.353540, 43.125000
-42.377630, 5.353540, 43.250000
-42.593843, 5.380854, 43.375000
-42.593843, 5.380854, 43.500000
-42.593843, 5.380854, 43.625000
-42.593843, 5.380854, 43.750000
-42.810055, 5.408168, 43.875000
-42.810055, 5.408168, 44.000000
-42.810055, 5.408168, 44.125000
-42.810055, 5.408168, 44.250000
-42.810055, 5.408168, 44.375000
-42.810055, 5.408168, 44.500000
-42.810055, 5.408168, 44.625000
-42.810055, 5.408168, 44.750000
-42.810055, 5.408168, 44.875000
-43.026268, 5.435482, 45.000000
-43.242480, 5.462796, 45.125000
-43.026268, 5.435482, 45.250000
-43.026268, 5.435482, 45.375000
-43.026268, 5.435482, 45.500000
-43.026268, 5.435482, 45.625000
-43.026268, 5.435482, 45.750000
-43.026268, 5.435482, 45.875000
-43.026268, 5.435482, 46.000000
-43.242480, 5.462796, 46.125000
-43.242480, 5.462796, 46.250000
-43.458692, 5.490110, 46.375000
-43.242480, 5.462796, 46.500000
-43.458692, 5.490110, 46.625000
-43.458692, 5.490110, 46.750000
-43.242480, 5.462796, 46.875000
-43.242480, 5.462796, 47.000000
-43.242480, 5.462796, 47.125000
-43.242480, 5.462796, 47.250000
-43.242480, 5.462796, 47.375000
-43.242480, 5.462796, 47.500000
-43.242480, 5.462796, 47.625000
-43.242480, 5.462796, 47.750000
-43.458692, 5.490110, 47.875000
-43.458692, 5.490110, 48.000000
