-17.431404, 25.649532, 51.625000
-17.431404, 25.649532, 51.750000
-17.431404, 25.649532, 51.875000
-17.340615, 25.515941, 52.000000
-17.340615, 25.515941, 52.125000
-17.340615, 25.515941, 52.250000
-17.159038, 25.248758, 52.375000
-17.340615, 25.515941, 52.500000
-17.159038, 25.248758, 52.625000
-17.159038, 25.248758, 52.750000
-17.068250, 25.115167, 52.875000
-17.068250, 25.115167, 53.000000
-17.068250, 25.115167, 53.125000
-16.977461, 24.981575, 53.250000
-16.886673, 24.847984, 53.375000
-16.886673, 24.847984, 53.500000
-16.886673, 24.847984, 53.625000
-16.705095, 24.580801, 53.750000
-16.795884, 24.714393, 53.875000
-16.614307, 24.447210, 54.000000
-16.614307, 24.447210, 54.125000
-16.705095, 24.580801, 54.250000
-16.614307, 24.447210, 54.375000
-16.614307, 24.447210, 54.500000
-16.614307, 24.447210, 54.625000
-16.341941, 24.046436, 54.750000
-16.432730, 24.180028, 54.875000
-16.251153, 23.912845, 55.000000
-16.251153, 23.912845, 55.125000
-16.160364, 23.779254, 55.250000
-16.251153, 23.912845, 55.375000
-16.251153, 23.912845, 55.500000
-15.797210, 23.244888, 55.625000
-15.978787, 23.512071, 55.750000
-15.887998, 23.378480, 55.875000
-15.887998, 23.378480, 56.000000
-15.706421, 23.111297, 56.125000
-15.706421, 23.111297, 56.250000
-15.797210, 23.244888, 56.375000
-15.615633, 22.977706, 57.000000
-15.434056, 22.710523, 57.125000
-15.161690, 22.309749, 57.250000
-15.252478, 22.443340, 57.375000
-15.161690, 22.309749, 57.500000
-11.893302, 17.500462, 62.125000
-11.893302, 17.500462, 62.250000
-11.893302, 17.500462, 62.375000
-11.893302, 17.500462, 62.500000
-11.893302, 17.500462, 62.625000
-11.802513, 17.366871, 62.750000
-11.620936, 17.099688, 62.875000
-11.439359, 16.832505, 63.000000
-11.530147, 16.966097, 63.125000
-11.530147, 16.966097, 63.250000
-11.620936, 17.099688, 63.375000
-11.620936, 17.099688, 63.500000
-10.803839, 15.897366, 63.625000
-10.713050, 15.763775, 63.750000
-10.622262, 15.630184, 63.875000
-10.531473, 15.496592, 64.000000
-10.622262, 15.630184, 64.125000
-10.622262, 15.630184, 64.250000
-10.531473, 15.496592, 64.375000
-10.440685, 15.363001, 64.500000
-10.440685, 15.363001, 64.625000
-10.168319, 14.962227, 64.750000
-10.259108, 15.095818, 64.875000
-10.077530, 14.828636, 65.000000
-9.895953, 14.561453, 65.125000
-9.805165, 14.427862, 65.250000
-9.805165, 14.427862, 65.375000
-9.805165, 14.427862, 65.500000
-9.714376, 14.294270, 65.625000
-9.805165, 14.427862, 65.750000
-9.714376, 14.294270, 65.875000
-9.623588, 14.160679, 66.000000
-9.714376, 14.294270, 66.125000
-9.623588, 14.160679, 66.250000
-9.623588, 14.160679, 66.375000
-9.532799, 14.027088, 66.500000
-9.532799, 14.027088, 66.625000
-9.532799, 14.027088, 66.750000
-9.623588, 14.160679, 66.875000
-9.714376, 14.294270, 67.000000
-9.714376, 14.294270, 67.125000
-9.805165, 14.427862, 67.250000
-9.805165, 14.427862, 67.375000
-9.986742, 14.695044, 67.500000
-10.077530, 14.828636, 67.625000
-10.077530, 14.828636, 67.750000
-10.168319, 14.962227, 67.875000
-10.349896, 15.229410, 68.000000
-10.440685, 15.363001, 68.125000
-10.531473, 15.496592, 68.250000
-10.622262, 15.630184, 68.375000
-10.803839, 15.897366, 68.500000
-10.803839, 15.897366, 68.625000
-10.985416, 16.164549, 68.750000
-11.076205, 16.298140, 68.875000
-11.257782, 16.565323, 69.000000
-11.348570, 16.698914, 69.125000
-11.530147, 16.966097, 69.250000
-11.620936, 17.099688, 69.375000
-11.711725, 17.233279, 69.500000
-11.893302, 17.500462, 69.625000
-11.984090, 17.634053, 69.750000
-12.074879, 17.767645, 69.875000
-12.347244, 18.168418, 70.000000
-12.347244, 18.168418, 70.125000
-12.528822, 18.435601, 70.250000
-12.619610, 18.569192, 70.375000
-12.801187, 18.836375, 70.500000
-12.982764, 19.103558, 70.625000
-13.073553, 19.237149, 70.750000
-13.255130, 19.504332, 70.875000
-13.345919, 19.637923, 71.000000
-13.436707, 19.771514, 71.125000
-13.618284, 20.038697, 71.250000
-13.709073, 20.172288, 71.375000
-13.799861, 20.305879, 71.500000
-13.890650, 20.439471, 71.625000
-14.072227, 20.706653, 71.750000
-14.163016, 20.840245, 71.875000
-14.163016, 20.840245, 72.000000
-14.253804, 20.973836, 72.125000
-14.435381, 21.241019, 72.250000
-14.435381, 21.241019, 72.375000
-14.435381, 21.241019, 72.500000
-14.526170, 21.374610, 72.625000
-5.886278, 8.101767, 5.750000
-5.886278, 8.101767, 5.875000
-5.886278, 8.101767, 6.000000
-5.886278, 8.101767, 6.125000
-5.886278, 8.101767, 6.250000
-5.886278, 8.101767, 6.375000
-5.886278, 8.101767, 6.500000
-5.886278, 8.101767, 6.625000
-5.886278, 8.101767, 6.750000
-5.791338, 7.971093, 6.875000
-5.886278, 8.101767, 7.000000
-5.886278, 8.101767, 7.125000
-5.886278, 8.101767, 7.250000
-5.886278, 8.101767, 7.375000
-5.981218, 8.232440, 7.500000
-5.886278, 8.101767, 7.625000
-5.886278, 8.101767, 7.750000
-5.981218, 8.232440, 7.875000
-5.981218, 8.232440, 8.000000
-5.981218, 8.232440, 8.125000
-5.981218, 8.232440, 8.250000
-5.981218, 8.232440, 8.375000
-5.981218, 8.232440, 8.500000
-5.981218, 8.232440, 8.625000
-5.981218, 8.232440, 8.750000
-5.981218, 8.232440, 8.875000
-5.981218, 8.232440, 9.000000
-5.981218, 8.232440, 9.125000
-5.981218, 8.232440, 9.250000
-5.981218, 8.232440, 9.375000
-5.981218, 8.232440, 9.500000
-5.981218, 8.232440, 9.625000
-5.981218, 8.232440, 9.750000
-5.981218, 8.232440, 9.875000
-5.981218, 8.232440, 10.000000
-5.981218, 8.232440, 10.125000
-5.981218, 8.232440, 10.250000
-6.076158, 8.363114, 10.375000
-6.076158, 8.363114, 10.500000
-6.076158, 8.363114, 10.625000
-6.076158, 8.363114, 10.750000
-6.076158, 8.363114, 10.875000
-6.076158, 8.363114, 11.000000
-6.076158, 8.363114, 11.125000
-6.076158, 8.363114, 11.250000
-6.076158, 8.363114, 11.375000
-6.076158, 8.363114, 11.500000
-6.076158, 8.363114, 11.625000
-6.076158, 8.363114, 11.750000
-6.076158, 8.363114, 11.875000
-6.076158, 8.363114, 12.000000
-6.076158, 8.363114, 12.125000
-6.076158, 8.363114, 12.250000
-6.076158, 8.363114, 12.375000
-6.076158, 8.363114, 12.500000
-6.076158, 8.363114, 12.625000
-6.076158, 8.363114, 12.750000
-6.171098, 8.493788, 12.875000
-6.171098, 8.493788, 13.000000
-6.171098, 8.493788, 13.125000
-6.266038, 8.624461, 13.250000
-6.171098, 8.493788, 13.375000
-6.266038, 8.624461, 13.500000
-14.525815, 19.993069, 20.375000
-14.525815, 19.993069, 20.500000
-13.956175, 19.209027, 20.625000
-13.956175, 19.209027, 20.750000
-14.051115, 19.339701, 20.875000
-14.335935, 19.731722, 21.000000
-14.430875, 19.862396, 21.125000
-14.525815, 19.993069, 21.250000
-14.525815, 19.993069, 21.375000
-14.620755, 20.123743, 21.500000
-14.715695, 20.254417, 21.625000
-14.810635, 20.385090, 21.750000
-14.810635, 20.385090, 21.875000
-15.000515, 20.646438, 22.000000
-15.000515, 20.646438, 22.125000
-15.095455, 20.777111, 22.250000
-15.095455, 20.777111, 22.375000
-15.190395, 20.907785, 22.500000
-15.285335, 21.038459, 22.625000
-15.285335, 21.038459, 22.750000
-15.380275, 21.169132, 22.875000
-15.475215, 21.299806, 23.000000
-15.475215, 21.299806, 23.125000
-15.570155, 21.430479, 23.250000
-15.570155, 21.430479, 23.375000
-15.665095, 21.561153, 23.500000
-15.760035, 21.691827, 23.625000
-15.760035, 21.691827, 23.750000
-15.854975, 21.822500, 23.875000
-15.949915, 21.953174, 24.000000
-15.949915, 21.953174, 24.125000
-16.139795, 22.214521, 24.250000
-16.044855, 22.083848, 24.375000
-16.139795, 22.214521, 24.500000
-16.234735, 22.345195, 24.625000
-16.234735, 22.345195, 24.750000
-16.329674, 22.475869, 24.875000
-16.329674, 22.475869, 25.000000
-16.424614, 22.606542, 25.125000
-16.424614, 22.606542, 25.250000
-16.519554, 22.737216, 25.375000
-16.614494, 22.867890, 25.500000
-16.614494, 22.867890, 25.625000
-16.709434, 22.998563, 25.750000
-16.709434, 22.998563, 25.875000
-16.804374, 23.129237, 26.000000
-16.804374, 23.129237, 26.125000
-16.899314, 23.259911, 26.250000
-16.899314, 23.259911, 26.375000
-16.994254, 23.390584, 26.500000
-16.994254, 23.390584, 26.625000
-17.089194, 23.521258, 26.750000
-17.089194, 23.521258, 26.875000
-17.184134, 23.651932, 27.000000
-17.184134, 23.651932, 27.125000
-17.184134, 23.651932, 27.250000
-17.279074, 23.782605, 27.375000
-17.374014, 23.913279, 27.500000
-17.374014, 23.913279, 27.625000
-17.468954, 24.043953, 27.750000
-17.468954, 24.043953, 27.875000
-17.468954, 24.043953, 28.000000
-17.563894, 24.174626, 28.125000
-17.563894, 24.174626, 28.250000
-17.658834, 24.305300, 28.375000
-17.658834, 24.305300, 28.500000
-17.753774, 24.435974, 28.625000
-17.753774, 24.435974, 28.750000
-17.753774, 24.435974, 28.875000
-17.848714, 24.566647, 29.000000
-17.848714, 24.566647, 29.125000
-17.943654, 24.697321, 29.250000
-17.943654, 24.697321, 29.375000
-18.038594, 24.827995, 29.500000
-18.038594, 24.827995, 29.625000
-18.038594, 24.827995, 29.750000
-18.133534, 24.958668, 29.875000
-18.133534, 24.958668, 30.000000
-18.228474, 25.089342, 30.125000
-18.228474, 25.089342, 30.250000
-18.228474, 25.089342, 30.375000
-18.323414, 25.220016, 30.500000
-18.323414, 25.220016, 30.625000
-18.323414, 25.220016, 30.750000
-18.323414, 25.220016, 30.875000
-18.323414, 25.220016, 31.000000
-18.418354, 25.350689, 31.125000
-18.418354, 25.350689, 31.250000
-18.513294, 25.481363, 31.375000
-18.513294, 25.481363, 31.500000
-18.513294, 25.481363, 31.625000
-18.608234, 25.612036, 31.750000
-18.608234, 25.612036, 31.875000
-18.608234, 25.612036, 32.000000
-18.608234, 25.612036, 32.125000
-18.703174, 25.742710, 32.250000
-18.703174, 25.742710, 32.375000
-18.798114, 25.873384, 32.500000
-18.703174, 25.742710, 32.625000
-18.798114, 25.873384, 32.750000
-18.798114, 25.873384, 32.875000
-18.798114, 25.873384, 33.000000
-18.798114, 25.873384, 33.125000
-18.893054, 26.004057, 33.250000
-18.893054, 26.004057, 33.375000
-18.893054, 26.004057, 33.500000
-18.893054, 26.004057, 33.625000
-18.987994, 26.134731, 33.750000
-18.987994, 26.134731, 33.875000
-18.987994, 26.134731, 34.000000
-19.082934, 26.265405, 34.125000
-18.987994, 26.134731, 34.250000
-19.082934, 26.265405, 34.375000
-19.082934, 26.265405, 34.500000
-19.082934, 26.265405, 34.625000
-19.177874, 26.396078, 34.750000
-19.177874, 26.396078, 34.875000
-19.177874, 26.396078, 35.000000
-19.177874, 26.396078, 35.125000
-19.177874, 26.396078, 35.250000
-19.177874, 26.396078, 35.375000
-19.272814, 26.526752, 35.500000
-19.272814, 26.526752, 35.625000
-19.272814, 26.526752, 35.750000
-19.272814, 26.526752, 35.875000
-19.272814, 26.526752, 36.000000
-19.367753, 26.657426, 36.125000
-19.367753, 26.657426, 36.250000
-19.367753, 26.657426, 36.375000
-19.367753, 26.657426, 36.500000
-19.367753, 26.657426, 36.625000
-19.462693, 26.788099, 36.750000
-19.462693, 26.788099, 36.875000
-19.462693, 26.788099, 37.000000
-19.462693, 26.788099, 37.125000
-19.462693, 26.788099, 37.250000
-19.462693, 26.788099, 37.375000
-19.462693, 26.788099, 37.500000
-19.462693, 26.788099, 37.625000
-19.557633, 26.918773, 37.750000
-19.557633, 26.918773, 37.875000
-19.557633, 26.918773, 38.000000
-19.557633, 26.918773, 38.125000
-19.557633, 26.918773, 38.250000
-19.557633, 26.918773, 38.375000
-19.557633, 26.918773, 38.500000
-19.652573, 27.049447, 38.625000
-19.652573, 27.049447, 38.750000
-19.652573, 27.049447, 38.875000
-19.652573, 27.049447, 39.000000
-19.652573, 27.049447, 39.125000
-19.652573, 27.049447, 39.250000
-19.652573, 27.049447, 39.375000
-19.652573, 27.049447, 39.500000
-19.652573, 27.049447, 39.625000
-19.652573, 27.049447, 39.750000
-19.652573, 27.049447, 39.875000
-19.652573, 27.049447, 40.000000
-19.652573, 27.049447, 40.125000
-19.652573, 27.049447, 40.250000
-19.652573, 27.049447, 40.375000
-19.652573, 27.049447, 40.500000
-19.652573, 27.049447, 40.625000
-19.652573, 27.049447, 40.750000
-19.652573, 27.049447, 40.875000
-19.652573, 27.049447, 41.000000
-19.652573, 27.049447, 41.125000
-19.652573, 27.049447, 41.250000
-19.652573, 27.049447, 41.375000
-19.652573, 27.049447, 41.500000
-19.652573, 27.049447, 41.625000
-19.652573, 27.049447, 41.750000
-19.652573, 27.049447, 41.875000
-19.652573, 27.049447, 42.000000
-19.652573, 27.049447, 42.125000
-19.652573, 27.049447, 42.250000
-19.652573, 27.049447, 42.375000
-19.652573, 27.049447, 42.500000
-19.652573, 27.049447, 42.625000
-19.747513, 27.180120, 42.750000
-19.652573, 27.049447, 42.875000
-19.652573, 27.049447, 43.000000
-19.652573, 27.049447, 43.125000
-19.652573, 27.049447, 43.250000
-19.652573, 27.049447, 43.375000
-19.652573, 27.049447, 43.500000
-19.652573, 27.049447, 43.625000
-19.652573, 27.049447, 43.750000
-19.652573, 27.049447, 43.875000
-19.652573, 27.049447, 44.000000
-19.652573, 27.049447, 44.125000
-19.557633, 26.918773, 44.250000
-19.557633, 26.918773, 44.375000
-19.557633, 26.918773, 44.500000
-19.557633, 26.918773, 44.625000
-19.557633, 26.918773, 44.750000
-19.557633, 26.918773, 44.875000
-19.557633, 26.918773, 45.000000
-19.557633, 26.918773, 45.125000
-19.557633, 26.918773, 45.250000
-19.462693, 26.788099, 45.375000
-19.462693, 26.788099, 45.500000
-19.462693, 26.788099, 45.625000
-19.462693, 26.788099, 45.750000
-19.462693, 26.788099, 45.875000
-19.462693, 26.788099, 46.000000
-19.462693, 26.788099, 46.125000
-19.462693, 26.788099, 46.250000
-19.367753, 26.657426, 46.375000
-19.367753, 26.657426, 46.500000
-19.367753, 26.657426, 46.625000
-19.367753, 26.657426, 46.750000
-19.272814, 26.526752, 46.875000
-19.272814, 26.526752, 47.000000
-19.272814, 26.526752, 47.125000
-19.272814, 26.526752, 47.250000
-19.177874, 26.396078, 47.375000
-19.177874, 26.396078, 47.500000
-19.177874, 26.396078, 47.625000
-19.177874, 26.396078, 47.750000
-19.177874, 26.396078, 47.875000
-19.177874, 26.396078, 48.000000
-19.082934, 26.265405, 48.125000
-19.082934, 26.265405, 48.250000
-19.082934, 26.265405, 48.375000
-19.082934, 26.265405, 48.500000
-18.987994, 26.134731, 48.625000
-18.987994, 26.134731, 48.750000
-18.987994, 26.134731, 48.875000
-18.987994, 26.134731, 49.000000
-18.987994, 26.134731, 49.125000
-18.893054, 26.004057, 49.250000
-18.893054, 26.004057, 49.375000
-18.798114, 25.873384, 49.500000
-18.798114, 25.873384, 49.625000
-18.798114, 25.873384, 49.750000
-18.798114, 25.873384, 49.875000
-18.703174, 25.742710, 50.000000
-18.703174, 25.742710, 50.125000
-18.703174, 25.742710, 50.250000
-18.608234, 25.612036, 50.375000
-18.608234, 25.612036, 50.500000
-18.608234, 25.612036, 50.625000
-18.608234, 25.612036, 50.750000
-18.513294, 25.481363, 50.875000
-18.608234, 25.612036, 51.000000
-18.513294, 25.481363, 51.125000
-18.418354, 25.350689, 51.250000
-18.418354, 25.350689, 51.375000
-18.418354, 25.350689, 51.500000
-18.418354, 25.350689, 51.625000
-18.323414, 25.220016, 51.750000
-18.323414, 25.220016, 51.875000
-18.228474, 25.089342, 52.000000
-18.228474, 25.089342, 52.125000
-18.228474, 25.089342, 52.250000
-18.133534, 24.958668, 52.375000
-18.133534, 24.958668, 52.500000
-18.133534, 24.958668, 52.625000
-18.038594, 24.827995, 52.750000
-18.038594, 24.827995, 52.875000
-18.038594, 24.827995, 53.000000
-17.848714, 24.566647, 53.125000
-17.848714, 24.566647, 53.250000
-17.753774, 24.435974, 53.375000
-17.753774, 24.435974, 53.500000
-17.753774, 24.435974, 53.625000
-17.658834, 24.305300, 53.750000
-17.658834, 24.305300, 53.875000
-17.563894, 24.174626, 54.000000
-17.563894, 24.174626, 54.125000
-17.468954, 24.043953, 54.250000
-17.374014, 23.913279, 54.375000
-17.374014, 23.913279, 54.500000
-17.279074, 23.782605, 54.625000
-17.279074, 23.782605, 54.750000
-17.184134, 23.651932, 54.875000
-17.089194, 23.521258, 55.000000
-16.994254, 23.390584, 55.125000
-16.899314, 23.259911, 55.250000
-16.994254, 23.390584, 55.375000
-16.899314, 23.259911, 55.500000
-16.804374, 23.129237, 55.625000
-16.709434, 22.998563, 55.750000
-16.614494, 22.867890, 55.875000
-16.709434, 22.998563, 56.000000
-16.424614, 22.606542, 56.125000
-16.424614, 22.606542, 56.375000
-16.234735, 22.345195, 56.625000
-13.576415, 18.686333, 60.875000
-13.291596, 18.294312, 61.000000
-13.101716, 18.032964, 61.375000
-13.101716, 18.032964, 61.500000
-13.006776, 17.902291, 61.625000
-13.101716, 18.032964, 61.750000
-12.437136, 17.118249, 62.000000
-12.437136, 17.118249, 62.125000
-12.437136, 17.118249, 62.250000
-12.342196, 16.987575, 62.375000
-12.437136, 17.118249, 62.500000
-12.152316, 16.726228, 62.625000
-11.962436, 16.464881, 63.000000
-11.297856, 15.550165, 63.625000
-11.297856, 15.550165, 63.750000
-11.297856, 15.550165, 63.875000
-11.202916, 15.419491, 64.000000
-11.202916, 15.419491, 64.125000
-11.202916, 15.419491, 64.250000
-11.013036, 15.158144, 64.375000
-11.013036, 15.158144, 64.500000
-11.013036, 15.158144, 64.625000
-10.823156, 14.896797, 64.750000
-10.728216, 14.766123, 64.875000
-10.633276, 14.635449, 65.000000
-10.538336, 14.504776, 65.125000
-10.538336, 14.504776, 65.250000
-10.348457, 14.243428, 65.375000
-10.348457, 14.243428, 65.500000
-10.253517, 14.112755, 65.625000
-10.253517, 14.112755, 65.750000
-10.253517, 14.112755, 65.875000
-10.158577, 13.982081, 66.000000
-10.158577, 13.982081, 66.125000
-10.158577, 13.982081, 66.250000
-10.063637, 13.851407, 66.375000
-10.158577, 13.982081, 66.500000
-10.158577, 13.982081, 66.625000
-10.158577, 13.982081, 66.750000
-10.158577, 13.982081, 66.875000
-10.253517, 14.112755, 67.000000
-10.253517, 14.112755, 67.125000
-10.443396, 14.374102, 67.250000
-10.443396, 14.374102, 67.375000
-10.538336, 14.504776, 67.500000
-10.538336, 14.504776, 67.625000
-10.633276, 14.635449, 67.750000
-10.823156, 14.896797, 67.875000
-10.918096, 15.027470, 68.000000
-10.918096, 15.027470, 68.125000
-11.107976, 15.288818, 68.250000
-11.297856, 15.550165, 68.375000
-11.392796, 15.680839, 68.500000
-11.487736, 15.811512, 68.625000
-11.582676, 15.942186, 68.750000
-11.772556, 16.203533, 68.875000
-11.867496, 16.334207, 69.000000
-11.962436, 16.464881, 69.125000
-12.152316, 16.726228, 69.250000
-12.247256, 16.856902, 69.375000
-12.437136, 17.118249, 69.500000
-12.532076, 17.248923, 69.625000
-12.627016, 17.379596, 69.750000
-12.816896, 17.640943, 69.875000
-12.911836, 17.771617, 70.000000
-13.006776, 17.902291, 70.125000
-13.196656, 18.163638, 70.250000
-13.386535, 18.424985, 70.375000
-13.481475, 18.555659, 70.500000
-13.671355, 18.817006, 70.625000
-13.766295, 18.947680, 70.750000
-13.861235, 19.078354, 70.875000
-14.051115, 19.339701, 71.000000
-14.146055, 19.470375, 71.125000
-14.335935, 19.731722, 71.250000
-14.430875, 19.862396, 71.375000
-14.715695, 20.254417, 71.500000
-14.715695, 20.254417, 71.625000
-14.810635, 20.385090, 71.750000
-14.905575, 20.515764, 71.875000
-15.000515, 20.646438, 72.000000
-15.095455, 20.777111, 72.125000
-15.190395, 20.907785, 72.250000
-15.190395, 20.907785, 72.375000
-15.190395, 20.907785, 72.500000
-15.285335, 21.038459, 72.625000
-6.137856, 7.912876, 5.750000
-6.038858, 7.785249, 5.875000
-6.137856, 7.912876, 6.000000
-6.137856, 7.912876, 6.125000
-6.137856, 7.912876, 6.250000
-6.137856, 7.912876, 6.375000
-6.137856, 7.912876, 6.500000
-6.137856, 7.912876, 6.625000
-6.137856, 7.912876, 6.750000
-6.038858, 7.785249, 6.875000
-6.137856, 7.912876, 7.000000
-6.137856, 7.912876, 7.125000
-6.137856, 7.912876, 7.250000
-6.137856, 7.912876, 7.375000
-6.137856, 7.912876, 7.500000
-6.137856, 7.912876, 7.625000
-6.137856, 7.912876, 7.750000
-6.236854, 8.040503, 7.875000
-6.236854, 8.040503, 8.000000
-6.335851, 8.168131, 8.125000
-6.236854, 8.040503, 8.250000
-6.236854, 8.040503, 8.375000
-6.236854, 8.040503, 8.500000
-6.236854, 8.040503, 8.625000
-6.236854, 8.040503, 8.750000
-6.236854, 8.040503, 8.875000
-6.236854, 8.040503, 9.000000
-6.236854, 8.040503, 9.125000
-6.236854, 8.040503, 9.250000
-6.236854, 8.040503, 9.375000
-6.236854, 8.040503, 9.500000
-6.236854, 8.040503, 9.625000
-6.236854, 8.040503, 9.750000
-6.236854, 8.040503, 9.875000
-6.236854, 8.040503, 10.000000
-6.236854, 8.040503, 10.125000
-6.236854, 8.040503, 10.250000
-6.335851, 8.168131, 10.375000
-6.335851, 8.168131, 10.500000
-6.335851, 8.168131, 10.625000
-6.335851, 8.168131, 10.750000
-6.335851, 8.168131, 10.875000
-6.335851, 8.168131, 11.000000
-6.335851, 8.168131, 11.125000
-6.335851, 8.168131, 11.250000
-6.335851, 8.168131, 11.375000
-6.335851, 8.168131, 11.500000
-6.335851, 8.168131, 11.625000
-6.335851, 8.168131, 11.750000
-6.335851, 8.168131, 11.875000
-6.335851, 8.168131, 12.000000
-6.335851, 8.168131, 12.125000
-6.335851, 8.168131, 12.250000
-6.335851, 8.168131, 12.375000
-6.335851, 8.168131, 12.500000
-6.434849, 8.295758, 12.625000
-6.434849, 8.295758, 12.750000
-6.434849, 8.295758, 12.875000
-6.434849, 8.295758, 13.000000
-6.533847, 8.423385, 13.125000
-6.434849, 8.295758, 13.250000
-6.434849, 8.295758, 13.375000
-6.533847, 8.423385, 13.500000
-15.146645, 19.526937, 20.500000
-15.047647, 19.399310, 20.625000
-14.948650, 19.271683, 20.750000
-15.146645, 19.526937, 21.000000
-15.245643, 19.654564, 21.125000
-15.146645, 19.526937, 21.250000
-15.245643, 19.654564, 21.375000
-15.245643, 19.654564, 21.500000
-15.542636, 20.037445, 21.625000
-15.542636, 20.037445, 21.750000
-15.443638, 19.909818, 21.875000
-15.641633, 20.165072, 22.000000
-15.542636, 20.037445, 22.125000
-15.740631, 20.292699, 22.250000
-15.839629, 20.420326, 22.375000
-15.839629, 20.420326, 22.500000
-15.938626, 20.547953, 22.625000
-16.037624, 20.675580, 22.750000
-16.037624, 20.675580, 22.875000
-16.235619, 20.930834, 23.000000
-16.235619, 20.930834, 23.125000
-16.235619, 20.930834, 23.250000
-16.334617, 21.058462, 23.375000
-16.433615, 21.186089, 23.500000
-16.433615, 21.186089, 23.625000
-16.532612, 21.313716, 23.750000
-16.631610, 21.441343, 23.875000
-16.532612, 21.313716, 24.000000
-16.631610, 21.441343, 24.125000
-16.730608, 21.568970, 24.250000
-16.730608, 21.568970, 24.375000
-16.928603, 21.824224, 24.500000
-16.928603, 21.824224, 24.625000
-16.928603, 21.824224, 24.750000
-17.027601, 21.951851, 24.875000
-17.126599, 22.079478, 25.000000
-17.126599, 22.079478, 25.125000
-17.225596, 22.207105, 25.250000
-17.225596, 22.207105, 25.375000
-17.423592, 22.462359, 25.500000
-17.324594, 22.334732, 25.625000
-17.423592, 22.462359, 25.750000
-17.423592, 22.462359, 25.875000
-17.522589, 22.589986, 26.000000
-17.522589, 22.589986, 26.125000
-17.621587, 22.717613, 26.250000
-17.720585, 22.845240, 26.375000
-17.720585, 22.845240, 26.500000
-17.819582, 22.972867, 26.625000
-17.819582, 22.972867, 26.750000
-17.918580, 23.100494, 26.875000
-17.918580, 23.100494, 27.000000
-17.918580, 23.100494, 27.125000
-18.017578, 23.228121, 27.250000
-18.017578, 23.228121, 27.375000
-18.116575, 23.355748, 27.500000
-18.215573, 23.483375, 27.625000
-18.215573, 23.483375, 27.750000
-18.314571, 23.611002, 27.875000
-18.314571, 23.611002, 28.000000
-18.314571, 23.611002, 28.125000
-18.413568, 23.738629, 28.250000
-18.413568, 23.738629, 28.375000
-18.413568, 23.738629, 28.500000
-18.512566, 23.866256, 28.625000
-18.512566, 23.866256, 28.750000
-18.611564, 23.993883, 28.875000
-18.611564, 23.993883, 29.000000
-18.710561, 24.121510, 29.125000
-18.710561, 24.121510, 29.250000
-18.710561, 24.121510, 29.375000
-18.809559, 24.249137, 29.500000
-18.809559, 24.249137, 29.625000
-18.908557, 24.376765, 29.750000
-18.908557, 24.376765, 29.875000
-18.908557, 24.376765, 30.000000
-19.007554, 24.504392, 30.125000
-19.007554, 24.504392, 30.250000
-19.007554, 24.504392, 30.375000
-19.106552, 24.632019, 30.500000
-19.106552, 24.632019, 30.625000
-19.205550, 24.759646, 30.750000
-19.205550, 24.759646, 30.875000
-19.205550, 24.759646, 31.000000
-19.205550, 24.759646, 31.125000
-19.205550, 24.759646, 31.250000
-19.304548, 24.887273, 31.375000
-19.304548, 24.887273, 31.500000
-19.403545, 25.014900, 31.625000
-19.403545, 25.014900, 31.750000
-19.403545, 25.014900, 31.875000
-19.403545, 25.014900, 32.000000
-19.502543, 25.142527, 32.125000
-19.502543, 25.142527, 32.250000
-19.502543, 25.142527, 32.375000
-19.601541, 25.270154, 32.500000
-19.502543, 25.142527, 32.625000
-19.601541, 25.270154, 32.750000
-19.601541, 25.270154, 32.875000
-19.601541, 25.270154, 33.000000
-19.601541, 25.270154, 33.125000
-19.700538, 25.397781, 33.250000
-19.700538, 25.397781, 33.375000
-19.799536, 25.525408, 33.500000
-19.799536, 25.525408, 33.625000
-19.799536, 25.525408, 33.750000
-19.799536, 25.525408, 33.875000
-19.799536, 25.525408, 34.000000
-19.898534, 25.653035, 34.125000
-19.898534, 25.653035, 34.250000
-19.898534, 25.653035, 34.375000
-19.898534, 25.653035, 34.500000
-19.898534, 25.653035, 34.625000
-19.997531, 25.780662, 34.750000
-19.997531, 25.780662, 34.875000
-19.997531, 25.780662, 35.000000
-19.997531, 25.780662, 35.125000
-20.096529, 25.908289, 35.250000
-20.096529, 25.908289, 35.375000
-20.096529, 25.908289, 35.500000
-20.096529, 25.908289, 35.625000
-20.096529, 25.908289, 35.750000
-20.096529, 25.908289, 35.875000
-20.096529, 25.908289, 36.000000
-20.195527, 26.035916, 36.125000
-20.195527, 26.035916, 36.250000
-20.195527, 26.035916, 36.375000
-20.294524, 26.163543, 36.500000
-20.294524, 26.163543, 36.625000
-20.294524, 26.163543, 36.750000
-20.294524, 26.163543, 36.875000
-20.294524, 26.163543, 37.000000
-20.294524, 26.163543, 37.125000
-20.294524, 26.163543, 37.250000
-20.294524, 26.163543, 37.375000
-20.294524, 26.163543, 37.500000
-20.393522, 26.291170, 37.625000
-20.393522, 26.291170, 37.750000
-20.393522, 26.291170, 37.875000
-20.393522, 26.291170, 38.000000
-20.393522, 26.291170, 38.125000
-20.393522, 26.291170, 38.250000
-20.393522, 26.291170, 38.375000
-20.492520, 26.418797, 38.500000
-20.492520, 26.418797, 38.625000
-20.492520, 26.418797, 38.750000
-20.492520, 26.418797, 38.875000
-20.492520, 26.418797, 39.000000
-20.492520, 26.418797, 39.125000
-20.492520, 26.418797, 39.250000
-20.492520, 26.418797, 39.375000
-20.492520, 26.418797, 39.500000
-20.492520, 26.418797, 39.625000
-20.492520, 26.418797, 39.750000
-20.492520, 26.418797, 39.875000
-20.492520, 26.418797, 40.000000
-20.492520, 26.418797, 40.125000
-20.492520, 26.418797, 40.250000
-20.492520, 26.418797, 40.375000
-20.492520, 26.418797, 40.500000
-20.492520, 26.418797, 40.625000
-20.492520, 26.418797, 40.750000
-20.492520, 26.418797, 40.875000
-20.492520, 26.418797, 41.000000
-20.492520, 26.418797, 41.125000
-20.492520, 26.418797, 41.250000
-20.492520, 26.418797, 41.375000
-20.492520, 26.418797, 41.500000
-20.492520, 26.418797, 41.625000
-20.492520, 26.418797, 41.750000
-20.492520, 26.418797, 41.875000
-20.492520, 26.418797, 42.000000
-20.492520, 26.418797, 42.125000
-20.492520, 26.418797, 42.250000
-20.492520, 26.418797, 42.375000
-20.591517, 26.546424, 42.500000
-20.492520, 26.418797, 42.625000
-20.492520, 26.418797, 42.750000
-20.492520, 26.418797, 42.875000
-20.492520, 26.418797, 43.000000
-20.492520, 26.418797, 43.125000
-20.492520, 26.418797, 43.250000
-20.492520, 26.418797, 43.375000
-20.492520, 26.418797, 43.500000
-20.492520, 26.418797, 43.625000
-20.492520, 26.418797, 43.750000
-20.492520, 26.418797, 43.875000
-20.492520, 26.418797, 44.000000
-20.492520, 26.418797, 44.125000
-20.492520, 26.418797, 44.250000
-20.492520, 26.418797, 44.375000
-20.492520, 26.418797, 44.500000
-20.393522, 26.291170, 44.625000
-20.393522, 26.291170, 44.750000
-20.393522, 26.291170, 44.875000
-20.393522, 26.291170, 45.000000
-20.294524, 26.163543, 45.125000
-20.393522, 26.291170, 45.250000
-20.294524, 26.163543, 45.375000
-20.294524, 26.163543, 45.500000
-20.294524, 26.163543, 45.625000
-20.294524, 26.163543, 45.750000
-20.294524, 26.163543, 45.875000
-20.294524, 26.163543, 46.000000
-20.294524, 26.163543, 46.125000
-20.195527, 26.035916, 46.250000
-20.195527, 26.035916, 46.375000
-20.195527, 26.035916, 46.500000
-20.195527, 26.035916, 46.625000
-20.195527, 26.035916, 46.750000
-20.195527, 26.035916, 46.875000
-20.195527, 26.035916, 47.000000
-20.096529, 25.908289, 47.125000
-20.096529, 25.908289, 47.250000
-20.096529, 25.908289, 47.375000
-20.096529, 25.908289, 47.500000
-19.997531, 25.780662, 47.625000
-19.997531, 25.780662, 47.750000
-19.997531, 25.780662, 47.875000
-19.997531, 25.780662, 48.000000
-19.898534, 25.653035, 48.125000
-19.898534, 25.653035, 48.250000
-19.898534, 25.653035, 48.375000
-19.898534, 25.653035, 48.500000
-19.799536, 25.525408, 48.625000
-19.799536, 25.525408, 48.750000
-19.799536, 25.525408, 48.875000
-19.799536, 25.525408, 49.000000
-19.799536, 25.525408, 49.125000
-19.700538, 25.397781, 49.250000
-19.700538, 25.397781, 49.375000
-19.700538, 25.397781, 49.500000
-19.601541, 25.270154, 49.625000
-19.700538, 25.397781, 49.750000
-19.601541, 25.270154, 49.875000
-19.601541, 25.270154, 50.000000
-19.502543, 25.142527, 50.125000
-19.502543, 25.142527, 50.250000
-19.403545, 25.014900, 50.375000
-19.502543, 25.142527, 50.500000
-19.403545, 25.014900, 50.625000
-19.403545, 25.014900, 50.750000
-19.304548, 24.887273, 50.875000
-19.403545, 25.014900, 51.000000
-19.304548, 24.887273, 51.125000
-19.304548, 24.887273, 51.250000
-19.304548, 24.887273, 51.375000
-19.106552, 24.632019, 51.500000
-19.106552, 24.632019, 51.625000
-19.106552, 24.632019, 51.750000
-19.106552, 24.632019, 51.875000
-19.106552, 24.632019, 52.000000
-19.007554, 24.504392, 52.125000
-19.007554, 24.504392, 52.250000
-18.908557, 24.376765, 52.375000
-18.908557, 24.376765, 52.500000
-18.809559, 24.249137, 52.625000
-18.611564, 23.993883, 52.750000
-18.809559, 24.249137, 52.875000
-18.512566, 23.866256, 53.000000
-18.710561, 24.121510, 53.125000
-18.611564, 23.993883, 53.250000
-18.413568, 23.738629, 53.375000
-18.413568, 23.738629, 53.500000
-18.512566, 23.866256, 53.625000
-18.413568, 23.738629, 53.750000
-18.413568, 23.738629, 53.875000
-18.314571, 23.611002, 54.000000
-18.215573, 23.483375, 54.125000
-18.215573, 23.483375, 54.250000
-18.116575, 23.355748, 54.375000
-18.116575, 23.355748, 54.500000
-18.017578, 23.228121, 54.625000
-17.918580, 23.100494, 54.750000
-17.819582, 22.972867, 54.875000
-17.819582, 22.972867, 55.000000
-17.819582, 22.972867, 55.125000
-17.621587, 22.717613, 55.250000
-17.522589, 22.589986, 55.375000
-17.720585, 22.845240, 55.500000
-17.621587, 22.717613, 55.625000
-17.522589, 22.589986, 55.750000
-17.423592, 22.462359, 55.875000
-17.225596, 22.207105, 56.000000
-17.126599, 22.079478, 56.125000
-17.126599, 22.079478, 56.250000
-17.225596, 22.207105, 56.375000
-16.928603, 21.824224, 56.625000
-14.453661, 18.633548, 60.500000
-14.552659, 18.761175, 60.625000
-14.255666, 18.378294, 60.750000
-14.552659, 18.761175, 60.875000
-13.958673, 17.995413, 61.000000
-13.859675, 17.867786, 61.125000
-13.859675, 17.867786, 61.250000
-13.661680, 17.612531, 61.625000
-13.661680, 17.612531, 61.750000
-13.661680, 17.612531, 61.875000
-13.067694, 16.846769, 62.125000
-13.067694, 16.846769, 62.250000
-13.067694, 16.846769, 62.375000
-12.869698, 16.591515, 62.500000
-12.968696, 16.719142, 62.625000
-12.374710, 15.953380, 63.375000
-12.473708, 16.081007, 63.500000
-11.780724, 15.187618, 63.750000
-11.780724, 15.187618, 63.875000
-11.681726, 15.059991, 64.000000
-11.681726, 15.059991, 64.125000
-11.582729, 14.932364, 64.250000
-11.582729, 14.932364, 64.375000
-11.681726, 15.059991, 64.500000
-11.285735, 14.549482, 64.625000
-11.285735, 14.549482, 64.750000
-11.285735, 14.549482, 64.875000
-11.087740, 14.294228, 65.000000
-10.988742, 14.166601, 65.125000
-10.988742, 14.166601, 65.250000
-10.790747, 13.911347, 65.375000
-10.790747, 13.911347, 65.500000
-10.691749, 13.783720, 65.625000
-10.691749, 13.783720, 65.750000
-10.691749, 13.783720, 65.875000
-10.592752, 13.656093, 66.000000
-10.691749, 13.783720, 66.125000
-10.493754, 13.528466, 66.250000
-10.493754, 13.528466, 66.375000
-10.592752, 13.656093, 66.500000
-10.592752, 13.656093, 66.625000
-10.592752, 13.656093, 66.750000
-10.592752, 13.656093, 66.875000
-10.691749, 13.783720, 67.000000
-10.790747, 13.911347, 67.125000
-10.889745, 14.038974, 67.250000
-10.889745, 14.038974, 67.375000
-10.988742, 14.166601, 67.500000
-11.087740, 14.294228, 67.625000
-11.186738, 14.421855, 67.750000
-11.285735, 14.549482, 67.875000
-11.384733, 14.677110, 68.000000
-11.483731, 14.804737, 68.125000
-11.582729, 14.932364, 68.250000
-11.780724, 15.187618, 68.375000
-11.879722, 15.315245, 68.500000
-11.978719, 15.442872, 68.625000
-12.176715, 15.698126, 68.750000
-12.275712, 15.825753, 68.875000
-12.374710, 15.953380, 69.000000
-12.473708, 16.081007, 69.125000
-12.671703, 16.336261, 69.250000
-12.770701, 16.463888, 69.375000
-12.968696, 16.719142, 69.500000
-13.067694, 16.846769, 69.625000
-13.166691, 16.974396, 69.750000
-13.265689, 17.102023, 69.875000
-13.463684, 17.357277, 70.000000
-13.562682, 17.484904, 70.125000
-13.760677, 17.740158, 70.250000
-13.859675, 17.867786, 70.375000
-14.156668, 18.250667, 70.500000
-14.156668, 18.250667, 70.625000
-14.354664, 18.505921, 70.750000
-14.552659, 18.761175, 70.875000
-14.651657, 18.888802, 71.000000
-14.849652, 19.144056, 71.125000
-14.948650, 19.271683, 71.250000
-15.047647, 19.399310, 71.375000
-15.245643, 19.654564, 71.500000
-15.344640, 19.782191, 71.625000
-15.443638, 19.909818, 71.750000
-15.641633, 20.165072, 71.875000
-15.641633, 20.165072, 72.000000
-15.740631, 20.292699, 72.125000
-15.641633, 20.165072, 72.250000
-15.938626, 20.547953, 72.375000
-15.839629, 20.420326, 72.500000
-15.839629, 20.420326, 72.625000
-6.383377, 7.716177, 5.750000
-6.383377, 7.716177, 5.875000
-6.383377, 7.716177, 6.000000
-6.383377, 7.716177, 6.125000
-6.383377, 7.716177, 6.250000
-6.383377, 7.716177, 6.375000
-6.383377, 7.716177, 6.500000
-6.383377, 7.716177, 6.625000
-6.383377, 7.716177, 6.750000
-6.383377, 7.716177, 6.875000
-6.280419, 7.591723, 7.000000
-6.383377, 7.716177, 7.125000
-6.383377, 7.716177, 7.250000
-6.383377, 7.716177, 7.375000
-6.383377, 7.716177, 7.500000
-6.383377, 7.716177, 7.625000
-6.383377, 7.716177, 7.750000
-6.486335, 7.840632, 7.875000
-6.383377, 7.716177, 8.000000
-6.486335, 7.840632, 8.125000
-6.486335, 7.840632, 8.250000
-6.486335, 7.840632, 8.375000
-6.486335, 7.840632, 8.500000
-6.486335, 7.840632, 8.625000
-6.486335, 7.840632, 8.750000
-6.486335, 7.840632, 8.875000
-6.486335, 7.840632, 9.000000
-6.486335, 7.840632, 9.125000
-6.486335, 7.840632, 9.250000
-6.486335, 7.840632, 9.375000
-6.486335, 7.840632, 9.500000
-6.486335, 7.840632, 9.625000
-6.486335, 7.840632, 9.750000
-6.486335, 7.840632, 9.875000
-6.486335, 7.840632, 10.000000
-6.486335, 7.840632, 10.125000
-6.486335, 7.840632, 10.250000
-6.589292, 7.965086, 10.375000
-6.589292, 7.965086, 10.500000
-6.589292, 7.965086, 10.625000
-6.589292, 7.965086, 10.750000
-6.589292, 7.965086, 10.875000
-6.589292, 7.965086, 11.000000
-6.589292, 7.965086, 11.125000
-6.589292, 7.965086, 11.250000
-6.589292, 7.965086, 11.375000
-6.589292, 7.965086, 11.500000
-6.589292, 7.965086, 11.625000
-6.589292, 7.965086, 11.750000
-6.589292, 7.965086, 11.875000
-6.589292, 7.965086, 12.000000
-6.589292, 7.965086, 12.125000
-6.589292, 7.965086, 12.250000
-6.589292, 7.965086, 12.375000
-6.589292, 7.965086, 12.500000
-6.589292, 7.965086, 12.625000
-6.589292, 7.965086, 12.750000
-6.589292, 7.965086, 12.875000
-6.589292, 7.965086, 13.000000
-6.692250, 8.089541, 13.125000
-6.692250, 8.089541, 13.250000
-6.795208, 8.213995, 13.375000
-6.898165, 8.338450, 13.500000
-15.546612, 18.792625, 20.750000
-15.649569, 18.917080, 20.875000
-15.546612, 18.792625, 21.000000
-15.855485, 19.165989, 21.250000
-15.958442, 19.290443, 21.375000
-15.958442, 19.290443, 21.500000
-15.958442, 19.290443, 21.625000
-16.164358, 19.539352, 21.750000
-16.267315, 19.663806, 21.875000
-16.267315, 19.663806, 22.000000
-16.370273, 19.788261, 22.125000
-16.473231, 19.912715, 22.250000
-16.473231, 19.912715, 22.375000
-16.576188, 20.037170, 22.500000
-16.679146, 20.161624, 22.625000
-16.679146, 20.161624, 22.750000
-16.782104, 20.286079, 22.875000
-16.782104, 20.286079, 23.000000
-16.885062, 20.410533, 23.125000
-16.885062, 20.410533, 23.250000
-16.988019, 20.534988, 23.375000
-17.090977, 20.659442, 23.500000
-17.090977, 20.659442, 23.625000
-17.296892, 20.908351, 23.750000
-17.399850, 21.032806, 23.875000
-17.296892, 20.908351, 24.000000
-17.399850, 21.032806, 24.125000
-17.399850, 21.032806, 24.250000
-17.399850, 21.032806, 24.375000
-17.605765, 21.281715, 24.500000
-17.605765, 21.281715, 24.625000
-17.708723, 21.406169, 24.750000
-17.708723, 21.406169, 24.875000
-17.811681, 21.530623, 25.000000
-17.811681, 21.530623, 25.125000
-17.914638, 21.655078, 25.250000
-17.914638, 21.655078, 25.375000
-18.017596, 21.779532, 25.500000
-18.017596, 21.779532, 25.625000
-18.120554, 21.903987, 25.750000
-18.120554, 21.903987, 25.875000
-18.223512, 22.028441, 26.000000
-18.326469, 22.152896, 26.125000
-18.326469, 22.152896, 26.250000
-18.326469, 22.152896, 26.375000
-18.429427, 22.277350, 26.500000
-18.429427, 22.277350, 26.625000
-18.635342, 22.526259, 26.750000
-18.635342, 22.526259, 26.875000
-18.635342, 22.526259, 27.000000
-18.635342, 22.526259, 27.125000
-18.635342, 22.526259, 27.250000
-18.738300, 22.650714, 27.375000
-18.738300, 22.650714, 27.500000
-18.841258, 22.775168, 27.625000
-18.944215, 22.899623, 27.750000
-18.944215, 22.899623, 27.875000
-19.047173, 23.024077, 28.000000
-19.047173, 23.024077, 28.125000
-19.150131, 23.148532, 28.250000
-19.150131, 23.148532, 28.375000
-19.150131, 23.148532, 28.500000
-19.253088, 23.272986, 28.625000
-19.253088, 23.272986, 28.750000
-19.356046, 23.397441, 28.875000
-19.459004, 23.521895, 29.000000
-19.459004, 23.521895, 29.125000
-19.459004, 23.521895, 29.250000
-19.561962, 23.646349, 29.375000
-19.561962, 23.646349, 29.500000
-19.664919, 23.770804, 29.625000
-19.664919, 23.770804, 29.750000
-19.664919, 23.770804, 29.875000
-19.664919, 23.770804, 30.000000
-19.767877, 23.895258, 30.125000
-19.767877, 23.895258, 30.250000
-19.870835, 24.019713, 30.375000
-19.870835, 24.019713, 30.500000
-19.870835, 24.019713, 30.625000
-19.973792, 24.144167, 30.750000
-19.973792, 24.144167, 30.875000
-20.076750, 24.268622, 31.000000
-20.076750, 24.268622, 31.125000
-20.076750, 24.268622, 31.250000
-20.076750, 24.268622, 31.375000
-20.076750, 24.268622, 31.500000
-20.179708, 24.393076, 31.625000
-20.179708, 24.393076, 31.750000
-20.179708, 24.393076, 31.875000
-20.282665, 24.517531, 32.000000
-20.282665, 24.517531, 32.125000
-20.282665, 24.517531, 32.250000
-20.385623, 24.641985, 32.375000
-20.385623, 24.641985, 32.500000
-20.385623, 24.641985, 32.625000
-20.385623, 24.641985, 32.750000
-20.488581, 24.766440, 32.875000
-20.488581, 24.766440, 33.000000
-20.488581, 24.766440, 33.125000
-20.488581, 24.766440, 33.250000
-20.488581, 24.766440, 33.375000
-20.488581, 24.766440, 33.500000
-20.591538, 24.890894, 33.625000
-20.591538, 24.890894, 33.750000
-20.591538, 24.890894, 33.875000
-20.591538, 24.890894, 34.000000
-20.694496, 25.015349, 34.125000
-20.694496, 25.015349, 34.250000
-20.797454, 25.139803, 34.375000
-20.797454, 25.139803, 34.500000
-20.797454, 25.139803, 34.625000
-20.797454, 25.139803, 34.750000
-20.797454, 25.139803, 34.875000
-20.900412, 25.264258, 35.000000
-20.900412, 25.264258, 35.125000
-20.900412, 25.264258, 35.250000
-20.797454, 25.139803, 35.375000
-20.900412, 25.264258, 35.500000
-20.900412, 25.264258, 35.625000
-21.003369, 25.388712, 35.750000
-20.900412, 25.264258, 35.875000
-21.003369, 25.388712, 36.000000
-21.003369, 25.388712, 36.125000
-21.003369, 25.388712, 36.250000
-21.003369, 25.388712, 36.375000
-21.003369, 25.388712, 36.500000
-21.106327, 25.513167, 36.625000
-21.106327, 25.513167, 36.750000
-21.106327, 25.513167, 36.875000
-21.106327, 25.513167, 37.000000
-21.106327, 25.513167, 37.125000
-21.106327, 25.513167, 37.250000
-21.209285, 25.637621, 37.375000
-21.209285, 25.637621, 37.500000
-21.209285, 25.637621, 37.625000
-21.209285, 25.637621, 37.750000
-21.209285, 25.637621, 37.875000
-21.209285, 25.637621, 38.000000
-21.209285, 25.637621, 38.125000
-21.312242, 25.762075, 38.250000
-21.312242, 25.762075, 38.375000
-21.312242, 25.762075, 38.500000
-21.312242, 25.762075, 38.625000
-21.312242, 25.762075, 38.750000
-21.312242, 25.762075, 38.875000
-21.312242, 25.762075, 39.000000
-21.415200, 25.886530, 39.125000
-21.415200, 25.886530, 39.250000
-21.415200, 25.886530, 39.375000
-21.415200, 25.886530, 39.500000
-21.312242, 25.762075, 39.625000
-21.312242, 25.762075, 39.750000
-21.415200, 25.886530, 39.875000
-21.415200, 25.886530, 40.000000
-21.415200, 25.886530, 40.125000
-21.415200, 25.886530, 40.250000
-21.415200, 25.886530, 40.375000
-21.415200, 25.886530, 40.500000
-21.415200, 25.886530, 40.625000
-21.415200, 25.886530, 40.750000
-21.312242, 25.762075, 40.875000
-21.312242, 25.762075, 41.000000
-21.312242, 25.762075, 41.125000
-21.312242, 25.762075, 41.250000
-21.312242, 25.762075, 41.375000
-21.415200, 25.886530, 41.500000
-21.415200, 25.886530, 41.625000
-21.415200, 25.886530, 41.750000
-21.415200, 25.886530, 41.875000
-21.312242, 25.762075, 42.000000
-21.312242, 25.762075, 42.125000
-21.312242, 25.762075, 42.250000
-21.312242, 25.762075, 42.375000
-21.415200, 25.886530, 42.500000
-21.312242, 25.762075, 42.625000
-21.312242, 25.762075, 42.750000
-21.312242, 25.762075, 42.875000
-21.312242, 25.762075, 43.000000
-21.312242, 25.762075, 43.125000
-21.312242, 25.762075, 43.250000
-21.312242, 25.762075, 43.375000
-21.312242, 25.762075, 43.500000
-21.312242, 25.762075, 43.625000
-21.312242, 25.762075, 43.750000
-21.312242, 25.762075, 43.875000
-21.312242, 25.762075, 44.000000
-21.312242, 25.762075, 44.125000
-21.312242, 25.762075, 44.250000
-21.312242, 25.762075, 44.375000
-21.312242, 25.762075, 44.500000
-21.209285, 25.637621, 44.625000
-21.209285, 25.637621, 44.750000
-21.209285, 25.637621, 44.875000
-21.209285, 25.637621, 45.000000
-21.106327, 25.513167, 45.125000
-21.209285, 25.637621, 45.250000
-21.209285, 25.637621, 45.375000
-21.106327, 25.513167, 45.500000
-21.106327, 25.513167, 45.625000
-21.106327, 25.513167, 45.750000
-21.106327, 25.513167, 45.875000
-21.106327, 25.513167, 46.000000
-21.106327, 25.513167, 46.125000
-21.003369, 25.388712, 46.250000
-21.003369, 25.388712, 46.375000
-21.003369, 25.388712, 46.500000
-21.003369, 25.388712, 46.625000
-21.003369, 25.388712, 46.750000
-20.900412, 25.264258, 46.875000
-21.003369, 25.388712, 47.000000
-21.003369, 25.388712, 47.125000
-20.900412, 25.264258, 47.250000
-20.900412, 25.264258, 47.375000
-21.003369, 25.388712, 47.500000
-20.797454, 25.139803, 47.625000
-20.797454, 25.139803, 47.750000
-20.797454, 25.139803, 47.875000
-20.797454, 25.139803, 48.000000
-20.797454, 25.139803, 48.125000
-20.797454, 25.139803, 48.250000
-20.694496, 25.015349, 48.375000
-20.694496, 25.015349, 48.500000
-20.797454, 25.139803, 48.625000
-20.694496, 25.015349, 48.750000
-20.591538, 24.890894, 48.875000
-20.591538, 24.890894, 49.000000
-20.591538, 24.890894, 49.125000
-20.488581, 24.766440, 49.250000
-20.591538, 24.890894, 49.375000
-20.488581, 24.766440, 49.500000
-20.488581, 24.766440, 49.625000
-20.385623, 24.641985, 49.750000
-20.385623, 24.641985, 49.875000
-20.385623, 24.641985, 50.000000
-20.385623, 24.641985, 50.125000
-20.282665, 24.517531, 50.250000
-20.282665, 24.517531, 50.375000
-20.282665, 24.517531, 50.500000
-20.179708, 24.393076, 50.625000
-20.179708, 24.393076, 50.750000
-20.076750, 24.268622, 50.875000
-20.179708, 24.393076, 51.000000
-20.179708, 24.393076, 51.125000
-20.076750, 24.268622, 51.250000
-19.973792, 24.144167, 51.375000
-19.870835, 24.019713, 51.500000
-19.870835, 24.019713, 51.625000
-19.870835, 24.019713, 51.750000
-19.870835, 24.019713, 51.875000
-19.870835, 24.019713, 52.000000
-19.767877, 23.895258, 52.125000
-19.767877, 23.895258, 52.250000
-19.767877, 23.895258, 52.375000
-19.664919, 23.770804, 52.500000
-19.561962, 23.646349, 52.625000
-19.459004, 23.521895, 52.750000
-19.459004, 23.521895, 52.875000
-19.459004, 23.521895, 53.000000
-19.459004, 23.521895, 53.125000
-19.459004, 23.521895, 53.250000
-19.356046, 23.397441, 53.375000
-19.356046, 23.397441, 53.500000
-19.047173, 23.024077, 53.625000
-19.047173, 23.024077, 53.750000
-19.047173, 23.024077, 53.875000
-19.047173, 23.024077, 54.000000
-18.944215, 22.899623, 54.125000
-19.047173, 23.024077, 54.250000
-18.532385, 22.401805, 54.375000
-18.841258, 22.775168, 54.500000
-18.738300, 22.650714, 54.625000
-18.635342, 22.526259, 54.750000
-18.635342, 22.526259, 54.875000
-18.532385, 22.401805, 55.000000
-18.532385, 22.401805, 55.125000
-18.223512, 22.028441, 55.250000
-18.326469, 22.152896, 55.375000
-18.326469, 22.152896, 55.500000
-18.223512, 22.028441, 55.625000
-18.223512, 22.028441, 55.750000
-17.811681, 21.530623, 56.000000
-17.811681, 21.530623, 56.125000
-17.708723, 21.406169, 56.500000
-17.708723, 21.406169, 56.625000
-17.914638, 21.655078, 56.750000
-17.502808, 21.157260, 56.875000
-14.722950, 17.796989, 60.750000
-15.031823, 18.170353, 60.875000
-14.825908, 17.921444, 61.000000
-14.311119, 17.299171, 61.125000
-14.208162, 17.174717, 61.250000
-14.208162, 17.174717, 61.375000
-14.208162, 17.174717, 61.500000
-14.414077, 17.423626, 61.625000
-14.414077, 17.423626, 61.750000
-14.722950, 17.796989, 61.875000
-13.487458, 16.303536, 62.250000
-13.487458, 16.303536, 62.375000
-13.281542, 16.054627, 62.500000
-12.663796, 15.307900, 63.375000
-12.457881, 15.058991, 63.500000
-12.354923, 14.934537, 63.625000
-12.251965, 14.810082, 63.750000
-12.251965, 14.810082, 63.875000
-12.149008, 14.685628, 64.000000
-12.354923, 14.934537, 64.125000
-12.149008, 14.685628, 64.250000
-12.046050, 14.561173, 64.375000
-11.943092, 14.436719, 64.500000
-11.737177, 14.187810, 64.625000
-11.737177, 14.187810, 64.750000
-11.634219, 14.063355, 64.875000
-11.531262, 13.938901, 65.000000
-11.325346, 13.689992, 65.125000
-11.428304, 13.814446, 65.250000
-11.325346, 13.689992, 65.375000
-11.119431, 13.441083, 65.500000
-11.222388, 13.565537, 65.625000
-11.016473, 13.316628, 65.750000
-11.016473, 13.316628, 65.875000
-11.016473, 13.316628, 66.000000
-11.119431, 13.441083, 66.125000
-11.016473, 13.316628, 66.250000
-11.016473, 13.316628, 66.375000
-11.016473, 13.316628, 66.500000
-10.913515, 13.192174, 66.625000
-11.016473, 13.316628, 66.750000
-11.016473, 13.316628, 66.875000
-11.119431, 13.441083, 67.000000
-11.119431, 13.441083, 67.125000
-11.222388, 13.565537, 67.250000
-11.325346, 13.689992, 67.375000
-11.428304, 13.814446, 67.500000
-11.531262, 13.938901, 67.625000
-11.634219, 14.063355, 67.750000
-11.737177, 14.187810, 67.875000
-11.840135, 14.312264, 68.000000
-11.943092, 14.436719, 68.125000
-12.046050, 14.561173, 68.250000
-12.149008, 14.685628, 68.375000
-12.354923, 14.934537, 68.500000
-12.457881, 15.058991, 68.625000
-12.663796, 15.307900, 68.750000
-12.766754, 15.432354, 68.875000
-12.972669, 15.681263, 69.000000
-13.075627, 15.805718, 69.125000
-13.178585, 15.930172, 69.250000
-13.281542, 16.054627, 69.375000
-13.487458, 16.303536, 69.500000
-13.693373, 16.552445, 69.625000
-13.693373, 16.552445, 69.750000
-13.796331, 16.676899, 69.875000
-14.002246, 16.925808, 70.000000
-14.208162, 17.174717, 70.125000
-14.311119, 17.299171, 70.250000
-14.517035, 17.548080, 70.375000
-14.619992, 17.672535, 70.500000
-14.722950, 17.796989, 70.625000
-14.928865, 18.045898, 70.750000
-15.134781, 18.294807, 70.875000
-15.340696, 18.543716, 71.000000
-15.443654, 18.668171, 71.125000
-15.546612, 18.792625, 71.250000
-15.649569, 18.917080, 71.375000
-15.855485, 19.165989, 71.500000
-15.958442, 19.290443, 71.625000
-16.061400, 19.414897, 71.750000
-16.267315, 19.663806, 71.875000
-16.370273, 19.788261, 72.000000
-16.370273, 19.788261, 72.125000
-16.473231, 19.912715, 72.250000
-16.473231, 19.912715, 72.375000
-16.576188, 20.037170, 72.500000
-16.679146, 20.161624, 72.625000
-6.622598, 7.511863, 5.750000
-6.622598, 7.511863, 5.875000
-6.622598, 7.511863, 6.000000
-6.622598, 7.511863, 6.125000
-6.622598, 7.511863, 6.250000
-6.622598, 7.511863, 6.375000
-6.622598, 7.511863, 6.500000
-6.622598, 7.511863, 6.625000
-6.622598, 7.511863, 6.750000
-6.515782, 7.390704, 6.875000
-6.515782, 7.390704, 7.000000
-6.515782, 7.390704, 7.125000
-6.622598, 7.511863, 7.250000
-6.622598, 7.511863, 7.375000
-6.622598, 7.511863, 7.500000
-6.622598, 7.511863, 7.625000
-6.622598, 7.511863, 7.750000
-6.729414, 7.633022, 7.875000
-6.729414, 7.633022, 8.000000
-6.729414, 7.633022, 8.125000
-6.729414, 7.633022, 8.250000
-6.729414, 7.633022, 8.375000
-6.729414, 7.633022, 8.500000
-6.729414, 7.633022, 8.625000
-6.729414, 7.633022, 8.750000
-6.729414, 7.633022, 8.875000
-6.729414, 7.633022, 9.000000
-6.622598, 7.511863, 9.125000
