0.956076, 3.723671, 63.750000
0.956076, 3.723671, 63.875000
0.956076, 3.723671, 64.000000
0.956076, 3.723671, 64.125000
0.908272, 3.537487, 64.250000
0.908272, 3.537487, 64.375000
0.908272, 3.537487, 64.500000
0.860469, 3.351304, 64.625000
0.860469, 3.351304, 64.750000
0.860469, 3.351304, 64.875000
0.812665, 3.165120, 65.000000
0.812665, 3.165120, 65.125000
0.812665, 3.165120, 65.250000
0.812665, 3.165120, 65.375000
0.764861, 2.978937, 65.500000
0.764861, 2.978937, 65.625000
0.764861, 2.978937, 65.750000
0.764861, 2.978937, 65.875000
0.764861, 2.978937, 66.000000
0.812665, 3.165120, 66.125000
0.764861, 2.978937, 66.250000
0.764861, 2.978937, 66.375000
0.717057, 2.792753, 66.500000
0.717057, 2.792753, 66.625000
0.717057, 2.792753, 66.750000
0.717057, 2.792753, 66.875000
0.669253, 2.606570, 67.000000
0.669253, 2.606570, 67.125000
0.669253, 2.606570, 67.250000
0.669253, 2.606570, 67.375000
0.669253, 2.606570, 67.500000
0.669253, 2.606570, 67.625000
0.669253, 2.606570, 67.750000
0.621450, 2.420386, 67.875000
0.573646, 2.234203, 68.000000
0.573646, 2.234203, 68.125000
0.573646, 2.234203, 68.250000
0.621450, 2.420386, 68.375000
0.573646, 2.234203, 68.500000
0.573646, 2.234203, 68.625000
0.621450, 2.420386, 68.750000
0.573646, 2.234203, 68.875000
0.621450, 2.420386, 69.000000
0.621450, 2.420386, 69.125000
0.621450, 2.420386, 69.250000
0.621450, 2.420386, 69.375000
0.621450, 2.420386, 69.500000
0.669253, 2.606570, 69.625000
0.669253, 2.606570, 69.750000
0.669253, 2.606570, 69.875000
0.717057, 2.792753, 70.000000
0.717057, 2.792753, 70.125000
0.764861, 2.978937, 70.250000
0.764861, 2.978937, 70.375000
0.812665, 3.165120, 70.500000
0.812665, 3.165120, 70.625000
0.812665, 3.165120, 70.750000
0.812665, 3.165120, 70.875000
0.860469, 3.351304, 71.000000
0.860469, 3.351304, 71.125000
0.908272, 3.537487, 71.250000
0.956076, 3.723671, 71.375000
0.956076, 3.723671, 71.500000
0.956076, 3.723671, 71.625000
1.003880, 3.909854, 71.750000
1.051684, 4.096038, 71.875000
1.051684, 4.096038, 72.000000
1.051684, 4.096038, 72.125000
1.099488, 4.282222, 72.250000
1.147291, 4.468405, 72.375000
1.147291, 4.468405, 72.500000
1.147291, 4.468405, 72.625000
1.195095, 4.654589, 72.750000
1.195095, 4.654589, 72.875000
1.242899, 4.840772, 73.000000
1.242899, 4.840772, 73.125000
1.338507, 5.213139, 73.250000
1.338507, 5.213139, 73.375000
1.338507, 5.213139, 73.500000
1.338507, 5.213139, 73.625000
1.386310, 5.399323, 73.750000
1.386310, 5.399323, 73.875000
1.434114, 5.585506, 74.000000
1.481918, 5.771690, 74.125000
1.481918, 5.771690, 74.250000
1.481918, 5.771690, 74.375000
1.529722, 5.957873, 74.500000
1.529722, 5.957873, 74.625000
1.577526, 6.144057, 74.750000
1.577526, 6.144057, 74.875000
1.625330, 6.330241, 75.000000
1.673133, 6.516424, 75.125000
1.625330, 6.330241, 75.250000
1.673133, 6.516424, 75.375000
1.673133, 6.516424, 75.500000
1.673133, 6.516424, 75.625000
1.720937, 6.702608, 75.750000
1.720937, 6.702608, 75.875000
1.768741, 6.888791, 76.000000
1.768741, 6.888791, 76.125000
1.816545, 7.074975, 76.250000
1.768741, 6.888791, 76.375000
1.768741, 6.888791, 76.500000
-0.461253, -2.063526, 14.375000
-0.587049, -2.626305, 14.500000
-0.587049, -2.626305, 14.625000
-0.628981, -2.813898, 14.750000
-0.503185, -2.251119, 14.875000
-0.545117, -2.438712, 15.000000
-0.461253, -2.063526, 15.125000
-0.461253, -2.063526, 15.250000
-0.419321, -1.875932, 15.375000
-0.419321, -1.875932, 15.500000
-0.461253, -2.063526, 15.625000
-0.377388, -1.688339, 15.750000
-0.335456, -1.500746, 15.875000
-0.335456, -1.500746, 16.000000
-0.335456, -1.500746, 16.125000
-0.335456, -1.500746, 16.250000
-0.335456, -1.500746, 16.375000
-0.293524, -1.313153, 16.500000
-0.251592, -1.125559, 16.625000
-0.251592, -1.125559, 16.750000
-0.209660, -0.937966, 16.875000
-0.209660, -0.937966, 17.000000
-0.209660, -0.937966, 17.125000
-0.167728, -0.750373, 17.250000
-0.125796, -0.562780, 17.375000
-0.167728, -0.750373, 17.500000
-0.125796, -0.562780, 17.625000
-0.125796, -0.562780, 17.750000
-0.083864, -0.375186, 17.875000
-0.125796, -0.562780, 18.000000
-0.083864, -0.375186, 18.125000
-0.041932, -0.187593, 18.250000
-0.041932, -0.187593, 18.375000
0.000000, 0.000000, 18.500000
0.000000, 0.000000, 18.625000
0.000000, 0.000000, 18.750000
0.000000, 0.000000, 18.875000
0.041932, 0.187593, 19.000000
0.041932, 0.187593, 19.125000
0.041932, 0.187593, 19.250000
0.041932, 0.187593, 19.375000
0.083864, 0.375186, 19.500000
0.083864, 0.375186, 19.625000
0.083864, 0.375186, 19.750000
0.083864, 0.375186, 19.875000
0.083864, 0.375186, 20.000000
0.125796, 0.562780, 20.125000
0.125796, 0.562780, 20.250000
0.209660, 0.937966, 20.375000
0.167728, 0.750373, 20.500000
0.209660, 0.937966, 20.625000
0.209660, 0.937966, 20.750000
0.209660, 0.937966, 20.875000
0.209660, 0.937966, 21.000000
0.251592, 1.125559, 21.125000
0.251592, 1.125559, 21.250000
0.251592, 1.125559, 21.375000
0.293524, 1.313153, 21.500000
0.293524, 1.313153, 21.625000
0.293524, 1.313153, 21.750000
0.293524, 1.313153, 21.875000
0.293524, 1.313153, 22.000000
0.335456, 1.500746, 22.125000
0.335456, 1.500746, 22.250000
0.377388, 1.688339, 22.375000
0.377388, 1.688339, 22.500000
0.377388, 1.688339, 22.625000
0.377388, 1.688339, 22.750000
0.419321, 1.875932, 22.875000
0.419321, 1.875932, 23.000000
0.419321, 1.875932, 23.125000
0.419321, 1.875932, 23.250000
0.461253, 2.063526, 23.375000
0.461253, 2.063526, 23.500000
0.419321, 1.875932, 23.625000
0.461253, 2.063526, 23.750000
0.461253, 2.063526, 23.875000
0.503185, 2.251119, 24.000000
0.503185, 2.251119, 24.125000
0.545117, 2.438712, 24.250000
0.545117, 2.438712, 24.375000
0.587049, 2.626305, 24.500000
0.545117, 2.438712, 24.625000
0.545117, 2.438712, 24.750000
0.587049, 2.626305, 24.875000
0.587049, 2.626305, 25.000000
0.587049, 2.626305, 25.125000
0.628981, 2.813898, 25.250000
0.587049, 2.626305, 25.375000
0.628981, 2.813898, 25.500000
0.628981, 2.813898, 25.625000
0.670913, 3.001492, 25.750000
0.670913, 3.001492, 25.875000
0.670913, 3.001492, 26.000000
0.712845, 3.189085, 26.125000
0.670913, 3.001492, 26.250000
0.670913, 3.001492, 26.375000
0.712845, 3.189085, 26.500000
0.712845, 3.189085, 26.625000
0.712845, 3.189085, 26.750000
0.712845, 3.189085, 26.875000
0.712845, 3.189085, 27.000000
0.754777, 3.376678, 27.125000
0.754777, 3.376678, 27.250000
0.754777, 3.376678, 27.375000
0.796709, 3.564271, 27.500000
0.754777, 3.376678, 27.625000
0.838641, 3.751865, 27.750000
0.796709, 3.564271, 27.875000
0.796709, 3.564271, 28.000000
0.838641, 3.751865, 28.125000
0.838641, 3.751865, 28.250000
0.838641, 3.751865, 28.375000
0.838641, 3.751865, 28.500000
0.880573, 3.939458, 28.625000
0.838641, 3.751865, 28.750000
0.880573, 3.939458, 28.875000
0.880573, 3.939458, 29.000000
0.880573, 3.939458, 29.125000
0.880573, 3.939458, 29.250000
0.922505, 4.127051, 29.375000
0.880573, 3.939458, 29.500000
0.922505, 4.127051, 29.625000
0.922505, 4.127051, 29.750000
0.880573, 3.939458, 29.875000
0.880573, 3.939458, 30.000000
0.922505, 4.127051, 30.125000
0.964437, 4.314644, 30.250000
0.922505, 4.127051, 30.375000
0.964437, 4.314644, 30.500000
0.964437, 4.314644, 30.625000
1.006369, 4.502237, 30.750000
0.964437, 4.314644, 30.875000
0.964437, 4.314644, 31.000000
0.964437, 4.314644, 31.125000
1.006369, 4.502237, 31.250000
1.006369, 4.502237, 31.375000
1.006369, 4.502237, 31.500000
1.048301, 4.689831, 31.625000
1.048301, 4.689831, 31.750000
1.006369, 4.502237, 31.875000
1.048301, 4.689831, 32.000000
1.048301, 4.689831, 32.125000
1.048301, 4.689831, 32.250000
1.048301, 4.689831, 32.375000
1.048301, 4.689831, 32.500000
1.132165, 5.065017, 32.625000
1.132165, 5.065017, 32.750000
1.090233, 4.877424, 32.875000
1.090233, 4.877424, 33.000000
1.090233, 4.877424, 33.125000
1.090233, 4.877424, 33.250000
1.090233, 4.877424, 33.375000
1.090233, 4.877424, 33.500000
1.090233, 4.877424, 33.625000
1.132165, 5.065017, 33.750000
1.132165, 5.065017, 33.875000
1.132165, 5.065017, 34.000000
1.174098, 5.252610, 34.125000
1.132165, 5.065017, 34.250000
1.174098, 5.252610, 34.375000
1.132165, 5.065017, 34.500000
1.174098, 5.252610, 34.625000
1.132165, 5.065017, 34.750000
1.132165, 5.065017, 34.875000
1.174098, 5.252610, 35.000000
1.174098, 5.252610, 35.125000
1.174098, 5.252610, 35.250000
1.174098, 5.252610, 35.375000
1.216030, 5.440204, 35.500000
1.174098, 5.252610, 35.625000
1.216030, 5.440204, 35.750000
1.216030, 5.440204, 35.875000
1.257962, 5.627797, 36.000000
1.257962, 5.627797, 36.125000
1.257962, 5.627797, 36.250000
1.216030, 5.440204, 36.375000
1.216030, 5.440204, 36.500000
1.257962, 5.627797, 36.625000
1.257962, 5.627797, 36.750000
1.257962, 5.627797, 36.875000
1.257962, 5.627797, 37.000000
1.257962, 5.627797, 37.125000
1.299894, 5.815390, 37.250000
1.299894, 5.815390, 37.375000
1.299894, 5.815390, 37.500000
1.299894, 5.815390, 37.625000
1.299894, 5.815390, 37.750000
1.299894, 5.815390, 37.875000
1.299894, 5.815390, 38.000000
1.299894, 5.815390, 38.125000
1.299894, 5.815390, 38.250000
1.341826, 6.002983, 38.375000
1.299894, 5.815390, 38.500000
1.299894, 5.815390, 38.625000
1.341826, 6.002983, 38.750000
1.383758, 6.190577, 38.875000
1.341826, 6.002983, 39.000000
1.341826, 6.002983, 39.125000
1.341826, 6.002983, 39.250000
1.341826, 6.002983, 39.375000
1.341826, 6.002983, 39.500000
1.341826, 6.002983, 39.625000
1.425690, 6.378170, 39.750000
1.383758, 6.190577, 39.875000
1.383758, 6.190577, 40.000000
1.383758, 6.190577, 40.125000
1.383758, 6.190577, 40.250000
1.383758, 6.190577, 40.375000
1.383758, 6.190577, 40.500000
1.383758, 6.190577, 40.625000
1.383758, 6.190577, 40.750000
1.425690, 6.378170, 40.875000
1.425690, 6.378170, 41.000000
1.383758, 6.190577, 41.125000
1.425690, 6.378170, 41.250000
1.383758, 6.190577, 41.375000
1.425690, 6.378170, 41.500000
1.383758, 6.190577, 41.625000
1.425690, 6.378170, 41.750000
1.425690, 6.378170, 41.875000
1.467622, 6.565763, 42.000000
1.425690, 6.378170, 42.125000
1.425690, 6.378170, 42.250000
1.467622, 6.565763, 42.375000
1.425690, 6.378170, 42.500000
1.425690, 6.378170, 42.625000
1.467622, 6.565763, 42.750000
1.467622, 6.565763, 42.875000
1.467622, 6.565763, 43.000000
1.467622, 6.565763, 43.125000
1.467622, 6.565763, 43.250000
1.467622, 6.565763, 43.375000
1.467622, 6.565763, 43.500000
1.467622, 6.565763, 43.625000
1.467622, 6.565763, 43.750000
1.509554, 6.753356, 43.875000
1.509554, 6.753356, 44.000000
1.467622, 6.565763, 44.125000
1.467622, 6.565763, 44.250000
1.467622, 6.565763, 44.375000
1.467622, 6.565763, 44.500000
1.467622, 6.565763, 44.625000
1.467622, 6.565763, 44.750000
1.509554, 6.753356, 44.875000
1.467622, 6.565763, 45.000000
1.467622, 6.565763, 45.125000
1.467622, 6.565763, 45.250000
1.509554, 6.753356, 45.375000
1.467622, 6.565763, 45.500000
1.467622, 6.565763, 45.625000
1.467622, 6.565763, 45.750000
1.509554, 6.753356, 45.875000
1.509554, 6.753356, 46.000000
1.509554, 6.753356, 46.125000
1.509554, 6.753356, 46.250000
1.509554, 6.753356, 46.375000
1.509554, 6.753356, 46.500000
1.509554, 6.753356, 46.625000
1.509554, 6.753356, 46.750000
1.509554, 6.753356, 46.875000
1.509554, 6.753356, 47.000000
1.509554, 6.753356, 47.125000
1.509554, 6.753356, 47.250000
1.509554, 6.753356, 47.375000
1.509554, 6.753356, 47.500000
1.509554, 6.753356, 47.625000
1.509554, 6.753356, 47.750000
1.509554, 6.753356, 47.875000
1.509554, 6.753356, 48.000000
1.509554, 6.753356, 48.125000
1.509554, 6.753356, 48.250000
1.551486, 6.940949, 48.375000
1.551486, 6.940949, 48.500000
1.509554, 6.753356, 48.625000
1.509554, 6.753356, 48.750000
1.509554, 6.753356, 48.875000
1.509554, 6.753356, 49.000000
1.509554, 6.753356, 49.125000
1.467622, 6.565763, 49.250000
1.509554, 6.753356, 49.375000
1.467622, 6.565763, 49.500000
1.467622, 6.565763, 49.625000
1.509554, 6.753356, 49.750000
1.509554, 6.753356, 49.875000
1.467622, 6.565763, 50.000000
1.509554, 6.753356, 50.125000
1.509554, 6.753356, 50.250000
1.509554, 6.753356, 50.375000
1.467622, 6.565763, 50.500000
1.467622, 6.565763, 50.625000
1.467622, 6.565763, 50.750000
1.467622, 6.565763, 50.875000
1.467622, 6.565763, 51.000000
1.509554, 6.753356, 51.125000
1.467622, 6.565763, 51.250000
1.509554, 6.753356, 51.375000
1.467622, 6.565763, 51.500000
1.467622, 6.565763, 51.625000
1.467622, 6.565763, 51.750000
1.467622, 6.565763, 51.875000
1.467622, 6.565763, 52.000000
1.467622, 6.565763, 52.125000
1.467622, 6.565763, 52.250000
1.467622, 6.565763, 52.375000
1.467622, 6.565763, 52.500000
1.467622, 6.565763, 52.625000
1.467622, 6.565763, 52.750000
1.467622, 6.565763, 52.875000
1.467622, 6.565763, 53.000000
1.467622, 6.565763, 53.125000
1.467622, 6.565763, 53.250000
1.509554, 6.753356, 53.375000
1.467622, 6.565763, 53.500000
1.467622, 6.565763, 53.625000
1.509554, 6.753356, 53.750000
1.467622, 6.565763, 53.875000
1.467622, 6.565763, 54.000000
1.467622, 6.565763, 54.125000
1.425690, 6.378170, 54.250000
1.425690, 6.378170, 54.375000
1.425690, 6.378170, 54.500000
1.425690, 6.378170, 54.625000
1.425690, 6.378170, 54.750000
1.425690, 6.378170, 54.875000
1.467622, 6.565763, 55.000000
1.425690, 6.378170, 55.125000
1.383758, 6.190577, 55.250000
1.383758, 6.190577, 55.375000
1.383758, 6.190577, 55.500000
1.425690, 6.378170, 55.625000
1.425690, 6.378170, 55.750000
1.425690, 6.378170, 55.875000
1.383758, 6.190577, 56.000000
1.383758, 6.190577, 56.125000
1.383758, 6.190577, 56.250000
1.341826, 6.002983, 56.375000
1.341826, 6.002983, 56.500000
1.341826, 6.002983, 56.625000
1.341826, 6.002983, 56.750000
1.383758, 6.190577, 56.875000
1.383758, 6.190577, 57.000000
1.383758, 6.190577, 57.125000
1.383758, 6.190577, 57.250000
1.341826, 6.002983, 57.375000
1.341826, 6.002983, 57.500000
1.341826, 6.002983, 57.625000
1.341826, 6.002983, 57.750000
1.341826, 6.002983, 57.875000
1.341826, 6.002983, 58.000000
1.341826, 6.002983, 58.125000
1.341826, 6.002983, 58.250000
1.341826, 6.002983, 58.375000
1.341826, 6.002983, 58.500000
1.299894, 5.815390, 58.625000
1.257962, 5.627797, 58.750000
1.299894, 5.815390, 58.875000
1.299894, 5.815390, 59.000000
1.257962, 5.627797, 59.125000
1.257962, 5.627797, 59.250000
1.299894, 5.815390, 59.375000
1.257962, 5.627797, 59.500000
1.257962, 5.627797, 59.625000
1.216030, 5.440204, 59.750000
1.257962, 5.627797, 59.875000
1.174098, 5.252610, 60.000000
1.174098, 5.252610, 60.125000
1.216030, 5.440204, 60.250000
1.174098, 5.252610, 60.375000
1.174098, 5.252610, 60.500000
1.174098, 5.252610, 60.625000
1.090233, 4.877424, 60.750000
1.090233, 4.877424, 60.875000
1.090233, 4.877424, 61.000000
1.090233, 4.877424, 61.125000
1.048301, 4.689831, 61.250000
1.090233, 4.877424, 61.375000
1.048301, 4.689831, 61.500000
1.048301, 4.689831, 61.625000
1.048301, 4.689831, 61.750000
1.048301, 4.689831, 61.875000
1.048301, 4.689831, 62.000000
1.006369, 4.502237, 62.125000
1.006369, 4.502237, 62.250000
1.006369, 4.502237, 62.375000
1.006369, 4.502237, 62.500000
0.964437, 4.314644, 62.625000
0.964437, 4.314644, 62.750000
0.922505, 4.127051, 62.875000
0.922505, 4.127051, 63.000000
0.922505, 4.127051, 63.125000
0.922505, 4.127051, 63.250000
0.922505, 4.127051, 63.375000
0.922505, 4.127051, 63.500000
0.880573, 3.939458, 63.625000
0.922505, 4.127051, 63.750000
0.838641, 3.751865, 63.875000
0.838641, 3.751865, 64.000000
0.838641, 3.751865, 64.125000
0.796709, 3.564271, 64.250000
0.796709, 3.564271, 64.375000
0.838641, 3.751865, 64.500000
0.796709, 3.564271, 64.625000
0.754777, 3.376678, 64.750000
0.754777, 3.376678, 64.875000
0.754777, 3.376678, 65.000000
0.712845, 3.189085, 65.125000
0.712845, 3.189085, 65.250000
0.670913, 3.001492, 65.375000
0.712845, 3.189085, 65.500000
0.670913, 3.001492, 65.625000
0.670913, 3.001492, 65.750000
0.670913, 3.001492, 65.875000
0.670913, 3.001492, 66.000000
0.712845, 3.189085, 66.125000
0.670913, 3.001492, 66.250000
0.670913, 3.001492, 66.375000
0.670913, 3.001492, 66.500000
0.628981, 2.813898, 66.625000
0.628981, 2.813898, 66.750000
0.587049, 2.626305, 66.875000
0.587049, 2.626305, 67.000000
0.545117, 2.438712, 67.125000
0.545117, 2.438712, 67.250000
0.587049, 2.626305, 67.375000
0.545117, 2.438712, 67.500000
0.545117, 2.438712, 67.625000
0.587049, 2.626305, 67.750000
0.587049, 2.626305, 67.875000
0.545117, 2.438712, 68.000000
0.545117, 2.438712, 68.125000
0.503185, 2.251119, 68.250000
0.503185, 2.251119, 68.375000
0.503185, 2.251119, 68.500000
0.503185, 2.251119, 68.625000
0.503185, 2.251119, 68.750000
0.503185, 2.251119, 68.875000
0.545117, 2.438712, 69.000000
0.545117, 2.438712, 69.125000
0.545117, 2.438712, 69.250000
0.545117, 2.438712, 69.375000
0.545117, 2.438712, 69.500000
0.545117, 2.438712, 69.625000
0.587049, 2.626305, 69.750000
0.628981, 2.813898, 69.875000
0.628981, 2.813898, 70.000000
0.628981, 2.813898, 70.125000
0.628981, 2.813898, 70.250000
0.670913, 3.001492, 70.375000
0.712845, 3.189085, 70.500000
0.712845, 3.189085, 70.625000
0.712845, 3.189085, 70.750000
0.754777, 3.376678, 70.875000
0.754777, 3.376678, 71.000000
0.796709, 3.564271, 71.125000
0.796709, 3.564271, 71.250000
0.838641, 3.751865, 71.375000
0.838641, 3.751865, 71.500000
0.880573, 3.939458, 71.625000
0.880573, 3.939458, 71.750000
0.880573, 3.939458, 71.875000
0.922505, 4.127051, 72.000000
0.922505, 4.127051, 72.125000
0.922505, 4.127051, 72.250000
0.964437, 4.314644, 72.375000
1.006369, 4.502237, 72.500000
1.006369, 4.502237, 72.625000
1.006369, 4.502237, 72.750000
1.048301, 4.689831, 72.875000
1.048301, 4.689831, 73.000000
1.090233, 4.877424, 73.125000
1.132165, 5.065017, 73.250000
1.132165, 5.065017, 73.375000
1.132165, 5.065017, 73.500000
1.216030, 5.440204, 73.625000
1.216030, 5.440204, 73.750000
1.216030, 5.440204, 73.875000
1.257962, 5.627797, 74.000000
1.299894, 5.815390, 74.125000
1.257962, 5.627797, 74.250000
1.299894, 5.815390, 74.375000
1.341826, 6.002983, 74.500000
1.341826, 6.002983, 74.625000
1.383758, 6.190577, 74.750000
1.383758, 6.190577, 74.875000
1.383758, 6.190577, 75.000000
1.425690, 6.378170, 75.125000
1.425690, 6.378170, 75.250000
1.467622, 6.565763, 75.375000
1.467622, 6.565763, 75.500000
1.467622, 6.565763, 75.625000
1.509554, 6.753356, 75.750000
1.551486, 6.940949, 75.875000
1.551486, 6.940949, 76.000000
1.551486, 6.940949, 76.125000
1.509554, 6.753356, 76.250000
1.551486, 6.940949, 76.375000
1.509554, 6.753356, 76.500000
-0.576303, -3.021084, 14.250000
-0.612322, -3.209902, 14.375000
-0.540284, -2.832267, 14.500000
-0.540284, -2.832267, 14.625000
-0.504265, -2.643449, 14.750000
-0.468246, -2.454631, 14.875000
-0.396208, -2.076996, 15.000000
-0.612322, -3.209902, 15.125000
-0.540284, -2.832267, 15.250000
-0.360189, -1.888178, 15.375000
-0.360189, -1.888178, 15.500000
-0.360189, -1.888178, 15.625000
-0.360189, -1.888178, 15.750000
-0.324170, -1.699360, 15.875000
-0.288151, -1.510542, 16.000000
-0.252132, -1.321724, 16.125000
-0.288151, -1.510542, 16.250000
-0.252132, -1.321724, 16.375000
-0.216114, -1.132907, 16.500000
-0.216114, -1.132907, 16.625000
-0.216114, -1.132907, 16.750000
-0.216114, -1.132907, 16.875000
-0.180095, -0.944089, 17.000000
-0.180095, -0.944089, 17.125000
-0.180095, -0.944089, 17.250000
-0.144076, -0.755271, 17.375000
-0.108057, -0.566453, 17.500000
-0.072038, -0.377636, 17.625000
-0.108057, -0.566453, 17.750000
-0.108057, -0.566453, 17.875000
-0.036019, -0.188818, 18.000000
-0.072038, -0.377636, 18.125000
-0.036019, -0.188818, 18.250000
-0.036019, -0.188818, 18.375000
0.000000, 0.000000, 18.500000
-0.036019, -0.188818, 18.625000
0.036019, 0.188818, 18.750000
0.036019, 0.188818, 18.875000
0.000000, 0.000000, 19.000000
0.036019, 0.188818, 19.125000
0.072038, 0.377636, 19.250000
0.036019, 0.188818, 19.375000
0.072038, 0.377636, 19.500000
0.072038, 0.377636, 19.625000
0.072038, 0.377636, 19.750000
0.072038, 0.377636, 19.875000
0.108057, 0.566453, 20.000000
0.108057, 0.566453, 20.125000
0.144076, 0.755271, 20.250000
0.144076, 0.755271, 20.375000
0.108057, 0.566453, 20.500000
0.144076, 0.755271, 20.625000
0.144076, 0.755271, 20.750000
0.180095, 0.944089, 20.875000
0.180095, 0.944089, 21.000000
0.180095, 0.944089, 21.125000
0.216114, 1.132907, 21.250000
0.216114, 1.132907, 21.375000
0.216114, 1.132907, 21.500000
0.252132, 1.321724, 21.625000
0.252132, 1.321724, 21.750000
0.288151, 1.510542, 21.875000
0.288151, 1.510542, 22.000000
0.288151, 1.510542, 22.125000
0.288151, 1.510542, 22.250000
0.288151, 1.510542, 22.375000
0.288151, 1.510542, 22.500000
0.360189, 1.888178, 22.625000
0.324170, 1.699360, 22.750000
0.324170, 1.699360, 22.875000
0.360189, 1.888178, 23.000000
0.360189, 1.888178, 23.125000
0.360189, 1.888178, 23.250000
0.396208, 2.076996, 23.375000
0.396208, 2.076996, 23.500000
0.396208, 2.076996, 23.625000
0.396208, 2.076996, 23.750000
0.432227, 2.265813, 23.875000
0.432227, 2.265813, 24.000000
0.432227, 2.265813, 24.125000
0.432227, 2.265813, 24.250000
0.504265, 2.643449, 24.375000
0.504265, 2.643449, 24.500000
0.468246, 2.454631, 24.625000
0.504265, 2.643449, 24.750000
0.504265, 2.643449, 24.875000
0.504265, 2.643449, 25.000000
0.504265, 2.643449, 25.125000
0.540284, 2.832267, 25.250000
0.504265, 2.643449, 25.375000
0.540284, 2.832267, 25.500000
0.540284, 2.832267, 25.625000
0.540284, 2.832267, 25.750000
0.540284, 2.832267, 25.875000
0.576303, 3.021084, 26.000000
0.612322, 3.209902, 26.125000
0.612322, 3.209902, 26.250000
0.612322, 3.209902, 26.375000
0.576303, 3.021084, 26.500000
0.612322, 3.209902, 26.625000
0.612322, 3.209902, 26.750000
0.612322, 3.209902, 26.875000
0.612322, 3.209902, 27.000000
0.648341, 3.398720, 27.125000
0.684359, 3.587538, 27.250000
0.684359, 3.587538, 27.375000
0.648341, 3.398720, 27.500000
0.684359, 3.587538, 27.625000
0.684359, 3.587538, 27.750000
0.684359, 3.587538, 27.875000
0.684359, 3.587538, 28.000000
0.684359, 3.587538, 28.125000
0.684359, 3.587538, 28.250000
0.720378, 3.776356, 28.375000
0.720378, 3.776356, 28.500000
0.720378, 3.776356, 28.625000
0.720378, 3.776356, 28.750000
0.756397, 3.965173, 28.875000
0.756397, 3.965173, 29.000000
0.756397, 3.965173, 29.125000
0.756397, 3.965173, 29.250000
0.792416, 4.153991, 29.375000
0.756397, 3.965173, 29.500000
0.792416, 4.153991, 29.625000
0.792416, 4.153991, 29.750000
0.792416, 4.153991, 29.875000
0.792416, 4.153991, 30.000000
0.792416, 4.153991, 30.125000
0.792416, 4.153991, 30.250000
0.828435, 4.342809, 30.375000
0.828435, 4.342809, 30.500000
0.828435, 4.342809, 30.625000
0.828435, 4.342809, 30.750000
0.828435, 4.342809, 30.875000
0.864454, 4.531627, 31.000000
0.828435, 4.342809, 31.125000
0.864454, 4.531627, 31.250000
0.900473, 4.720445, 31.375000
0.900473, 4.720445, 31.500000
0.864454, 4.531627, 31.625000
0.864454, 4.531627, 31.750000
0.864454, 4.531627, 31.875000
0.900473, 4.720445, 32.000000
0.900473, 4.720445, 32.125000
0.900473, 4.720445, 32.250000
0.900473, 4.720445, 32.375000
0.936492, 4.909262, 32.500000
0.900473, 4.720445, 32.625000
0.900473, 4.720445, 32.750000
0.936492, 4.909262, 32.875000
0.972511, 5.098080, 33.000000
0.972511, 5.098080, 33.125000
0.936492, 4.909262, 33.250000
0.936492, 4.909262, 33.375000
0.972511, 5.098080, 33.500000
0.972511, 5.098080, 33.625000
0.972511, 5.098080, 33.750000
0.972511, 5.098080, 33.875000
0.972511, 5.098080, 34.000000
0.972511, 5.098080, 34.125000
0.972511, 5.098080, 34.250000
0.972511, 5.098080, 34.375000
0.972511, 5.098080, 34.500000
1.008530, 5.286898, 34.625000
0.972511, 5.098080, 34.750000
1.008530, 5.286898, 34.875000
1.044549, 5.475716, 35.000000
1.008530, 5.286898, 35.125000
1.008530, 5.286898, 35.250000
1.044549, 5.475716, 35.375000
1.044549, 5.475716, 35.500000
1.044549, 5.475716, 35.625000
1.044549, 5.475716, 35.750000
1.044549, 5.475716, 35.875000
1.080568, 5.664533, 36.000000
1.080568, 5.664533, 36.125000
1.080568, 5.664533, 36.250000
1.080568, 5.664533, 36.375000
1.080568, 5.664533, 36.500000
1.116586, 5.853351, 36.625000
1.080568, 5.664533, 36.750000
1.080568, 5.664533, 36.875000
1.080568, 5.664533, 37.000000
1.080568, 5.664533, 37.125000
1.116586, 5.853351, 37.250000
1.116586, 5.853351, 37.375000
1.080568, 5.664533, 37.500000
1.116586, 5.853351, 37.625000
1.116586, 5.853351, 37.750000
1.116586, 5.853351, 37.875000
1.116586, 5.853351, 38.000000
1.116586, 5.853351, 38.125000
1.152605, 6.042169, 38.250000
1.152605, 6.042169, 38.375000
1.152605, 6.042169, 38.500000
1.152605, 6.042169, 38.625000
1.152605, 6.042169, 38.750000
1.152605, 6.042169, 38.875000
1.152605, 6.042169, 39.000000
1.188624, 6.230987, 39.125000
1.152605, 6.042169, 39.250000
1.152605, 6.042169, 39.375000
1.152605, 6.042169, 39.500000
1.152605, 6.042169, 39.625000
1.188624, 6.230987, 39.750000
1.188624, 6.230987, 39.875000
1.152605, 6.042169, 40.000000
1.188624, 6.230987, 40.125000
1.188624, 6.230987, 40.250000
1.188624, 6.230987, 40.375000
1.188624, 6.230987, 40.500000
1.188624, 6.230987, 40.625000
1.188624, 6.230987, 40.750000
1.188624, 6.230987, 40.875000
1.224643, 6.419805, 41.000000
1.224643, 6.419805, 41.125000
1.224643, 6.419805, 41.250000
1.224643, 6.419805, 41.375000
1.224643, 6.419805, 41.500000
1.224643, 6.419805, 41.625000
1.224643, 6.419805, 41.750000
1.224643, 6.419805, 41.875000
1.260662, 6.608622, 42.000000
1.224643, 6.419805, 42.125000
1.224643, 6.419805, 42.250000
1.224643, 6.419805, 42.375000
1.224643, 6.419805, 42.500000
1.260662, 6.608622, 42.625000
1.224643, 6.419805, 42.750000
1.224643, 6.419805, 42.875000
1.224643, 6.419805, 43.000000
1.224643, 6.419805, 43.125000
1.260662, 6.608622, 43.250000
1.260662, 6.608622, 43.375000
1.260662, 6.608622, 43.500000
1.260662, 6.608622, 43.625000
1.296681, 6.797440, 43.750000
1.260662, 6.608622, 43.875000
1.260662, 6.608622, 44.000000
1.260662, 6.608622, 44.125000
1.260662, 6.608622, 44.250000
1.260662, 6.608622, 44.375000
1.260662, 6.608622, 44.500000
1.260662, 6.608622, 44.625000
1.260662, 6.608622, 44.750000
1.260662, 6.608622, 44.875000
1.296681, 6.797440, 45.000000
1.260662, 6.608622, 45.125000
1.296681, 6.797440, 45.250000
1.260662, 6.608622, 45.375000
1.260662, 6.608622, 45.500000
1.260662, 6.608622, 45.625000
1.296681, 6.797440, 45.750000
1.296681, 6.797440, 45.875000
1.332700, 6.986258, 46.000000
1.260662, 6.608622, 46.125000
1.260662, 6.608622, 46.250000
1.260662, 6.608622, 46.375000
1.296681, 6.797440, 46.500000
1.260662, 6.608622, 46.625000
1.260662, 6.608622, 46.750000
1.296681, 6.797440, 46.875000
1.332700, 6.986258, 47.000000
1.296681, 6.797440, 47.125000
1.296681, 6.797440, 47.250000
1.260662, 6.608622, 47.375000
1.260662, 6.608622, 47.500000
1.296681, 6.797440, 47.625000
1.296681, 6.797440, 47.750000
1.296681, 6.797440, 47.875000
1.296681, 6.797440, 48.000000
1.296681, 6.797440, 48.125000
1.296681, 6.797440, 48.250000
1.296681, 6.797440, 48.375000
1.296681, 6.797440, 48.500000
1.296681, 6.797440, 48.625000
1.296681, 6.797440, 48.750000
1.296681, 6.797440, 48.875000
1.296681, 6.797440, 49.000000
1.296681, 6.797440, 49.125000
1.296681, 6.797440, 49.250000
1.260662, 6.608622, 49.375000
1.296681, 6.797440, 49.500000
1.296681, 6.797440, 49.625000
1.296681, 6.797440, 49.750000
1.296681, 6.797440, 49.875000
1.296681, 6.797440, 50.000000
1.296681, 6.797440, 50.125000
1.260662, 6.608622, 50.250000
1.260662, 6.608622, 50.375000
1.260662, 6.608622, 50.500000
1.260662, 6.608622, 50.625000
1.296681, 6.797440, 50.750000
1.260662, 6.608622, 50.875000
1.260662, 6.608622, 51.000000
1.296681, 6.797440, 51.125000
1.260662, 6.608622, 51.250000
1.260662, 6.608622, 51.375000
1.296681, 6.797440, 51.500000
1.260662, 6.608622, 51.625000
1.260662, 6.608622, 51.750000
1.260662, 6.608622, 51.875000
1.260662, 6.608622, 52.000000
1.260662, 6.608622, 52.125000
1.260662, 6.608622, 52.250000
1.260662, 6.608622, 52.375000
1.260662, 6.608622, 52.500000
1.296681, 6.797440, 52.625000
1.260662, 6.608622, 52.750000
1.260662, 6.608622, 52.875000
1.260662, 6.608622, 53.000000
1.260662, 6.608622, 53.125000
1.260662, 6.608622, 53.250000
1.260662, 6.608622, 53.375000
1.260662, 6.608622, 53.500000
1.260662, 6.608622, 53.625000
1.260662, 6.608622, 53.750000
1.260662, 6.608622, 53.875000
1.296681, 6.797440, 54.000000
1.296681, 6.797440, 54.125000
1.260662, 6.608622, 54.250000
1.224643, 6.419805, 54.375000
1.260662, 6.608622, 54.500000
1.224643, 6.419805, 54.625000
1.224643, 6.419805, 54.750000
1.224643, 6.419805, 54.875000
1.224643, 6.419805, 55.000000
1.224643, 6.419805, 55.125000
1.224643, 6.419805, 55.250000
1.224643, 6.419805, 55.375000
1.224643, 6.419805, 55.500000
1.188624, 6.230987, 55.625000
1.224643, 6.419805, 55.750000
1.224643, 6.419805, 55.875000
1.188624, 6.230987, 56.000000
1.188624, 6.230987, 56.125000
1.224643, 6.419805, 56.250000
1.188624, 6.230987, 56.375000
1.152605, 6.042169, 56.500000
1.188624, 6.230987, 56.625000
1.188624, 6.230987, 56.750000
1.188624, 6.230987, 56.875000
1.152605, 6.042169, 57.000000
1.152605, 6.042169, 57.125000
1.188624, 6.230987, 57.250000
1.152605, 6.042169, 57.375000
1.152605, 6.042169, 57.500000
1.152605, 6.042169, 57.625000
1.152605, 6.042169, 57.750000
1.152605, 6.042169, 57.875000
1.152605, 6.042169, 58.000000
1.152605, 6.042169, 58.125000
1.152605, 6.042169, 58.250000
1.116586, 5.853351, 58.375000
1.116586, 5.853351, 58.500000
1.152605, 6.042169, 58.625000
1.152605, 6.042169, 58.750000
1.116586, 5.853351, 58.875000
1.080568, 5.664533, 59.000000
1.116586, 5.853351, 59.125000
1.080568, 5.664533, 59.250000
1.080568, 5.664533, 59.375000
1.116586, 5.853351, 59.500000
1.080568, 5.664533, 59.625000
1.080568, 5.664533, 59.750000
1.080568, 5.664533, 59.875000
1.044549, 5.475716, 60.000000
1.008530, 5.286898, 60.125000
1.008530, 5.286898, 60.250000
1.008530, 5.286898, 60.375000
1.008530, 5.286898, 60.500000
0.972511, 5.098080, 60.625000
0.936492, 4.909262, 60.750000
0.972511, 5.098080, 60.875000
0.936492, 4.909262, 61.000000
0.936492, 4.909262, 61.125000
0.936492, 4.909262, 61.250000
0.900473, 4.720445, 61.375000
0.900473, 4.720445, 61.500000
0.900473, 4.720445, 61.625000
0.900473, 4.720445, 61.750000
0.900473, 4.720445, 61.875000
0.864454, 4.531627, 62.000000
0.864454, 4.531627, 62.125000
0.864454, 4.531627, 62.250000
0.864454, 4.531627, 62.375000
0.828435, 4.342809, 62.500000
0.828435, 4.342809, 62.625000
0.828435, 4.342809, 62.750000
0.828435, 4.342809, 62.875000
0.792416, 4.153991, 63.000000
0.828435, 4.342809, 63.125000
0.828435, 4.342809, 63.250000
0.792416, 4.153991, 63.375000
0.792416, 4.153991, 63.500000
0.792416, 4.153991, 63.625000
0.792416, 4.153991, 63.750000
0.756397, 3.965173, 63.875000
0.720378, 3.776356, 64.000000
0.720378, 3.776356, 64.125000
0.720378, 3.776356, 64.250000
0.684359, 3.587538, 64.375000
0.684359, 3.587538, 64.500000
0.684359, 3.587538, 64.625000
0.648341, 3.398720, 64.750000
0.648341, 3.398720, 64.875000
0.612322, 3.209902, 65.000000
0.576303, 3.021084, 65.125000
0.576303, 3.021084, 65.250000
0.612322, 3.209902, 65.375000
0.576303, 3.021084, 65.500000
0.576303, 3.021084, 65.625000
0.612322, 3.209902, 65.750000
0.576303, 3.021084, 65.875000
0.576303, 3.021084, 66.000000
0.576303, 3.021084, 66.125000
0.576303, 3.021084, 66.250000
0.576303, 3.021084, 66.375000
0.576303, 3.021084, 66.500000
0.540284, 2.832267, 66.625000
0.540284, 2.832267, 66.750000
0.540284, 2.832267, 66.875000
0.540284, 2.832267, 67.000000
0.504265, 2.643449, 67.125000
0.504265, 2.643449, 67.250000
0.504265, 2.643449, 67.375000
0.468246, 2.454631, 67.500000
0.504265, 2.643449, 67.625000
0.504265, 2.643449, 67.750000
0.432227, 2.265813, 67.875000
0.432227, 2.265813, 68.000000
0.432227, 2.265813, 68.125000
0.468246, 2.454631, 68.250000
0.432227, 2.265813, 68.375000
0.432227, 2.265813, 68.500000
0.432227, 2.265813, 68.625000
0.468246, 2.454631, 68.750000
0.432227, 2.265813, 68.875000
0.468246, 2.454631, 69.000000
0.468246, 2.454631, 69.125000
0.468246, 2.454631, 69.250000
0.468246, 2.454631, 69.375000
0.468246, 2.454631, 69.500000
0.504265, 2.643449, 69.625000
0.504265, 2.643449, 69.750000
0.504265, 2.643449, 69.875000
0.540284, 2.832267, 70.000000
0.540284, 2.832267, 70.125000
0.576303, 3.021084, 70.250000
0.576303, 3.021084, 70.375000
0.576303, 3.021084, 70.500000
0.612322, 3.209902, 70.625000
0.648341, 3.398720, 70.750000
0.648341, 3.398720, 70.875000
0.648341, 3.398720, 71.000000
0.684359, 3.587538, 71.125000
0.684359, 3.587538, 71.250000
0.684359, 3.587538, 71.375000
0.720378, 3.776356, 71.500000
0.756397, 3.965173, 71.625000
0.756397, 3.965173, 71.750000
0.792416, 4.153991, 71.875000
0.792416, 4.153991, 72.000000
0.792416, 4.153991, 72.125000
0.828435, 4.342809, 72.250000
0.828435, 4.342809, 72.375000
0.864454, 4.531627, 72.500000
0.864454, 4.531627, 72.625000
0.900473, 4.720445, 72.750000
0.900473, 4.720445, 72.875000
0.936492, 4.909262, 73.000000
0.936492, 4.909262, 73.125000
0.972511, 5.098080, 73.250000
1.008530, 5.286898, 73.375000
1.008530, 5.286898, 73.500000
1.008530, 5.286898, 73.625000
1.044549, 5.475716, 73.750000
1.080568, 5.664533, 73.875000
1.080568, 5.664533, 74.000000
1.116586, 5.853351, 74.125000
1.116586, 5.853351, 74.250000
1.116586, 5.853351, 74.375000
1.188624, 6.230987, 74.500000
1.152605, 6.042169, 74.625000
1.188624, 6.230987, 74.750000
1.224643, 6.419805, 74.875000
1.224643, 6.419805, 75.000000
1.260662, 6.608622, 75.125000
1.260662, 6.608622, 75.250000
1.224643, 6.419805, 75.375000
1.260662, 6.608622, 75.500000
1.260662, 6.608622, 75.625000
1.296681, 6.797440, 75.750000
1.332700, 6.986258, 75.875000
1.296681, 6.797440, 76.000000
1.296681, 6.797440, 76.125000
1.368719, 7.175076, 76.250000
1.332700, 6.986258, 76.375000
1.332700, 6.986258, 76.500000
-0.420983, -2.657984, 14.375000
-0.420983, -2.657984, 14.500000
-0.541264, -3.417408, 14.625000
-0.541264, -3.417408, 14.750000
-0.541264, -3.417408, 14.875000
-0.541264, -3.417408, 15.000000
-0.330773, -2.088416, 15.125000
-0.330773, -2.088416, 15.250000
-0.330773, -2.088416, 15.375000
-0.330773, -2.088416, 15.500000
-0.330773, -2.088416, 15.625000
-0.270632, -1.708704, 15.750000
-0.210492, -1.328992, 15.875000
-0.270632, -1.708704, 16.000000
-0.240562, -1.518848, 16.125000
-0.240562, -1.518848, 16.250000
-0.240562, -1.518848, 16.375000
-0.180421, -1.139136, 16.500000
-0.150351, -0.949280, 16.625000
-0.120281, -0.759424, 16.750000
-0.150351, -0.949280, 16.875000
-0.120281, -0.759424, 17.000000
-0.120281, -0.759424, 17.125000
-0.120281, -0.759424, 17.250000
-0.120281, -0.759424, 17.375000
-0.090211, -0.569568, 17.500000
-0.090211, -0.569568, 17.625000
-0.090211, -0.569568, 17.750000
-0.060140, -0.379712, 17.875000
-0.060140, -0.379712, 18.000000
-0.060140, -0.379712, 18.125000
-0.030070, -0.189856, 18.250000
0.000000, 0.000000, 18.375000
-0.030070, -0.189856, 18.500000
-0.030070, -0.189856, 18.625000
0.000000, 0.000000, 18.750000
0.000000, 0.000000, 18.875000
0.000000, 0.000000, 19.000000
0.000000, 0.000000, 19.125000
0.030070, 0.189856, 19.250000
0.030070, 0.189856, 19.375000
0.060140, 0.379712, 19.500000
0.060140, 0.379712, 19.625000
0.060140, 0.379712, 19.750000
0.090211, 0.569568, 19.875000
0.090211, 0.569568, 20.000000
0.090211, 0.569568, 20.125000
0.090211, 0.569568, 20.250000
0.120281, 0.759424, 20.375000
0.120281, 0.759424, 20.500000
0.120281, 0.759424, 20.625000
0.120281, 0.759424, 20.750000
0.150351, 0.949280, 20.875000
0.150351, 0.949280, 21.000000
0.180421, 1.139136, 21.125000
0.180421, 1.139136, 21.250000
0.180421, 1.139136, 21.375000
0.180421, 1.139136, 21.500000
0.180421, 1.139136, 21.625000
0.210492, 1.328992, 21.750000
0.240562, 1.518848, 21.875000
0.240562, 1.518848, 22.000000
0.240562, 1.518848, 22.125000
0.240562, 1.518848, 22.250000
0.270632, 1.708704, 22.375000
0.270632, 1.708704, 22.500000
0.270632, 1.708704, 22.625000
0.270632, 1.708704, 22.750000
0.300702, 1.898560, 22.875000
0.300702, 1.898560, 23.000000
0.300702, 1.898560, 23.125000
0.330773, 2.088416, 23.250000
0.330773, 2.088416, 23.375000
0.330773, 2.088416, 23.500000
0.330773, 2.088416, 23.625000
0.360843, 2.278272, 23.750000
0.330773, 2.088416, 23.875000
0.360843, 2.278272, 24.000000
0.360843, 2.278272, 24.125000
0.360843, 2.278272, 24.250000
0.390913, 2.468128, 24.375000
0.390913, 2.468128, 24.500000
0.420983, 2.657984, 24.625000
0.390913, 2.468128, 24.750000
0.420983, 2.657984, 24.875000
0.390913, 2.468128, 25.000000
0.451054, 2.847840, 25.125000
0.420983, 2.657984, 25.250000
0.451054, 2.847840, 25.375000
0.451054, 2.847840, 25.500000
0.451054, 2.847840, 25.625000
0.451054, 2.847840, 25.750000
0.481124, 3.037696, 25.875000
0.481124, 3.037696, 26.000000
0.481124, 3.037696, 26.125000
0.481124, 3.037696, 26.250000
0.511194, 3.227552, 26.375000
0.511194, 3.227552, 26.500000
0.541264, 3.417408, 26.625000
0.541264, 3.417408, 26.750000
0.541264, 3.417408, 26.875000
0.511194, 3.227552, 27.000000
0.541264, 3.417408, 27.125000
0.511194, 3.227552, 27.250000
0.571334, 3.607264, 27.375000
0.541264, 3.417408, 27.500000
0.541264, 3.417408, 27.625000
0.571334, 3.607264, 27.750000
0.571334, 3.607264, 27.875000
0.571334, 3.607264, 28.000000
0.601405, 3.797120, 28.125000
0.601405, 3.797120, 28.250000
0.601405, 3.797120, 28.375000
0.601405, 3.797120, 28.500000
0.601405, 3.797120, 28.625000
0.601405, 3.797120, 28.750000
0.601405, 3.797120, 28.875000
0.601405, 3.797120, 29.000000
0.631475, 3.986976, 29.125000
0.631475, 3.986976, 29.250000
0.661545, 4.176832, 29.375000
0.631475, 3.986976, 29.500000
0.691615, 4.366688, 29.625000
0.661545, 4.176832, 29.750000
0.691615, 4.366688, 29.875000
0.661545, 4.176832, 30.000000
0.661545, 4.176832, 30.125000
0.661545, 4.176832, 30.250000
0.661545, 4.176832, 30.375000
0.691615, 4.366688, 30.500000
0.691615, 4.366688, 30.625000
0.691615, 4.366688, 30.750000
0.691615, 4.366688, 30.875000
0.691615, 4.366688, 31.000000
0.721686, 4.556544, 31.125000
0.721686, 4.556544, 31.250000
0.721686, 4.556544, 31.375000
0.721686, 4.556544, 31.500000
0.721686, 4.556544, 31.625000
0.721686, 4.556544, 31.750000
0.721686, 4.556544, 31.875000
0.721686, 4.556544, 32.000000
0.751756, 4.746400, 32.125000
0.751756, 4.746400, 32.250000
0.751756, 4.746400, 32.375000
0.751756, 4.746400, 32.500000
0.751756, 4.746400, 32.625000
0.781826, 4.936256, 32.750000
0.751756, 4.746400, 32.875000
0.781826, 4.936256, 33.000000
0.781826, 4.936256, 33.125000
0.781826, 4.936256, 33.250000
0.811896, 5.126112, 33.375000
0.781826, 4.936256, 33.500000
0.841967, 5.315968, 33.625000
0.811896, 5.126112, 33.750000
0.811896, 5.126112, 33.875000
0.811896, 5.126112, 34.000000
0.841967, 5.315968, 34.125000
0.841967, 5.315968, 34.250000
0.811896, 5.126112, 34.375000
0.811896, 5.126112, 34.500000
0.811896, 5.126112, 34.625000
0.841967, 5.315968, 34.750000
0.841967, 5.315968, 34.875000
0.872037, 5.505824, 35.000000
0.872037, 5.505824, 35.125000
0.841967, 5.315968, 35.250000
0.841967, 5.315968, 35.375000
0.872037, 5.505824, 35.500000
0.902107, 5.695680, 35.625000
0.902107, 5.695680, 35.750000
0.902107, 5.695680, 35.875000
0.902107, 5.695680, 36.000000
0.872037, 5.505824, 36.125000
0.902107, 5.695680, 36.250000
0.902107, 5.695680, 36.375000
0.902107, 5.695680, 36.500000
0.902107, 5.695680, 36.625000
0.932177, 5.885536, 36.750000
0.902107, 5.695680, 36.875000
0.902107, 5.695680, 37.000000
0.902107, 5.695680, 37.125000
0.932177, 5.885536, 37.250000
0.932177, 5.885536, 37.375000
0.902107, 5.695680, 37.500000
0.932177, 5.885536, 37.625000
0.932177, 5.885536, 37.750000
0.932177, 5.885536, 37.875000
0.932177, 5.885536, 38.000000
0.962248, 6.075392, 38.125000
0.962248, 6.075392, 38.250000
0.962248, 6.075392, 38.375000
0.962248, 6.075392, 38.500000
0.962248, 6.075392, 38.625000
0.962248, 6.075392, 38.750000
0.962248, 6.075392, 38.875000
0.992318, 6.265248, 39.000000
0.962248, 6.075392, 39.125000
0.962248, 6.075392, 39.250000
0.962248, 6.075392, 39.375000
0.992318, 6.265248, 39.500000
0.992318, 6.265248, 39.625000
0.992318, 6.265248, 39.750000
0.992318, 6.265248, 39.875000
0.992318, 6.265248, 40.000000
0.992318, 6.265248, 40.125000
0.992318, 6.265248, 40.250000
0.992318, 6.265248, 40.375000
1.022388, 6.455104, 40.500000
1.052458, 6.644960, 40.625000
1.022388, 6.455104, 40.750000
1.022388, 6.455104, 40.875000
1.022388, 6.455104, 41.000000
0.992318, 6.265248, 41.125000
0.992318, 6.265248, 41.250000
1.022388, 6.455104, 41.375000
1.022388, 6.455104, 41.500000
1.022388, 6.455104, 41.625000
1.022388, 6.455104, 41.750000
1.052458, 6.644960, 41.875000
1.052458, 6.644960, 42.000000
1.052458, 6.644960, 42.125000
1.022388, 6.455104, 42.250000
1.022388, 6.455104, 42.375000
1.022388, 6.455104, 42.500000
1.082528, 6.834816, 42.625000
1.052458, 6.644960, 42.750000
1.022388, 6.455104, 42.875000
1.082528, 6.834816, 43.000000
1.082528, 6.834816, 43.125000
1.052458, 6.644960, 43.250000
1.082528, 6.834816, 43.375000
1.052458, 6.644960, 43.500000
1.052458, 6.644960, 43.625000
1.052458, 6.644960, 43.750000
1.052458, 6.644960, 43.875000
1.052458, 6.644960, 44.000000
1.052458, 6.644960, 44.125000
1.052458, 6.644960, 44.250000
1.052458, 6.644960, 44.375000
1.052458, 6.644960, 44.500000
1.052458, 6.644960, 44.625000
1.052458, 6.644960, 44.750000
1.052458, 6.644960, 44.875000
1.082528, 6.834816, 45.000000
1.052458, 6.644960, 45.125000
1.082528, 6.834816, 45.250000
1.082528, 6.834816, 45.375000
1.052458, 6.644960, 45.500000
1.052458, 6.644960, 45.625000
1.052458, 6.644960, 45.750000
1.052458, 6.644960, 45.875000
1.082528, 6.834816, 46.000000
1.082528, 6.834816, 46.125000
1.082528, 6.834816, 46.250000
1.052458, 6.644960, 46.375000
1.052458, 6.644960, 46.500000
1.052458, 6.644960, 46.625000
1.082528, 6.834816, 46.750000
1.052458, 6.644960, 46.875000
1.052458, 6.644960, 47.000000
1.082528, 6.834816, 47.125000
1.082528, 6.834816, 47.250000
1.082528, 6.834816, 47.375000
1.082528, 6.834816, 47.500000
1.082528, 6.834816, 47.625000
1.082528, 6.834816, 47.750000
1.052458, 6.644960, 47.875000
1.082528, 6.834816, 48.000000
1.082528, 6.834816, 48.125000
1.082528, 6.834816, 48.250000
1.082528, 6.834816, 48.375000
1.082528, 6.834816, 48.500000
1.082528, 6.834816, 48.625000
1.082528, 6.834816, 48.750000
1.082528, 6.834816, 48.875000
1.082528, 6.834816, 49.000000
1.082528, 6.834816, 49.125000
1.082528, 6.834816, 49.250000
1.082528, 6.834816, 49.375000
1.082528, 6.834816, 49.500000
1.082528, 6.834816, 49.625000
1.052458, 6.644960, 49.750000
1.052458, 6.644960, 49.875000
1.082528, 6.834816, 50.000000
1.082528, 6.834816, 50.125000
1.052458, 6.644960, 50.250000
1.052458, 6.644960, 50.375000
1.052458, 6.644960, 50.500000
1.052458, 6.644960, 50.625000
1.082528, 6.834816, 50.750000
1.082528, 6.834816, 50.875000
1.052458, 6.644960, 51.000000
1.082528, 6.834816, 51.125000
1.082528, 6.834816, 51.250000
1.082528, 6.834816, 51.375000
1.052458, 6.644960, 51.500000
1.052458, 6.644960, 51.625000
1.052458, 6.644960, 51.750000
1.082528, 6.834816, 51.875000
1.082528, 6.834816, 52.000000
1.052458, 6.644960, 52.125000
1.082528, 6.834816, 52.250000
1.052458, 6.644960, 52.375000
1.052458, 6.644960, 52.500000
1.052458, 6.644960, 52.625000
1.052458, 6.644960, 52.750000
1.052458, 6.644960, 52.875000
1.082528, 6.834816, 53.000000
1.052458, 6.644960, 53.125000
1.052458, 6.644960, 53.250000
1.052458, 6.644960, 53.375000
1.052458, 6.644960, 53.500000
1.052458, 6.644960, 53.625000
1.052458, 6.644960, 53.750000
1.052458, 6.644960, 53.875000
1.082528, 6.834816, 54.000000
1.052458, 6.644960, 54.125000
1.052458, 6.644960, 54.250000
1.052458, 6.644960, 54.375000
1.022388, 6.455104, 54.500000
1.052458, 6.644960, 54.625000
1.022388, 6.455104, 54.750000
1.022388, 6.455104, 54.875000
1.022388, 6.455104, 55.000000
1.022388, 6.455104, 55.125000
0.992318, 6.265248, 55.250000
0.992318, 6.265248, 55.375000
1.022388, 6.455104, 55.500000
1.022388, 6.455104, 55.625000
1.022388, 6.455104, 55.750000
1.022388, 6.455104, 55.875000
1.022388, 6.455104, 56.000000
0.992318, 6.265248, 56.125000
0.992318, 6.265248, 56.250000
0.992318, 6.265248, 56.375000
0.992318, 6.265248, 56.500000
0.992318, 6.265248, 56.625000
0.992318, 6.265248, 56.750000
0.992318, 6.265248, 56.875000
0.992318, 6.265248, 57.000000
0.962248, 6.075392, 57.125000
0.992318, 6.265248, 57.250000
0.962248, 6.075392, 57.375000
0.962248, 6.075392, 57.500000
0.962248, 6.075392, 57.625000
0.992318, 6.265248, 57.750000
0.962248, 6.075392, 57.875000
0.962248, 6.075392, 58.000000
0.962248, 6.075392, 58.125000
0.962248, 6.075392, 58.250000
0.962248, 6.075392, 58.375000
0.932177, 5.885536, 58.500000
0.962248, 6.075392, 58.625000
0.962248, 6.075392, 58.750000
0.932177, 5.885536, 58.875000
0.932177, 5.885536, 59.000000
0.902107, 5.695680, 59.125000
0.902107, 5.695680, 59.250000
0.932177, 5.885536, 59.375000
0.902107, 5.695680, 59.500000
0.902107, 5.695680, 59.625000
0.902107, 5.695680, 59.750000
0.872037, 5.505824, 59.875000
0.872037, 5.505824, 60.000000
0.872037, 5.505824, 60.125000
0.841967, 5.315968, 60.250000
0.841967, 5.315968, 60.375000
0.841967, 5.315968, 60.500000
0.811896, 5.126112, 60.625000
0.811896, 5.126112, 60.750000
0.811896, 5.126112, 60.875000
0.781826, 4.936256, 61.000000
0.781826, 4.936256, 61.125000
0.811896, 5.126112, 61.250000
0.751756, 4.746400, 61.375000
0.751756, 4.746400, 61.500000
0.751756, 4.746400, 61.625000
0.751756, 4.746400, 61.750000
0.751756, 4.746400, 61.875000
0.721686, 4.556544, 62.000000
0.751756, 4.746400, 62.125000
0.721686, 4.556544, 62.250000
0.691615, 4.366688, 62.375000
0.691615, 4.366688, 62.500000
0.721686, 4.556544, 62.625000
0.691615, 4.366688, 62.750000
0.691615, 4.366688, 62.875000
0.691615, 4.366688, 63.000000
0.661545, 4.176832, 63.125000
0.661545, 4.176832, 63.250000
0.691615, 4.366688, 63.375000
0.661545, 4.176832, 63.500000
0.661545, 4.176832, 63.625000
0.661545, 4.176832, 63.750000
0.631475, 3.986976, 63.875000
0.631475, 3.986976, 64.000000
0.601405, 3.797120, 64.125000
0.601405, 3.797120, 64.250000
0.571334, 3.607264, 64.375000
0.571334, 3.607264, 64.500000
0.571334, 3.607264, 64.625000
0.571334, 3.607264, 64.750000
0.541264, 3.417408, 64.875000
0.511194, 3.227552, 65.000000
0.511194, 3.227552, 65.125000
0.511194, 3.227552, 65.250000
0.481124, 3.037696, 65.375000
0.511194, 3.227552, 65.500000
0.481124, 3.037696, 65.625000
0.481124, 3.037696, 65.750000
0.481124, 3.037696, 65.875000
0.481124, 3.037696, 66.000000
0.481124, 3.037696, 66.125000
0.481124, 3.037696, 66.250000
0.481124, 3.037696, 66.375000
0.451054, 2.847840, 66.500000
0.451054, 2.847840, 66.625000
0.451054, 2.847840, 66.750000
0.451054, 2.847840, 66.875000
0.420983, 2.657984, 67.000000
0.420983, 2.657984, 67.125000
0.420983, 2.657984, 67.250000
0.451054, 2.847840, 67.375000
0.390913, 2.468128, 67.500000
0.390913, 2.468128, 67.625000
0.390913, 2.468128, 67.750000
0.390913, 2.468128, 67.875000
0.390913, 2.468128, 68.000000
0.360843, 2.278272, 68.125000
0.390913, 2.468128, 68.250000
0.360843, 2.278272, 68.375000
0.360843, 2.278272, 68.500000
0.360843, 2.278272, 68.625000
0.360843, 2.278272, 68.750000
0.390913, 2.468128, 68.875000
0.390913, 2.468128, 69.000000
0.390913, 2.468128, 69.125000
0.390913, 2.468128, 69.250000
0.390913, 2.468128, 69.375000
0.420983, 2.657984, 69.500000
0.420983, 2.657984, 69.625000
0.420983, 2.657984, 69.750000
0.451054, 2.847840, 69.875000
0.451054, 2.847840, 70.000000
0.481124, 3.037696, 70.125000
0.481124, 3.037696, 70.250000
0.481124, 3.037696, 70.375000
0.541264, 3.417408, 70.500000
0.511194, 3.227552, 70.625000
0.511194, 3.227552, 70.750000
0.511194, 3.227552, 70.875000
0.571334, 3.607264, 71.000000
0.571334, 3.607264, 71.125000
0.571334, 3.607264, 71.250000
0.601405, 3.797120, 71.375000
0.601405, 3.797120, 71.500000
0.601405, 3.797120, 71.625000
0.631475, 3.986976, 71.750000
0.661545, 4.176832, 71.875000
0.661545, 4.176832, 72.000000
0.661545, 4.176832, 72.125000
0.691615, 4.366688, 72.250000
0.691615, 4.366688, 72.375000
0.721686, 4.556544, 72.500000
0.721686, 4.556544, 72.625000
0.751756, 4.746400, 72.750000
0.751756, 4.746400, 72.875000
0.751756, 4.746400, 73.000000
0.811896, 5.126112, 73.125000
0.811896, 5.126112, 73.250000
0.811896, 5.126112, 73.375000
0.841967, 5.315968, 73.500000
0.872037, 5.505824, 73.625000
0.872037, 5.505824, 73.750000
0.902107, 5.695680, 73.875000
0.902107, 5.695680, 74.000000
0.932177, 5.885536, 74.125000
0.932177, 5.885536, 74.250000
0.932177, 5.885536, 74.375000
0.962248, 6.075392, 74.500000
0.992318, 6.265248, 74.625000
1.022388, 6.455104, 74.750000
1.022388, 6.455104, 74.875000
1.022388, 6.455104, 75.000000
1.022388, 6.455104, 75.125000
1.022388, 6.455104, 75.250000
1.052458, 6.644960, 75.375000
1.052458, 6.644960, 75.500000
1.052458, 6.644960, 75.625000
1.052458, 6.644960, 75.750000
1.112599, 7.024672, 75.875000
