-33.034077, -11.893000, 36.000000
-33.034077, -11.893000, 36.125000
-33.034077, -11.893000, 36.250000
-33.172295, -11.942761, 36.375000
-33.034077, -11.893000, 36.500000
-33.034077, -11.893000, 36.625000
-33.172295, -11.942761, 36.750000
-33.172295, -11.942761, 36.875000
-33.172295, -11.942761, 37.000000
-33.172295, -11.942761, 37.125000
-33.172295, -11.942761, 37.250000
-33.172295, -11.942761, 37.375000
-33.172295, -11.942761, 37.500000
-33.172295, -11.942761, 37.625000
-33.172295, -11.942761, 37.750000
-33.310513, -11.992523, 37.875000
-33.310513, -11.992523, 38.000000
-33.310513, -11.992523, 38.125000
-33.310513, -11.992523, 38.250000
-33.310513, -11.992523, 38.375000
-33.310513, -11.992523, 38.500000
-33.310513, -11.992523, 38.625000
-33.310513, -11.992523, 38.750000
-33.310513, -11.992523, 38.875000
-33.310513, -11.992523, 39.000000
-33.448731, -12.042284, 39.125000
-33.310513, -11.992523, 39.250000
-33.310513, -11.992523, 39.375000
-33.448731, -12.042284, 39.500000
-33.448731, -12.042284, 39.625000
-33.448731, -12.042284, 39.750000
-33.448731, -12.042284, 39.875000
-33.448731, -12.042284, 40.000000
-33.448731, -12.042284, 40.125000
-33.310513, -11.992523, 40.250000
-33.310513, -11.992523, 40.375000
-33.448731, -12.042284, 40.500000
-33.586949, -12.092046, 40.625000
-33.448731, -12.042284, 40.750000
-33.448731, -12.042284, 40.875000
-33.448731, -12.042284, 41.000000
-33.448731, -12.042284, 41.125000
-33.448731, -12.042284, 41.250000
-33.448731, -12.042284, 41.375000
-33.448731, -12.042284, 41.500000
-33.448731, -12.042284, 41.625000
-33.448731, -12.042284, 41.750000
-33.448731, -12.042284, 41.875000
-33.448731, -12.042284, 42.000000
-33.448731, -12.042284, 42.125000
-33.448731, -12.042284, 42.250000
-33.448731, -12.042284, 42.375000
-33.448731, -12.042284, 42.500000
-33.448731, -12.042284, 42.625000
-33.310513, -11.992523, 42.750000
-33.310513, -11.992523, 42.875000
-33.448731, -12.042284, 43.000000
-33.448731, -12.042284, 43.125000
-33.448731, -12.042284, 43.250000
-33.448731, -12.042284, 43.375000
-33.448731, -12.042284, 43.500000
-33.310513, -11.992523, 43.625000
-33.310513, -11.992523, 43.750000
-33.310513, -11.992523, 43.875000
-33.310513, -11.992523, 44.000000
-33.310513, -11.992523, 44.125000
-33.310513, -11.992523, 44.250000
-33.310513, -11.992523, 44.375000
-33.310513, -11.992523, 44.500000
-33.310513, -11.992523, 44.625000
-33.310513, -11.992523, 44.750000
-33.310513, -11.992523, 44.875000
-33.310513, -11.992523, 45.000000
-33.172295, -11.942761, 45.125000
-33.310513, -11.992523, 45.250000
-33.172295, -11.942761, 45.375000
-33.172295, -11.942761, 45.500000
-33.172295, -11.942761, 45.625000
-33.310513, -11.992523, 45.750000
-33.172295, -11.942761, 45.875000
-33.172295, -11.942761, 46.000000
-33.172295, -11.942761, 46.125000
-33.034077, -11.893000, 46.250000
-33.172295, -11.942761, 46.375000
-33.172295, -11.942761, 46.500000
-33.034077, -11.893000, 46.625000
-33.172295, -11.942761, 46.750000
-33.034077, -11.893000, 46.875000
-33.034077, -11.893000, 47.000000
-33.034077, -11.893000, 47.125000
-33.034077, -11.893000, 47.250000
-32.895860, -11.843238, 47.375000
-32.895860, -11.843238, 47.500000
-32.895860, -11.843238, 47.625000
-33.034077, -11.893000, 47.750000
-32.895860, -11.843238, 47.875000
-32.895860, -11.843238, 48.000000
-32.895860, -11.843238, 48.125000
-32.895860, -11.843238, 48.250000
-32.757642, -11.793477, 48.375000
-32.895860, -11.843238, 48.500000
-32.757642, -11.793477, 48.625000
-32.757642, -11.793477, 48.750000
-32.757642, -11.793477, 48.875000
-32.757642, -11.793477, 49.000000
-32.757642, -11.793477, 49.125000
-32.757642, -11.793477, 49.250000
-32.757642, -11.793477, 49.375000
-32.757642, -11.793477, 49.500000
-32.619424, -11.743715, 49.625000
-32.481206, -11.693954, 49.750000
-32.481206, -11.693954, 49.875000
-32.481206, -11.693954, 50.000000
-32.481206, -11.693954, 50.125000
-32.481206, -11.693954, 50.250000
-32.342988, -11.644192, 50.375000
-32.342988, -11.644192, 50.500000
-32.342988, -11.644192, 50.625000
-32.342988, -11.644192, 50.750000
-32.342988, -11.644192, 50.875000
-32.204770, -11.594431, 51.000000
-32.204770, -11.594431, 51.125000
-32.204770, -11.594431, 51.250000
-32.204770, -11.594431, 51.375000
-32.204770, -11.594431, 51.500000
-32.204770, -11.594431, 51.625000
-32.066552, -11.544669, 51.750000
-32.066552, -11.544669, 51.875000
-32.066552, -11.544669, 52.000000
-31.928334, -11.494908, 52.125000
-31.928334, -11.494908, 52.250000
-31.928334, -11.494908, 52.375000
-31.928334, -11.494908, 52.500000
-31.928334, -11.494908, 52.625000
-31.928334, -11.494908, 52.750000
-31.651899, -11.395385, 52.875000
-31.651899, -11.395385, 53.000000
-31.651899, -11.395385, 53.125000
-31.651899, -11.395385, 53.250000
-31.513681, -11.345623, 53.375000
-31.513681, -11.345623, 53.500000
-31.513681, -11.345623, 53.625000
-31.375463, -11.295862, 53.750000
-31.375463, -11.295862, 53.875000
-31.375463, -11.295862, 54.000000
-31.375463, -11.295862, 54.125000
-31.237245, -11.246100, 54.250000
-31.237245, -11.246100, 54.375000
-31.099027, -11.196339, 54.500000
-31.237245, -11.246100, 54.625000
-31.099027, -11.196339, 54.750000
-31.099027, -11.196339, 54.875000
-31.099027, -11.196339, 55.000000
-30.960809, -11.146577, 55.125000
-30.960809, -11.146577, 55.250000
-30.822591, -11.096816, 55.375000
-30.822591, -11.096816, 55.500000
-30.822591, -11.096816, 55.625000
-30.822591, -11.096816, 55.750000
-30.684373, -11.047054, 55.875000
-30.546155, -10.997293, 56.000000
-30.546155, -10.997293, 56.125000
-30.546155, -10.997293, 56.250000
-30.407937, -10.947531, 56.375000
-30.407937, -10.947531, 56.500000
-30.407937, -10.947531, 56.625000
-30.407937, -10.947531, 56.750000
-30.269720, -10.897770, 56.875000
-30.131502, -10.848008, 57.000000
-30.131502, -10.848008, 57.125000
-30.131502, -10.848008, 57.250000
-30.131502, -10.848008, 57.375000
-29.993284, -10.798247, 57.500000
-29.855066, -10.748485, 57.625000
-29.855066, -10.748485, 57.750000
-29.716848, -10.698724, 57.875000
-29.716848, -10.698724, 58.000000
-29.716848, -10.698724, 58.125000
-29.578630, -10.648962, 58.250000
-29.578630, -10.648962, 58.375000
-29.440412, -10.599201, 58.500000
-29.440412, -10.599201, 58.625000
-29.302194, -10.549439, 58.750000
-29.302194, -10.549439, 58.875000
-29.163976, -10.499678, 59.000000
-29.163976, -10.499678, 59.125000
-29.025758, -10.449916, 59.250000
-29.025758, -10.449916, 59.375000
-29.025758, -10.449916, 59.500000
-28.887541, -10.400155, 59.625000
-28.749323, -10.350393, 59.750000
-28.749323, -10.350393, 59.875000
-28.611105, -10.300632, 60.000000
-28.472887, -10.250870, 60.125000
-28.472887, -10.250870, 60.250000
-28.472887, -10.250870, 60.375000
-28.196451, -10.151347, 60.500000
-28.196451, -10.151347, 60.625000
-28.058233, -10.101586, 60.750000
-28.058233, -10.101586, 60.875000
-28.196451, -10.151347, 61.000000
-27.920015, -10.051824, 61.125000
-27.781797, -10.002063, 61.250000
-27.781797, -10.002063, 61.375000
-27.643579, -9.952301, 61.500000
-27.643579, -9.952301, 61.625000
-27.505362, -9.902540, 61.750000
-27.505362, -9.902540, 61.875000
-27.367144, -9.852778, 62.000000
-27.228926, -9.803016, 62.125000
-27.090708, -9.753255, 62.250000
-27.090708, -9.753255, 62.375000
-26.952490, -9.703493, 62.500000
-26.814272, -9.653732, 62.625000
-26.676054, -9.603970, 62.750000
-26.537836, -9.554209, 62.875000
-26.537836, -9.554209, 63.000000
-26.399618, -9.504447, 63.125000
-26.261401, -9.454686, 63.250000
-26.123183, -9.404924, 63.375000
-25.984965, -9.355163, 63.500000
-25.846747, -9.305401, 63.625000
-25.708529, -9.255640, 63.750000
-25.570311, -9.205878, 63.875000
-25.570311, -9.205878, 64.000000
-25.432093, -9.156117, 64.125000
-25.293875, -9.106355, 64.250000
-25.155657, -9.056594, 64.375000
-25.017439, -9.006832, 64.500000
-24.879222, -8.957071, 64.625000
-24.741004, -8.907309, 64.750000
-24.464568, -8.807786, 64.875000
-24.602786, -8.857548, 65.000000
-24.188132, -8.708263, 65.125000
-24.049914, -8.658502, 65.250000
-23.911696, -8.608740, 65.375000
-23.635260, -8.509217, 65.500000
-23.635260, -8.509217, 65.625000
-23.497043, -8.459456, 65.750000
-23.497043, -8.459456, 65.875000
-23.220607, -8.359933, 66.000000
-23.220607, -8.359933, 66.125000
-23.082389, -8.310171, 66.250000
-23.082389, -8.310171, 66.375000
-22.944171, -8.260410, 66.500000
-22.944171, -8.260410, 66.625000
-22.805953, -8.210648, 66.750000
-22.667735, -8.160887, 66.875000
-22.667735, -8.160887, 67.000000
-22.253081, -8.011602, 67.125000
-21.838428, -7.862318, 67.250000
-21.423774, -7.713033, 67.375000
-21.285556, -7.663272, 67.500000
-21.147338, -7.613510, 67.625000
-20.870903, -7.513987, 67.750000
-20.870903, -7.513987, 67.875000
-20.870903, -7.513987, 68.000000
-20.732685, -7.464226, 68.125000
-20.732685, -7.464226, 68.250000
-20.594467, -7.414464, 68.375000
-20.456249, -7.364703, 68.500000
-20.456249, -7.364703, 68.625000
-20.318031, -7.314941, 68.750000
-20.179813, -7.265180, 68.875000
-20.179813, -7.265180, 69.000000
-19.903377, -7.165657, 69.125000
-19.903377, -7.165657, 69.250000
-19.765159, -7.115895, 69.375000
-19.626941, -7.066134, 69.500000
-19.350506, -6.966611, 69.625000
-19.350506, -6.966611, 69.750000
-19.074070, -6.867088, 69.875000
-18.797634, -6.767565, 70.000000
-18.659416, -6.717803, 70.125000
-18.521198, -6.668042, 70.250000
-18.521198, -6.668042, 70.375000
-18.382980, -6.618280, 70.500000
-18.244762, -6.568519, 70.625000
-18.244762, -6.568519, 70.750000
-17.968327, -6.468996, 70.875000
-17.968327, -6.468996, 71.000000
-17.830109, -6.419234, 71.125000
-17.691891, -6.369473, 71.250000
-17.553673, -6.319711, 71.375000
-17.415455, -6.269950, 71.500000
-17.415455, -6.269950, 71.625000
-17.277237, -6.220188, 71.750000
-17.277237, -6.220188, 71.875000
-17.139019, -6.170427, 72.000000
-17.139019, -6.170427, 72.125000
-17.139019, -6.170427, 72.250000
-17.277237, -6.220188, 72.375000
-17.139019, -6.170427, 72.500000
-17.277237, -6.220188, 72.625000
-17.277237, -6.220188, 72.750000
-17.415455, -6.269950, 72.875000
-17.553673, -6.319711, 73.000000
-17.691891, -6.369473, 73.125000
-17.691891, -6.369473, 73.250000
-17.691891, -6.369473, 73.375000
-17.691891, -6.369473, 73.500000
-17.830109, -6.419234, 73.625000
-17.968327, -6.468996, 73.750000
-18.106545, -6.518757, 73.875000
-18.244762, -6.568519, 74.000000
-18.244762, -6.568519, 74.125000
-18.382980, -6.618280, 74.250000
-18.382980, -6.618280, 74.375000
-18.659416, -6.717803, 74.500000
-18.797634, -6.767565, 74.625000
-18.935852, -6.817326, 74.750000
-18.935852, -6.817326, 74.875000
-19.074070, -6.867088, 75.000000
-19.212288, -6.916849, 75.125000
-19.350506, -6.966611, 75.250000
-19.488724, -7.016372, 75.375000
-19.488724, -7.016372, 75.500000
-19.626941, -7.066134, 75.625000
-19.903377, -7.165657, 75.750000
-19.903377, -7.165657, 75.875000
-20.041595, -7.215418, 76.000000
-20.179813, -7.265180, 76.125000
-20.318031, -7.314941, 76.250000
-20.456249, -7.364703, 76.375000
-20.594467, -7.414464, 76.500000
-20.732685, -7.464226, 76.625000
-20.732685, -7.464226, 76.750000
-20.870903, -7.513987, 76.875000
-21.147338, -7.613510, 77.000000
-21.285556, -7.663272, 77.125000
-21.423774, -7.713033, 77.250000
-21.423774, -7.713033, 77.375000
-21.561992, -7.762795, 77.500000
-21.700210, -7.812556, 77.625000
-21.976646, -7.912079, 77.750000
-22.114864, -7.961841, 77.875000
-22.114864, -7.961841, 78.000000
-22.391299, -8.061364, 78.125000
-22.391299, -8.061364, 78.250000
-22.529517, -8.111125, 78.375000
-22.805953, -8.210648, 78.500000
-22.805953, -8.210648, 78.625000
-22.944171, -8.260410, 78.750000
-22.944171, -8.260410, 78.875000
-23.082389, -8.310171, 79.000000
-23.220607, -8.359933, 79.125000
-23.358825, -8.409694, 79.250000
-23.358825, -8.409694, 79.375000
-23.635260, -8.509217, 79.500000
-24.188132, -8.708263, 79.625000
-24.188132, -8.708263, 79.750000
-24.326350, -8.758025, 79.875000
-24.602786, -8.857548, 80.000000
-24.602786, -8.857548, 80.125000
-24.741004, -8.907309, 80.250000
-25.017439, -9.006832, 80.375000
-25.293875, -9.106355, 80.500000
-25.708529, -9.255640, 80.625000
-25.570311, -9.205878, 80.750000
-25.432093, -9.156117, 80.875000
-26.123183, -9.404924, 81.000000
-25.678290, -10.166754, 19.875000
-25.541703, -10.112676, 20.000000
-25.678290, -10.166754, 20.125000
-25.814877, -10.220833, 20.250000
-25.678290, -10.166754, 20.375000
-25.814877, -10.220833, 20.500000
-25.814877, -10.220833, 20.625000
-25.951463, -10.274911, 20.750000
-26.088050, -10.328990, 20.875000
-26.224637, -10.383068, 21.000000
-26.361223, -10.437147, 21.125000
-26.361223, -10.437147, 21.250000
-26.497810, -10.491225, 21.375000
-26.634396, -10.545304, 21.500000
-26.770983, -10.599382, 21.625000
-26.907570, -10.653461, 21.750000
-26.907570, -10.653461, 21.875000
-27.044156, -10.707539, 22.000000
-27.180743, -10.761617, 22.125000
-27.180743, -10.761617, 22.250000
-27.317330, -10.815696, 22.375000
-27.453916, -10.869774, 22.500000
-27.453916, -10.869774, 22.625000
-27.727090, -10.977931, 22.750000
-27.727090, -10.977931, 22.875000
-27.863676, -11.032010, 23.000000
-27.863676, -11.032010, 23.125000
-27.863676, -11.032010, 23.250000
-27.863676, -11.032010, 23.375000
-28.000263, -11.086088, 23.500000
-28.136850, -11.140167, 23.625000
-28.273436, -11.194245, 23.750000
-28.273436, -11.194245, 23.875000
-28.410023, -11.248324, 24.000000
-28.546610, -11.302402, 24.125000
-28.546610, -11.302402, 24.250000
-28.683196, -11.356481, 24.375000
-28.683196, -11.356481, 24.500000
-28.683196, -11.356481, 24.625000
-28.819783, -11.410559, 24.750000
-28.819783, -11.410559, 24.875000
-28.956370, -11.464638, 25.000000
-28.956370, -11.464638, 25.125000
-29.092956, -11.518716, 25.250000
-29.092956, -11.518716, 25.375000
-29.092956, -11.518716, 25.500000
-29.229543, -11.572795, 25.625000
-29.366129, -11.626873, 25.750000
-29.366129, -11.626873, 25.875000
-29.502716, -11.680952, 26.000000
-29.502716, -11.680952, 26.125000
-29.639303, -11.735030, 26.250000
-29.639303, -11.735030, 26.375000
-29.639303, -11.735030, 26.500000
-29.639303, -11.735030, 26.625000
-29.775889, -11.789109, 26.750000
-29.775889, -11.789109, 26.875000
-29.912476, -11.843187, 27.000000
-29.912476, -11.843187, 27.125000
-29.912476, -11.843187, 27.250000
-30.049063, -11.897266, 27.375000
-30.185649, -11.951344, 27.500000
-30.185649, -11.951344, 27.625000
-30.322236, -12.005423, 27.750000
-30.322236, -12.005423, 27.875000
-30.458823, -12.059501, 28.000000
-30.458823, -12.059501, 28.125000
-30.458823, -12.059501, 28.250000
-30.458823, -12.059501, 28.375000
-30.458823, -12.059501, 28.500000
-30.595409, -12.113579, 28.625000
-30.595409, -12.113579, 28.750000
-30.595409, -12.113579, 28.875000
-30.595409, -12.113579, 29.000000
-30.731996, -12.167658, 29.125000
-30.731996, -12.167658, 29.250000
-30.731996, -12.167658, 29.375000
-30.868583, -12.221736, 29.500000
-31.005169, -12.275815, 29.625000
-31.005169, -12.275815, 29.750000
-31.141756, -12.329893, 29.875000
-31.141756, -12.329893, 30.000000
-31.141756, -12.329893, 30.125000
-31.141756, -12.329893, 30.250000
-31.141756, -12.329893, 30.375000
-31.278343, -12.383972, 30.500000
-31.278343, -12.383972, 30.625000
-31.278343, -12.383972, 30.750000
-31.414929, -12.438050, 30.875000
-31.414929, -12.438050, 31.000000
-31.551516, -12.492129, 31.125000
-31.551516, -12.492129, 31.250000
-31.551516, -12.492129, 31.375000
-31.551516, -12.492129, 31.500000
-31.688102, -12.546207, 31.625000
-31.688102, -12.546207, 31.750000
-31.824689, -12.600286, 31.875000
-31.824689, -12.600286, 32.000000
-31.824689, -12.600286, 32.125000
-31.824689, -12.600286, 32.250000
-31.824689, -12.600286, 32.375000
-31.961276, -12.654364, 32.500000
-31.961276, -12.654364, 32.625000
-31.961276, -12.654364, 32.750000
-31.961276, -12.654364, 32.875000
-32.097862, -12.708443, 33.000000
-32.097862, -12.708443, 33.125000
-32.097862, -12.708443, 33.250000
-32.097862, -12.708443, 33.375000
-32.097862, -12.708443, 33.500000
-32.234449, -12.762521, 33.625000
-32.234449, -12.762521, 33.750000
-32.234449, -12.762521, 33.875000
-32.234449, -12.762521, 34.000000
-32.234449, -12.762521, 34.125000
-32.371036, -12.816600, 34.250000
-32.371036, -12.816600, 34.375000
-32.371036, -12.816600, 34.500000
-32.371036, -12.816600, 34.625000
-32.371036, -12.816600, 34.750000
-32.507622, -12.870678, 34.875000
-32.371036, -12.816600, 35.000000
-32.507622, -12.870678, 35.125000
-32.507622, -12.870678, 35.250000
-32.507622, -12.870678, 35.375000
-32.507622, -12.870678, 35.500000
-32.507622, -12.870678, 35.625000
-32.507622, -12.870678, 35.750000
-32.644209, -12.924757, 35.875000
-32.644209, -12.924757, 36.000000
-32.644209, -12.924757, 36.125000
-32.644209, -12.924757, 36.250000
-32.644209, -12.924757, 36.375000
-32.644209, -12.924757, 36.500000
-32.780796, -12.978835, 36.625000
-32.780796, -12.978835, 36.750000
-32.780796, -12.978835, 36.875000
-32.780796, -12.978835, 37.000000
-32.780796, -12.978835, 37.125000
-32.780796, -12.978835, 37.250000
-32.780796, -12.978835, 37.375000
-32.917382, -13.032914, 37.500000
-32.780796, -12.978835, 37.625000
-32.780796, -12.978835, 37.750000
-32.917382, -13.032914, 37.875000
-32.917382, -13.032914, 38.000000
-32.917382, -13.032914, 38.125000
-32.917382, -13.032914, 38.250000
-32.917382, -13.032914, 38.375000
-32.917382, -13.032914, 38.500000
-32.917382, -13.032914, 38.625000
-33.053969, -13.086992, 38.750000
-32.917382, -13.032914, 38.875000
-32.917382, -13.032914, 39.000000
-33.053969, -13.086992, 39.125000
-33.053969, -13.086992, 39.250000
-33.053969, -13.086992, 39.375000
-33.053969, -13.086992, 39.500000
-33.053969, -13.086992, 39.625000
-33.053969, -13.086992, 39.750000
-33.053969, -13.086992, 39.875000
-33.053969, -13.086992, 40.000000
-33.053969, -13.086992, 40.125000
-33.053969, -13.086992, 40.250000
-33.053969, -13.086992, 40.375000
-33.053969, -13.086992, 40.500000
-33.053969, -13.086992, 40.625000
-33.053969, -13.086992, 40.750000
-33.053969, -13.086992, 40.875000
-33.053969, -13.086992, 41.000000
-33.053969, -13.086992, 41.125000
-33.053969, -13.086992, 41.250000
-33.053969, -13.086992, 41.375000
-33.053969, -13.086992, 41.500000
-33.053969, -13.086992, 41.625000
-33.053969, -13.086992, 41.750000
-33.053969, -13.086992, 41.875000
-33.053969, -13.086992, 42.000000
-33.053969, -13.086992, 42.125000
-33.053969, -13.086992, 42.250000
-33.053969, -13.086992, 42.375000
-33.053969, -13.086992, 42.500000
-33.053969, -13.086992, 42.625000
-33.053969, -13.086992, 42.750000
-33.053969, -13.086992, 42.875000
-33.053969, -13.086992, 43.000000
-33.053969, -13.086992, 43.125000
-33.053969, -13.086992, 43.250000
-33.053969, -13.086992, 43.375000
-33.053969, -13.086992, 43.500000
-33.053969, -13.086992, 43.625000
-33.053969, -13.086992, 43.750000
-32.917382, -13.032914, 43.875000
-32.917382, -13.032914, 44.000000
-33.053969, -13.086992, 44.125000
-33.053969, -13.086992, 44.250000
-33.053969, -13.086992, 44.375000
-32.917382, -13.032914, 44.500000
-32.917382, -13.032914, 44.625000
-32.917382, -13.032914, 44.750000
-32.917382, -13.032914, 44.875000
-32.917382, -13.032914, 45.000000
-32.917382, -13.032914, 45.125000
-32.917382, -13.032914, 45.250000
-32.780796, -12.978835, 45.375000
-32.917382, -13.032914, 45.500000
-32.780796, -12.978835, 45.625000
-32.780796, -12.978835, 45.750000
-32.780796, -12.978835, 45.875000
-32.780796, -12.978835, 46.000000
-32.917382, -13.032914, 46.125000
-32.917382, -13.032914, 46.250000
-32.780796, -12.978835, 46.375000
-32.780796, -12.978835, 46.500000
-32.780796, -12.978835, 46.625000
-32.780796, -12.978835, 46.750000
-32.780796, -12.978835, 46.875000
-32.780796, -12.978835, 47.000000
-32.644209, -12.924757, 47.125000
-32.644209, -12.924757, 47.250000
-32.644209, -12.924757, 47.375000
-32.644209, -12.924757, 47.500000
-32.644209, -12.924757, 47.625000
-32.644209, -12.924757, 47.750000
-32.644209, -12.924757, 47.875000
-32.644209, -12.924757, 48.000000
-32.780796, -12.978835, 48.125000
-32.644209, -12.924757, 48.250000
-32.507622, -12.870678, 48.375000
-32.371036, -12.816600, 48.500000
-32.507622, -12.870678, 48.625000
-32.371036, -12.816600, 48.750000
-32.371036, -12.816600, 48.875000
-32.371036, -12.816600, 49.000000
-32.371036, -12.816600, 49.125000
-32.371036, -12.816600, 49.250000
-32.371036, -12.816600, 49.375000
-32.234449, -12.762521, 49.500000
-32.234449, -12.762521, 49.625000
-32.371036, -12.816600, 49.750000
-32.234449, -12.762521, 49.875000
-32.234449, -12.762521, 50.000000
-32.234449, -12.762521, 50.125000
-32.234449, -12.762521, 50.250000
-32.097862, -12.708443, 50.375000
-32.097862, -12.708443, 50.500000
-32.097862, -12.708443, 50.625000
-32.097862, -12.708443, 50.750000
-31.961276, -12.654364, 50.875000
-31.961276, -12.654364, 51.000000
-31.824689, -12.600286, 51.125000
-31.824689, -12.600286, 51.250000
-31.824689, -12.600286, 51.375000
-31.961276, -12.654364, 51.500000
-31.824689, -12.600286, 51.625000
-31.824689, -12.600286, 51.750000
-31.688102, -12.546207, 51.875000
-31.688102, -12.546207, 52.000000
-31.688102, -12.546207, 52.125000
-31.551516, -12.492129, 52.250000
-31.551516, -12.492129, 52.375000
-31.551516, -12.492129, 52.500000
-31.551516, -12.492129, 52.625000
-31.551516, -12.492129, 52.750000
-31.414929, -12.438050, 52.875000
-31.414929, -12.438050, 53.000000
-31.278343, -12.383972, 53.125000
-31.278343, -12.383972, 53.250000
-31.278343, -12.383972, 53.375000
-31.278343, -12.383972, 53.500000
-31.278343, -12.383972, 53.625000
-31.141756, -12.329893, 53.750000
-31.141756, -12.329893, 53.875000
-31.141756, -12.329893, 54.000000
-31.005169, -12.275815, 54.125000
-31.005169, -12.275815, 54.250000
-31.005169, -12.275815, 54.375000
-31.005169, -12.275815, 54.500000
-30.731996, -12.167658, 54.625000
-30.731996, -12.167658, 54.750000
-30.731996, -12.167658, 54.875000
-30.731996, -12.167658, 55.000000
-30.731996, -12.167658, 55.125000
-30.595409, -12.113579, 55.250000
-30.595409, -12.113579, 55.375000
-30.595409, -12.113579, 55.500000
-30.458823, -12.059501, 55.625000
-30.458823, -12.059501, 55.750000
-30.458823, -12.059501, 55.875000
-30.185649, -11.951344, 56.000000
-30.322236, -12.005423, 56.125000
-30.185649, -11.951344, 56.250000
-30.185649, -11.951344, 56.375000
-30.185649, -11.951344, 56.500000
-30.185649, -11.951344, 56.625000
-30.049063, -11.897266, 56.750000
-29.912476, -11.843187, 56.875000
-29.912476, -11.843187, 57.000000
-29.775889, -11.789109, 57.125000
-29.775889, -11.789109, 57.250000
-29.775889, -11.789109, 57.375000
-29.639303, -11.735030, 57.500000
-29.639303, -11.735030, 57.625000
-29.502716, -11.680952, 57.750000
-29.502716, -11.680952, 57.875000
-29.366129, -11.626873, 58.000000
-29.366129, -11.626873, 58.125000
-29.229543, -11.572795, 58.250000
-29.229543, -11.572795, 58.375000
-29.092956, -11.518716, 58.500000
-29.092956, -11.518716, 58.625000
-29.092956, -11.518716, 58.750000
-29.092956, -11.518716, 58.875000
-28.956370, -11.464638, 59.000000
-28.819783, -11.410559, 59.125000
-28.819783, -11.410559, 59.250000
-28.683196, -11.356481, 59.375000
-28.683196, -11.356481, 59.500000
-28.683196, -11.356481, 59.625000
-28.546610, -11.302402, 59.750000
-28.410023, -11.248324, 59.875000
-28.273436, -11.194245, 60.000000
-28.273436, -11.194245, 60.125000
-28.136850, -11.140167, 60.250000
-28.136850, -11.140167, 60.375000
-28.136850, -11.140167, 60.500000
-28.000263, -11.086088, 60.625000
-27.863676, -11.032010, 60.750000
-27.863676, -11.032010, 60.875000
-27.727090, -10.977931, 61.000000
-27.727090, -10.977931, 61.125000
-27.590503, -10.923853, 61.250000
-27.453916, -10.869774, 61.375000
-27.453916, -10.869774, 61.500000
-27.317330, -10.815696, 61.625000
-27.317330, -10.815696, 61.750000
-27.044156, -10.707539, 61.875000
-27.044156, -10.707539, 62.000000
-27.044156, -10.707539, 62.125000
-26.907570, -10.653461, 62.250000
-26.634396, -10.545304, 62.375000
-26.634396, -10.545304, 62.500000
-26.634396, -10.545304, 62.625000
-26.497810, -10.491225, 62.750000
-26.361223, -10.437147, 62.875000
-26.224637, -10.383068, 63.000000
-26.088050, -10.328990, 63.125000
-25.814877, -10.220833, 63.250000
-25.814877, -10.220833, 63.375000
-25.678290, -10.166754, 63.500000
-25.541703, -10.112676, 63.625000
-25.405117, -10.058597, 63.750000
-25.405117, -10.058597, 63.875000
-25.268530, -10.004519, 64.000000
-25.131943, -9.950440, 64.125000
-24.995357, -9.896362, 64.250000
-24.858770, -9.842283, 64.375000
-24.858770, -9.842283, 64.500000
-24.722183, -9.788205, 64.625000
-24.449010, -9.680048, 64.750000
-24.449010, -9.680048, 64.875000
-24.312423, -9.625969, 65.000000
-24.039250, -9.517812, 65.125000
-23.902664, -9.463734, 65.250000
-23.902664, -9.463734, 65.375000
-23.629490, -9.355577, 65.500000
-23.492904, -9.301499, 65.625000
-23.356317, -9.247420, 65.750000
-23.356317, -9.247420, 65.875000
-23.219730, -9.193342, 66.000000
-23.219730, -9.193342, 66.125000
-23.219730, -9.193342, 66.250000
-23.083144, -9.139263, 66.375000
-23.083144, -9.139263, 66.500000
-22.946557, -9.085185, 66.625000
-22.809970, -9.031106, 66.750000
-22.673384, -8.977028, 66.875000
-22.673384, -8.977028, 67.000000
-20.624584, -8.165850, 67.125000
-21.580690, -8.544400, 67.250000
-21.034344, -8.328086, 67.375000
-20.897757, -8.274007, 67.500000
-20.897757, -8.274007, 67.625000
-20.761171, -8.219929, 67.750000
-20.761171, -8.219929, 67.875000
-20.487997, -8.111772, 68.000000
-20.487997, -8.111772, 68.125000
-20.624584, -8.165850, 68.250000
-20.351411, -8.057693, 68.375000
-20.351411, -8.057693, 68.500000
-20.214824, -8.003615, 68.625000
-20.214824, -8.003615, 68.750000
-19.941651, -7.895458, 68.875000
-19.941651, -7.895458, 69.000000
-19.805064, -7.841380, 69.125000
-19.668477, -7.787301, 69.250000
-19.531891, -7.733223, 69.375000
-19.395304, -7.679144, 69.500000
-19.258717, -7.625066, 69.625000
-18.985544, -7.516909, 69.750000
-18.848958, -7.462830, 69.875000
-18.575784, -7.354673, 70.000000
-18.439198, -7.300595, 70.125000
-18.439198, -7.300595, 70.250000
-18.302611, -7.246516, 70.375000
-18.166024, -7.192438, 70.500000
-18.166024, -7.192438, 70.625000
-18.029438, -7.138359, 70.750000
-17.892851, -7.084281, 70.875000
-17.756264, -7.030202, 71.000000
-17.619678, -6.976124, 71.125000
-17.483091, -6.922045, 71.250000
-17.483091, -6.922045, 71.375000
-17.346504, -6.867967, 71.500000
-17.209918, -6.813888, 71.625000
-17.209918, -6.813888, 71.750000
-17.209918, -6.813888, 71.875000
-17.073331, -6.759810, 72.000000
-17.073331, -6.759810, 72.125000
-17.073331, -6.759810, 72.250000
-17.073331, -6.759810, 72.375000
-17.073331, -6.759810, 72.500000
-17.073331, -6.759810, 72.625000
-17.073331, -6.759810, 72.750000
-17.209918, -6.813888, 72.875000
-17.209918, -6.813888, 73.000000
-17.346504, -6.867967, 73.125000
-17.483091, -6.922045, 73.250000
-17.483091, -6.922045, 73.375000
-17.619678, -6.976124, 73.500000
-17.756264, -7.030202, 73.625000
-17.756264, -7.030202, 73.750000
-17.892851, -7.084281, 73.875000
-18.029438, -7.138359, 74.000000
-18.029438, -7.138359, 74.125000
-18.302611, -7.246516, 74.250000
-18.302611, -7.246516, 74.375000
-18.575784, -7.354673, 74.500000
-18.575784, -7.354673, 74.625000
-18.712371, -7.408752, 74.750000
-18.712371, -7.408752, 74.875000
-18.848958, -7.462830, 75.000000
-19.122131, -7.570987, 75.125000
-19.122131, -7.570987, 75.250000
-19.258717, -7.625066, 75.375000
-19.395304, -7.679144, 75.500000
-19.531891, -7.733223, 75.625000
-19.531891, -7.733223, 75.750000
-19.805064, -7.841380, 75.875000
-19.805064, -7.841380, 76.000000
-19.941651, -7.895458, 76.125000
-20.078237, -7.949537, 76.250000
-20.214824, -8.003615, 76.375000
-20.351411, -8.057693, 76.500000
-20.624584, -8.165850, 76.625000
-20.624584, -8.165850, 76.750000
-20.761171, -8.219929, 76.875000
-20.897757, -8.274007, 77.000000
-20.897757, -8.274007, 77.125000
-21.170931, -8.382164, 77.250000
-21.307517, -8.436243, 77.375000
-21.444104, -8.490321, 77.500000
-21.444104, -8.490321, 77.625000
-21.580690, -8.544400, 77.750000
-21.990450, -8.706635, 77.875000
-21.990450, -8.706635, 78.000000
-22.263624, -8.814792, 78.125000
-22.127037, -8.760714, 78.250000
-22.400210, -8.868871, 78.375000
-22.536797, -8.922949, 78.500000
-22.673384, -8.977028, 78.625000
-22.673384, -8.977028, 78.750000
-22.809970, -9.031106, 78.875000
-22.946557, -9.085185, 79.000000
-23.083144, -9.139263, 79.125000
-23.219730, -9.193342, 79.250000
-23.356317, -9.247420, 79.375000
-23.492904, -9.301499, 79.500000
-23.629490, -9.355577, 79.625000
-24.039250, -9.517812, 79.750000
-24.039250, -9.517812, 79.875000
-24.175837, -9.571891, 80.000000
-24.175837, -9.571891, 80.125000
-24.175837, -9.571891, 80.250000
-24.175837, -9.571891, 80.375000
-25.268530, -10.004519, 80.500000
-25.268530, -10.004519, 80.625000
-25.268530, -10.004519, 80.750000
-25.951463, -10.274911, 80.875000
-25.481094, -11.026654, 19.875000
-25.615915, -11.084996, 20.000000
-25.615915, -11.084996, 20.125000
-25.615915, -11.084996, 20.250000
-25.615915, -11.084996, 20.375000
-25.750736, -11.143338, 20.500000
-25.076633, -10.851628, 20.625000
-25.750736, -11.143338, 20.750000
-25.885556, -11.201680, 20.875000
-26.020377, -11.260023, 21.000000
-26.290018, -11.376707, 21.125000
-26.290018, -11.376707, 21.250000
-26.559659, -11.493391, 21.375000
-26.559659, -11.493391, 21.500000
-26.559659, -11.493391, 21.625000
-26.694480, -11.551733, 21.750000
-26.829300, -11.610075, 21.875000
-26.964121, -11.668417, 22.000000
-26.964121, -11.668417, 22.125000
-26.964121, -11.668417, 22.250000
-27.233762, -11.785101, 22.375000
-27.233762, -11.785101, 22.500000
-27.368583, -11.843443, 22.625000
-27.368583, -11.843443, 22.750000
-27.503403, -11.901785, 22.875000
-27.638224, -11.960128, 23.000000
-27.638224, -11.960128, 23.125000
-27.638224, -11.960128, 23.250000
-27.773045, -12.018470, 23.375000
-27.773045, -12.018470, 23.500000
-27.907865, -12.076812, 23.625000
-28.042686, -12.135154, 23.750000
-28.042686, -12.135154, 23.875000
-28.177507, -12.193496, 24.000000
-28.312327, -12.251838, 24.125000
-28.312327, -12.251838, 24.250000
-28.447148, -12.310180, 24.375000
-28.447148, -12.310180, 24.500000
-28.581968, -12.368522, 24.625000
-28.581968, -12.368522, 24.750000
-28.716789, -12.426864, 24.875000
-28.716789, -12.426864, 25.000000
-28.851610, -12.485206, 25.125000
-28.851610, -12.485206, 25.250000
-28.851610, -12.485206, 25.375000
-28.986430, -12.543548, 25.500000
-29.121251, -12.601891, 25.625000
-29.121251, -12.601891, 25.750000
-29.121251, -12.601891, 25.875000
-29.256071, -12.660233, 26.000000
-29.390892, -12.718575, 26.125000
-29.390892, -12.718575, 26.250000
-29.390892, -12.718575, 26.375000
-29.525713, -12.776917, 26.500000
-29.525713, -12.776917, 26.625000
-29.525713, -12.776917, 26.750000
-29.525713, -12.776917, 26.875000
-29.660533, -12.835259, 27.000000
-29.660533, -12.835259, 27.125000
-29.795354, -12.893601, 27.250000
-29.930174, -12.951943, 27.375000
-29.930174, -12.951943, 27.500000
-29.930174, -12.951943, 27.625000
-30.064995, -13.010285, 27.750000
-30.064995, -13.010285, 27.875000
-30.064995, -13.010285, 28.000000
-30.199816, -13.068627, 28.125000
-30.199816, -13.068627, 28.250000
-30.334636, -13.126969, 28.375000
-30.334636, -13.126969, 28.500000
-30.334636, -13.126969, 28.625000
-30.334636, -13.126969, 28.750000
-30.469457, -13.185311, 28.875000
-30.469457, -13.185311, 29.000000
-30.469457, -13.185311, 29.125000
-30.604277, -13.243653, 29.250000
-30.604277, -13.243653, 29.375000
-30.604277, -13.243653, 29.500000
-30.739098, -13.301996, 29.625000
-30.739098, -13.301996, 29.750000
-30.739098, -13.301996, 29.875000
-30.873919, -13.360338, 30.000000
-30.873919, -13.360338, 30.125000
-31.008739, -13.418680, 30.250000
-31.008739, -13.418680, 30.375000
-31.008739, -13.418680, 30.500000
-31.008739, -13.418680, 30.625000
-31.143560, -13.477022, 30.750000
-31.278380, -13.535364, 30.875000
-31.278380, -13.535364, 31.000000
-31.278380, -13.535364, 31.125000
-31.278380, -13.535364, 31.250000
-31.278380, -13.535364, 31.375000
-31.413201, -13.593706, 31.500000
-31.413201, -13.593706, 31.625000
-31.413201, -13.593706, 31.750000
-31.548022, -13.652048, 31.875000
-31.548022, -13.652048, 32.000000
-31.548022, -13.652048, 32.125000
-31.548022, -13.652048, 32.250000
-31.682842, -13.710390, 32.375000
-31.682842, -13.710390, 32.500000
-31.682842, -13.710390, 32.625000
-31.817663, -13.768732, 32.750000
-31.817663, -13.768732, 32.875000
-31.817663, -13.768732, 33.000000
-31.817663, -13.768732, 33.125000
-31.952483, -13.827074, 33.250000
-31.952483, -13.827074, 33.375000
-31.952483, -13.827074, 33.500000
-31.952483, -13.827074, 33.625000
-31.952483, -13.827074, 33.750000
-31.952483, -13.827074, 33.875000
-31.952483, -13.827074, 34.000000
-32.087304, -13.885416, 34.125000
-32.087304, -13.885416, 34.250000
-32.222125, -13.943758, 34.375000
-32.222125, -13.943758, 34.500000
-32.222125, -13.943758, 34.625000
-32.087304, -13.885416, 34.750000
-32.222125, -13.943758, 34.875000
-32.222125, -13.943758, 35.000000
-32.222125, -13.943758, 35.125000
-32.222125, -13.943758, 35.250000
-32.356945, -14.002101, 35.375000
-32.356945, -14.002101, 35.500000
-32.356945, -14.002101, 35.625000
-32.356945, -14.002101, 35.750000
-32.356945, -14.002101, 35.875000
-32.356945, -14.002101, 36.000000
-32.491766, -14.060443, 36.125000
-32.626586, -14.118785, 36.250000
-32.491766, -14.060443, 36.375000
-32.491766, -14.060443, 36.500000
-32.626586, -14.118785, 36.625000
-32.491766, -14.060443, 36.750000
-32.491766, -14.060443, 36.875000
-32.491766, -14.060443, 37.000000
-32.491766, -14.060443, 37.125000
-32.626586, -14.118785, 37.250000
-32.491766, -14.060443, 37.375000
-32.626586, -14.118785, 37.500000
-32.761407, -14.177127, 37.625000
-32.761407, -14.177127, 37.750000
-32.626586, -14.118785, 37.875000
-32.626586, -14.118785, 38.000000
-32.626586, -14.118785, 38.125000
-32.761407, -14.177127, 38.250000
-32.626586, -14.118785, 38.375000
-32.626586, -14.118785, 38.500000
-32.761407, -14.177127, 38.625000
-32.761407, -14.177127, 38.750000
-32.761407, -14.177127, 38.875000
-32.761407, -14.177127, 39.000000
-32.626586, -14.118785, 39.125000
-32.896228, -14.235469, 39.250000
-32.761407, -14.177127, 39.375000
-32.761407, -14.177127, 39.500000
-32.761407, -14.177127, 39.625000
-32.896228, -14.235469, 39.750000
-32.896228, -14.235469, 39.875000
-32.896228, -14.235469, 40.000000
-32.896228, -14.235469, 40.125000
-32.896228, -14.235469, 40.250000
-32.761407, -14.177127, 40.375000
-32.761407, -14.177127, 40.500000
-32.896228, -14.235469, 40.625000
-32.761407, -14.177127, 40.750000
-32.896228, -14.235469, 40.875000
-33.031048, -14.293811, 41.000000
-32.896228, -14.235469, 41.125000
-32.761407, -14.177127, 41.250000
-32.896228, -14.235469, 41.375000
-32.896228, -14.235469, 41.500000
-32.896228, -14.235469, 41.625000
-32.896228, -14.235469, 41.750000
-32.896228, -14.235469, 41.875000
-32.896228, -14.235469, 42.000000
-32.761407, -14.177127, 42.125000
-32.896228, -14.235469, 42.250000
-32.896228, -14.235469, 42.375000
-32.896228, -14.235469, 42.500000
-32.896228, -14.235469, 42.625000
-32.761407, -14.177127, 42.750000
-32.896228, -14.235469, 42.875000
-32.896228, -14.235469, 43.000000
-32.761407, -14.177127, 43.125000
-32.761407, -14.177127, 43.250000
-32.896228, -14.235469, 43.375000
-32.761407, -14.177127, 43.500000
-32.761407, -14.177127, 43.625000
-32.896228, -14.235469, 43.750000
-32.761407, -14.177127, 43.875000
-32.761407, -14.177127, 44.000000
-32.761407, -14.177127, 44.125000
-32.761407, -14.177127, 44.250000
-32.761407, -14.177127, 44.375000
-32.761407, -14.177127, 44.500000
-32.626586, -14.118785, 44.625000
-32.761407, -14.177127, 44.750000
-32.626586, -14.118785, 44.875000
-32.761407, -14.177127, 45.000000
-32.626586, -14.118785, 45.125000
-32.626586, -14.118785, 45.250000
-32.626586, -14.118785, 45.375000
-32.761407, -14.177127, 45.500000
-32.626586, -14.118785, 45.625000
-32.626586, -14.118785, 45.750000
-32.626586, -14.118785, 45.875000
-32.626586, -14.118785, 46.000000
-32.626586, -14.118785, 46.125000
-32.491766, -14.060443, 46.250000
-32.491766, -14.060443, 46.375000
-32.491766, -14.060443, 46.500000
-32.491766, -14.060443, 46.625000
-32.491766, -14.060443, 46.750000
-32.491766, -14.060443, 46.875000
-32.491766, -14.060443, 47.000000
-32.491766, -14.060443, 47.125000
-32.491766, -14.060443, 47.250000
-32.491766, -14.060443, 47.375000
-32.491766, -14.060443, 47.500000
-32.491766, -14.060443, 47.625000
-32.491766, -14.060443, 47.750000
-32.356945, -14.002101, 47.875000
-32.356945, -14.002101, 48.000000
-32.356945, -14.002101, 48.125000
-32.222125, -13.943758, 48.250000
-32.222125, -13.943758, 48.375000
-32.222125, -13.943758, 48.500000
-32.222125, -13.943758, 48.625000
-32.356945, -14.002101, 48.750000
-32.222125, -13.943758, 48.875000
-32.087304, -13.885416, 49.000000
-32.087304, -13.885416, 49.125000
-32.222125, -13.943758, 49.250000
-32.087304, -13.885416, 49.375000
-32.087304, -13.885416, 49.500000
-31.952483, -13.827074, 49.625000
-31.952483, -13.827074, 49.750000
-31.952483, -13.827074, 49.875000
-31.952483, -13.827074, 50.000000
-32.087304, -13.885416, 50.125000
-31.952483, -13.827074, 50.250000
-31.817663, -13.768732, 50.375000
-31.817663, -13.768732, 50.500000
-31.817663, -13.768732, 50.625000
-31.952483, -13.827074, 50.750000
-31.817663, -13.768732, 50.875000
-31.682842, -13.710390, 51.000000
-31.682842, -13.710390, 51.125000
-31.682842, -13.710390, 51.250000
-31.682842, -13.710390, 51.375000
-31.548022, -13.652048, 51.500000
-31.682842, -13.710390, 51.625000
-31.548022, -13.652048, 51.750000
-31.413201, -13.593706, 51.875000
-31.413201, -13.593706, 52.000000
-31.548022, -13.652048, 52.125000
-31.413201, -13.593706, 52.250000
-31.413201, -13.593706, 52.375000
-31.413201, -13.593706, 52.500000
-31.278380, -13.535364, 52.625000
-31.278380, -13.535364, 52.750000
-31.278380, -13.535364, 52.875000
-31.143560, -13.477022, 53.000000
-31.143560, -13.477022, 53.125000
-31.143560, -13.477022, 53.250000
-31.143560, -13.477022, 53.375000
-31.008739, -13.418680, 53.500000
-31.008739, -13.418680, 53.625000
-30.873919, -13.360338, 53.750000
-30.873919, -13.360338, 53.875000
-30.873919, -13.360338, 54.000000
-30.873919, -13.360338, 54.125000
-30.739098, -13.301996, 54.250000
-30.739098, -13.301996, 54.375000
-30.739098, -13.301996, 54.500000
-30.739098, -13.301996, 54.625000
-30.604277, -13.243653, 54.750000
-30.604277, -13.243653, 54.875000
-30.604277, -13.243653, 55.000000
-30.604277, -13.243653, 55.125000
-30.469457, -13.185311, 55.250000
-30.334636, -13.126969, 55.375000
-30.334636, -13.126969, 55.500000
-30.334636, -13.126969, 55.625000
-30.199816, -13.068627, 55.750000
-30.199816, -13.068627, 55.875000
-30.064995, -13.010285, 56.000000
-30.064995, -13.010285, 56.125000
-30.064995, -13.010285, 56.250000
-30.064995, -13.010285, 56.375000
-29.930174, -12.951943, 56.500000
-29.930174, -12.951943, 56.625000
-29.795354, -12.893601, 56.750000
-29.795354, -12.893601, 56.875000
-29.795354, -12.893601, 57.000000
-29.795354, -12.893601, 57.125000
-29.660533, -12.835259, 57.250000
-29.525713, -12.776917, 57.375000
-29.525713, -12.776917, 57.500000
-29.390892, -12.718575, 57.625000
-29.390892, -12.718575, 57.750000
-29.256071, -12.660233, 57.875000
-29.256071, -12.660233, 58.000000
-29.121251, -12.601891, 58.125000
-29.121251, -12.601891, 58.250000
-28.986430, -12.543548, 58.375000
-28.986430, -12.543548, 58.500000
-28.986430, -12.543548, 58.625000
-28.851610, -12.485206, 58.750000
-28.851610, -12.485206, 58.875000
-28.716789, -12.426864, 59.000000
-28.716789, -12.426864, 59.125000
-28.716789, -12.426864, 59.250000
-28.581968, -12.368522, 59.375000
-28.447148, -12.310180, 59.500000
-28.447148, -12.310180, 59.625000
-28.312327, -12.251838, 59.750000
-28.177507, -12.193496, 59.875000
-28.177507, -12.193496, 60.000000
-28.177507, -12.193496, 60.125000
-28.042686, -12.135154, 60.250000
-28.042686, -12.135154, 60.375000
-27.907865, -12.076812, 60.500000
-27.773045, -12.018470, 60.625000
-27.773045, -12.018470, 60.750000
-27.638224, -11.960128, 60.875000
-27.638224, -11.960128, 61.000000
-27.638224, -11.960128, 61.125000
-27.368583, -11.843443, 61.250000
-27.368583, -11.843443, 61.375000
-27.233762, -11.785101, 61.500000
-27.368583, -11.843443, 61.625000
-27.098942, -11.726759, 61.750000
-27.098942, -11.726759, 61.875000
-26.829300, -11.610075, 62.000000
-26.829300, -11.610075, 62.125000
-26.829300, -11.610075, 62.250000
-26.559659, -11.493391, 62.375000
-26.424839, -11.435049, 62.500000
-26.290018, -11.376707, 62.625000
-26.155197, -11.318365, 62.750000
-26.155197, -11.318365, 62.875000
-26.020377, -11.260023, 63.000000
-25.750736, -11.143338, 63.125000
-25.615915, -11.084996, 63.250000
-25.615915, -11.084996, 63.375000
-25.481094, -11.026654, 63.500000
-25.481094, -11.026654, 63.625000
-25.481094, -11.026654, 63.750000
-25.211453, -10.909970, 63.875000
-25.076633, -10.851628, 64.000000
-24.941812, -10.793286, 64.125000
-24.806991, -10.734944, 64.250000
-24.806991, -10.734944, 64.375000
-24.537350, -10.618260, 64.500000
-24.267709, -10.501575, 64.625000
-24.132888, -10.443233, 64.750000
-23.998068, -10.384891, 64.875000
-23.863247, -10.326549, 65.000000
-23.728427, -10.268207, 65.125000
-23.593606, -10.209865, 65.250000
-23.458785, -10.151523, 65.375000
-23.458785, -10.151523, 65.500000
-23.323965, -10.093181, 65.625000
-23.189144, -10.034839, 65.750000
-23.189144, -10.034839, 65.875000
-23.189144, -10.034839, 66.000000
-23.054324, -9.976497, 66.125000
-23.189144, -10.034839, 66.250000
-23.054324, -9.976497, 66.375000
-22.919503, -9.918155, 66.500000
-22.649862, -9.801470, 66.625000
-22.649862, -9.801470, 66.750000
-22.515041, -9.743128, 66.875000
-22.380220, -9.684786, 67.000000
-22.110579, -9.568102, 67.125000
-21.840938, -9.451418, 67.250000
-20.762373, -8.984681, 67.375000
-20.762373, -8.984681, 67.500000
-20.897194, -9.043023, 67.625000
-20.627553, -8.926339, 67.750000
-20.627553, -8.926339, 67.875000
-20.492732, -8.867997, 68.000000
-20.357911, -8.809655, 68.125000
-20.223091, -8.751313, 68.250000
-20.223091, -8.751313, 68.375000
-20.088270, -8.692971, 68.500000
-20.088270, -8.692971, 68.625000
-19.953450, -8.634629, 68.750000
-19.818629, -8.576287, 68.875000
-19.683808, -8.517945, 69.000000
-19.548988, -8.459602, 69.125000
-19.414167, -8.401260, 69.250000
-19.414167, -8.401260, 69.375000
-19.279347, -8.342918, 69.500000
-19.009705, -8.226234, 69.625000
-18.874885, -8.167892, 69.750000
-18.874885, -8.167892, 69.875000
-18.740064, -8.109550, 70.000000
-18.605244, -8.051208, 70.125000
-18.470423, -7.992866, 70.250000
-18.335602, -7.934524, 70.375000
-18.200782, -7.876182, 70.500000
-18.200782, -7.876182, 70.625000
-18.065961, -7.817839, 70.750000
-17.931141, -7.759497, 70.875000
-17.796320, -7.701155, 71.000000
-17.661499, -7.642813, 71.125000
-17.661499, -7.642813, 71.250000
-17.526679, -7.584471, 71.375000
-17.391858, -7.526129, 71.500000
-17.257037, -7.467787, 71.625000
-17.122217, -7.409445, 71.750000
-17.122217, -7.409445, 71.875000
-17.122217, -7.409445, 72.000000
-17.122217, -7.409445, 72.125000
-16.987396, -7.351103, 72.250000
-16.987396, -7.351103, 72.375000
-16.987396, -7.351103, 72.500000
-17.122217, -7.409445, 72.625000
-17.122217, -7.409445, 72.750000
-17.122217, -7.409445, 72.875000
-17.257037, -7.467787, 73.000000
-17.257037, -7.467787, 73.125000
-17.391858, -7.526129, 73.250000
-17.391858, -7.526129, 73.375000
-17.526679, -7.584471, 73.500000
-17.661499, -7.642813, 73.625000
-17.796320, -7.701155, 73.750000
-17.796320, -7.701155, 73.875000
-18.065961, -7.817839, 74.000000
-18.065961, -7.817839, 74.125000
-18.200782, -7.876182, 74.250000
-18.335602, -7.934524, 74.375000
-18.470423, -7.992866, 74.500000
-18.605244, -8.051208, 74.625000
-18.605244, -8.051208, 74.750000
-18.874885, -8.167892, 74.875000
-18.874885, -8.167892, 75.000000
-18.874885, -8.167892, 75.125000
-19.144526, -8.284576, 75.250000
-19.144526, -8.284576, 75.375000
-19.279347, -8.342918, 75.500000
-19.414167, -8.401260, 75.625000
-19.548988, -8.459602, 75.750000
-19.683808, -8.517945, 75.875000
-19.683808, -8.517945, 76.000000
-19.818629, -8.576287, 76.125000
-19.953450, -8.634629, 76.250000
-20.088270, -8.692971, 76.375000
-20.223091, -8.751313, 76.500000
-20.357911, -8.809655, 76.625000
-20.492732, -8.867997, 76.750000
-20.627553, -8.926339, 76.875000
-20.762373, -8.984681, 77.000000
-20.897194, -9.043023, 77.125000
-21.032014, -9.101365, 77.250000
-21.166835, -9.159707, 77.375000
-21.436476, -9.276392, 77.500000
-21.571297, -9.334734, 77.625000
-21.571297, -9.334734, 77.750000
-21.706117, -9.393076, 77.875000
-21.840938, -9.451418, 78.000000
-21.975759, -9.509760, 78.125000
-22.110579, -9.568102, 78.250000
-22.245400, -9.626444, 78.375000
-22.245400, -9.626444, 78.500000
-22.515041, -9.743128, 78.625000
-22.649862, -9.801470, 78.750000
-22.649862, -9.801470, 78.875000
-22.919503, -9.918155, 79.000000
-22.919503, -9.918155, 79.125000
-22.919503, -9.918155, 79.250000
-23.054324, -9.976497, 79.375000
-23.054324, -9.976497, 79.500000
-23.189144, -10.034839, 79.625000
-23.054324, -9.976497, 79.750000
-23.458785, -10.151523, 79.875000
-23.323965, -10.093181, 80.000000
-23.323965, -10.093181, 80.125000
-23.458785, -10.151523, 80.250000
-23.593606, -10.209865, 80.375000
-25.122165, -11.821594, 20.000000
-24.590479, -11.571401, 20.125000
-24.590479, -11.571401, 20.250000
-25.255087, -11.884142, 20.375000
-25.388008, -11.946690, 20.500000
-25.388008, -11.946690, 20.625000
-25.520930, -12.009238, 20.750000
-25.520930, -12.009238, 20.875000
-25.653851, -12.071786, 21.000000
-25.786773, -12.134334, 21.125000
-25.919694, -12.196882, 21.250000
-26.052616, -12.259431, 21.375000
-26.052616, -12.259431, 21.500000
-26.185538, -12.321979, 21.625000
-26.318459, -12.384527, 21.750000
-26.451381, -12.447075, 21.875000
-26.584302, -12.509623, 22.000000
-26.717224, -12.572171, 22.125000
-26.584302, -12.509623, 22.250000
-26.717224, -12.572171, 22.375000
-26.850145, -12.634719, 22.500000
-26.983067, -12.697267, 22.625000
-27.115988, -12.759815, 22.750000
-27.115988, -12.759815, 22.875000
-27.248910, -12.822364, 23.000000
-27.381831, -12.884912, 23.125000
-27.381831, -12.884912, 23.250000
-27.514753, -12.947460, 23.375000
-27.514753, -12.947460, 23.500000
-27.514753, -12.947460, 23.625000
-27.647674, -13.010008, 23.750000
-27.780596, -13.072556, 23.875000
-27.780596, -13.072556, 24.000000
-27.913517, -13.135104, 24.125000
-28.046439, -13.197652, 24.250000
-28.046439, -13.197652, 24.375000
-28.046439, -13.197652, 24.500000
-28.179360, -13.260200, 24.625000
-28.179360, -13.260200, 24.750000
-28.179360, -13.260200, 24.875000
-28.312282, -13.322748, 25.000000
-28.312282, -13.322748, 25.125000
-28.445203, -13.385297, 25.250000
-28.578125, -13.447845, 25.375000
-28.578125, -13.447845, 25.500000
-28.578125, -13.447845, 25.625000
-28.711046, -13.510393, 25.750000
-28.843968, -13.572941, 25.875000
-28.843968, -13.572941, 26.000000
-28.843968, -13.572941, 26.125000
-28.976889, -13.635489, 26.250000
-29.109811, -13.698037, 26.375000
-29.109811, -13.698037, 26.500000
-29.109811, -13.698037, 26.625000
-29.242732, -13.760585, 26.750000
-29.242732, -13.760585, 26.875000
-29.375654, -13.823133, 27.000000
-29.375654, -13.823133, 27.125000
-29.508575, -13.885682, 27.250000
-29.508575, -13.885682, 27.375000
-29.641497, -13.948230, 27.500000
-29.508575, -13.885682, 27.625000
-29.641497, -13.948230, 27.750000
-29.641497, -13.948230, 27.875000
-29.774418, -14.010778, 28.000000
-29.774418, -14.010778, 28.125000
-29.774418, -14.010778, 28.250000
-29.907340, -14.073326, 28.375000
-29.907340, -14.073326, 28.500000
-29.907340, -14.073326, 28.625000
-30.040261, -14.135874, 28.750000
-30.040261, -14.135874, 28.875000
-30.040261, -14.135874, 29.000000
-30.173183, -14.198422, 29.125000
-30.173183, -14.198422, 29.250000
-30.306104, -14.260970, 29.375000
-30.306104, -14.260970, 29.500000
-30.306104, -14.260970, 29.625000
-30.306104, -14.260970, 29.750000
-30.571947, -14.386066, 29.875000
-30.439026, -14.323518, 30.000000
-30.439026, -14.323518, 30.125000
-30.571947, -14.386066, 30.250000
-30.571947, -14.386066, 30.375000
-30.704869, -14.448615, 30.500000
-30.571947, -14.386066, 30.625000
-30.704869, -14.448615, 30.750000
-30.704869, -14.448615, 30.875000
