-14.206220, -20.903818, 43.375000
-14.206220, -20.903818, 43.500000
-14.131451, -20.793798, 43.625000
-14.131451, -20.793798, 43.750000
-14.056681, -20.683778, 43.875000
-14.056681, -20.683778, 44.000000
-14.131451, -20.793798, 44.125000
-13.981911, -20.573758, 44.250000
-13.981911, -20.573758, 44.375000
-13.981911, -20.573758, 44.500000
-13.907142, -20.463738, 44.625000
-13.907142, -20.463738, 44.750000
-13.907142, -20.463738, 44.875000
-13.832372, -20.353718, 45.000000
-13.832372, -20.353718, 45.125000
-13.757603, -20.243698, 45.250000
-13.757603, -20.243698, 45.375000
-13.757603, -20.243698, 45.500000
-13.682833, -20.133677, 45.625000
-13.682833, -20.133677, 45.750000
-13.608063, -20.023657, 45.875000
-13.608063, -20.023657, 46.000000
-13.533294, -19.913637, 46.125000
-13.533294, -19.913637, 46.250000
-13.533294, -19.913637, 46.375000
-13.458524, -19.803617, 46.500000
-13.458524, -19.803617, 46.625000
-13.458524, -19.803617, 46.750000
-13.383755, -19.693597, 46.875000
-13.383755, -19.693597, 47.000000
-13.308985, -19.583577, 47.125000
-13.308985, -19.583577, 47.250000
-13.308985, -19.583577, 47.375000
-13.234216, -19.473557, 47.500000
-13.234216, -19.473557, 47.625000
-13.159446, -19.363537, 47.750000
-13.159446, -19.363537, 47.875000
-13.159446, -19.363537, 48.000000
-13.084676, -19.253517, 48.125000
-13.084676, -19.253517, 48.250000
-13.084676, -19.253517, 48.375000
-13.009907, -19.143497, 48.500000
-13.009907, -19.143497, 48.625000
-13.009907, -19.143497, 48.750000
-13.009907, -19.143497, 48.875000
-13.009907, -19.143497, 49.000000
-13.084676, -19.253517, 49.125000
-13.084676, -19.253517, 49.250000
-13.084676, -19.253517, 49.375000
-13.084676, -19.253517, 49.500000
-13.159446, -19.363537, 49.625000
-13.159446, -19.363537, 49.750000
-13.159446, -19.363537, 49.875000
-13.234216, -19.473557, 50.000000
-13.234216, -19.473557, 50.125000
-13.234216, -19.473557, 50.250000
-13.308985, -19.583577, 50.375000
-13.308985, -19.583577, 50.500000
-13.383755, -19.693597, 50.625000
-13.383755, -19.693597, 50.750000
-13.458524, -19.803617, 50.875000
-13.458524, -19.803617, 51.000000
-13.458524, -19.803617, 51.125000
-13.533294, -19.913637, 51.250000
-13.533294, -19.913637, 51.375000
-13.608063, -20.023657, 51.500000
-13.608063, -20.023657, 51.625000
-13.682833, -20.133677, 51.750000
-13.682833, -20.133677, 51.875000
-13.682833, -20.133677, 52.000000
-13.757603, -20.243698, 52.125000
-13.757603, -20.243698, 52.250000
-13.757603, -20.243698, 52.375000
-13.832372, -20.353718, 52.500000
-13.907142, -20.463738, 52.625000
-13.907142, -20.463738, 52.750000
-13.907142, -20.463738, 52.875000
-13.981911, -20.573758, 53.000000
-13.981911, -20.573758, 53.125000
-13.981911, -20.573758, 53.250000
-14.056681, -20.683778, 53.375000
-14.056681, -20.683778, 53.500000
-14.131451, -20.793798, 53.625000
-14.131451, -20.793798, 53.750000
-14.131451, -20.793798, 53.875000
-14.206220, -20.903818, 54.000000
-14.206220, -20.903818, 54.125000
-14.280990, -21.013838, 54.250000
-14.280990, -21.013838, 54.375000
-14.280990, -21.013838, 54.500000
-14.355759, -21.123858, 54.625000
-14.355759, -21.123858, 54.750000
-14.430529, -21.233878, 54.875000
-14.430529, -21.233878, 55.000000
-14.430529, -21.233878, 55.125000
-14.505298, -21.343899, 55.250000
-14.505298, -21.343899, 55.375000
-14.580068, -21.453919, 55.500000
-14.580068, -21.453919, 55.625000
-14.580068, -21.453919, 55.750000
-14.580068, -21.453919, 55.875000
-14.654838, -21.563939, 56.000000
-14.654838, -21.563939, 56.125000
-14.729607, -21.673959, 56.250000
-14.729607, -21.673959, 56.375000
-14.804377, -21.783979, 56.500000
-14.804377, -21.783979, 56.625000
-14.879146, -21.893999, 56.750000
-14.879146, -21.893999, 56.875000
-14.879146, -21.893999, 57.000000
-14.953916, -22.004019, 57.125000
-14.953916, -22.004019, 57.250000
-15.028686, -22.114039, 57.375000
-15.028686, -22.114039, 57.500000
-15.028686, -22.114039, 57.625000
-15.103455, -22.224059, 57.750000
-15.178225, -22.334079, 57.875000
-15.103455, -22.224059, 58.000000
-15.178225, -22.334079, 58.125000
-15.178225, -22.334079, 58.250000
-15.178225, -22.334079, 58.375000
-15.252994, -22.444099, 58.500000
-15.252994, -22.444099, 58.625000
-15.327764, -22.554120, 58.750000
-15.327764, -22.554120, 58.875000
-15.327764, -22.554120, 59.000000
-15.402533, -22.664140, 59.125000
-15.402533, -22.664140, 59.250000
-15.477303, -22.774160, 59.375000
-15.477303, -22.774160, 59.500000
-15.477303, -22.774160, 59.625000
-15.552073, -22.884180, 59.750000
-15.552073, -22.884180, 59.875000
-15.626842, -22.994200, 60.000000
-15.626842, -22.994200, 60.125000
-15.701612, -23.104220, 60.250000
-15.701612, -23.104220, 60.375000
-15.776381, -23.214240, 60.500000
-15.851151, -23.324260, 60.625000
-15.776381, -23.214240, 60.750000
-15.776381, -23.214240, 60.875000
-15.851151, -23.324260, 61.000000
-15.851151, -23.324260, 61.125000
-15.925920, -23.434280, 61.250000
-15.925920, -23.434280, 61.375000
-15.925920, -23.434280, 61.500000
-16.000690, -23.544300, 61.625000
-16.000690, -23.544300, 61.750000
-16.075460, -23.654321, 61.875000
-16.075460, -23.654321, 62.000000
-16.150229, -23.764341, 62.125000
-16.150229, -23.764341, 62.250000
-16.075460, -23.654321, 62.375000
-16.299768, -23.984381, 62.500000
-16.224999, -23.874361, 62.625000
-16.299768, -23.984381, 62.750000
-16.299768, -23.984381, 62.875000
-16.299768, -23.984381, 63.000000
-16.374538, -24.094401, 63.125000
-16.374538, -24.094401, 63.250000
-16.449308, -24.204421, 63.375000
-16.449308, -24.204421, 63.500000
-16.449308, -24.204421, 63.625000
-16.524077, -24.314441, 63.750000
-16.524077, -24.314441, 63.875000
-16.524077, -24.314441, 64.000000
-16.598847, -24.424461, 64.125000
-16.598847, -24.424461, 64.250000
-16.673616, -24.534481, 64.375000
-16.673616, -24.534481, 64.500000
-16.673616, -24.534481, 64.625000
-16.748386, -24.644501, 64.750000
-16.748386, -24.644501, 64.875000
-16.823155, -24.754521, 65.000000
-16.823155, -24.754521, 65.125000
-16.823155, -24.754521, 65.250000
-16.897925, -24.864542, 65.375000
-16.897925, -24.864542, 65.500000
-16.897925, -24.864542, 65.625000
-16.972695, -24.974562, 65.750000
-16.972695, -24.974562, 65.875000
-16.972695, -24.974562, 66.000000
-17.047464, -25.084582, 66.125000
-17.122234, -25.194602, 66.250000
-17.122234, -25.194602, 66.375000
-17.122234, -25.194602, 66.500000
-17.197003, -25.304622, 66.625000
-17.197003, -25.304622, 66.750000
-17.271773, -25.414642, 66.875000
-17.271773, -25.414642, 67.000000
-17.346542, -25.524662, 67.125000
-17.346542, -25.524662, 67.250000
-17.346542, -25.524662, 67.375000
-17.421312, -25.634682, 67.500000
-17.421312, -25.634682, 67.625000
-17.496082, -25.744702, 67.750000
-17.570851, -25.854722, 67.875000
-17.570851, -25.854722, 68.000000
-17.570851, -25.854722, 68.125000
-17.570851, -25.854722, 68.250000
-17.645621, -25.964743, 68.375000
-17.645621, -25.964743, 68.500000
-17.645621, -25.964743, 68.625000
-17.720390, -26.074763, 68.750000
-17.720390, -26.074763, 68.875000
-17.795160, -26.184783, 69.000000
-17.795160, -26.184783, 69.125000
-17.869930, -26.294803, 69.250000
-17.869930, -26.294803, 69.375000
-17.944699, -26.404823, 69.500000
-17.944699, -26.404823, 69.625000
-17.944699, -26.404823, 69.750000
-18.019469, -26.514843, 69.875000
-18.019469, -26.514843, 70.000000
-18.094238, -26.624863, 70.125000
-18.094238, -26.624863, 70.250000
-18.169008, -26.734883, 70.375000
-18.169008, -26.734883, 70.500000
-18.169008, -26.734883, 70.625000
-18.169008, -26.734883, 70.750000
-18.243777, -26.844903, 70.875000
-18.243777, -26.844903, 71.000000
-18.318547, -26.954923, 71.125000
-18.318547, -26.954923, 71.250000
-18.393317, -27.064943, 71.375000
-18.393317, -27.064943, 71.500000
-18.468086, -27.174964, 71.625000
-18.468086, -27.174964, 71.750000
-18.468086, -27.174964, 71.875000
-18.542856, -27.284984, 72.000000
-18.542856, -27.284984, 72.125000
-18.542856, -27.284984, 72.250000
-18.617625, -27.395004, 72.375000
-18.542856, -27.284984, 72.500000
-18.692395, -27.505024, 72.625000
-18.692395, -27.505024, 72.750000
-18.692395, -27.505024, 72.875000
-18.767164, -27.615044, 73.000000
-18.767164, -27.615044, 73.125000
-18.841934, -27.725064, 73.250000
-18.841934, -27.725064, 73.375000
-18.841934, -27.725064, 73.500000
-18.916704, -27.835084, 73.625000
-18.916704, -27.835084, 73.750000
-18.991473, -27.945104, 73.875000
-18.991473, -27.945104, 74.000000
-18.991473, -27.945104, 74.125000
-19.066243, -28.055124, 74.250000
-19.066243, -28.055124, 74.375000
-19.141012, -28.165144, 74.500000
-19.141012, -28.165144, 74.625000
-19.141012, -28.165144, 74.750000
-19.215782, -28.275165, 74.875000
-19.215782, -28.275165, 75.000000
-19.215782, -28.275165, 75.125000
-19.290552, -28.385185, 75.250000
-19.290552, -28.385185, 75.375000
-19.365321, -28.495205, 75.500000
-19.365321, -28.495205, 75.625000
-19.440091, -28.605225, 75.750000
-19.440091, -28.605225, 75.875000
-19.440091, -28.605225, 76.000000
-19.514860, -28.715245, 76.125000
-19.514860, -28.715245, 76.250000
-19.514860, -28.715245, 76.375000
-19.589630, -28.825265, 76.500000
-19.589630, -28.825265, 76.625000
-19.589630, -28.825265, 76.750000
-19.664399, -28.935285, 76.875000
-19.664399, -28.935285, 77.000000
-19.739169, -29.045305, 77.125000
-19.739169, -29.045305, 77.250000
-19.739169, -29.045305, 77.375000
-19.739169, -29.045305, 77.500000
-19.813939, -29.155325, 77.625000
-19.888708, -29.265345, 77.750000
-19.888708, -29.265345, 77.875000
-19.963478, -29.375365, 78.000000
-19.963478, -29.375365, 78.125000
-19.888708, -29.265345, 78.250000
-20.038247, -29.485386, 78.375000
-20.038247, -29.485386, 78.500000
-18.745817, -29.538681, 19.000000
-18.745817, -29.538681, 19.125000
-18.745817, -29.538681, 19.250000
-18.817094, -29.650995, 19.375000
-18.674540, -29.426367, 19.500000
-18.674540, -29.426367, 19.625000
-18.603263, -29.314052, 19.750000
-18.531986, -29.201738, 19.875000
-18.603263, -29.314052, 20.000000
-18.531986, -29.201738, 20.125000
-18.531986, -29.201738, 20.250000
-18.531986, -29.201738, 20.375000
-18.460709, -29.089423, 20.500000
-18.460709, -29.089423, 20.625000
-18.389433, -28.977109, 20.750000
-18.389433, -28.977109, 20.875000
-18.460709, -29.089423, 21.000000
-18.389433, -28.977109, 21.125000
-18.318156, -28.864795, 21.250000
-18.246879, -28.752480, 21.375000
-18.246879, -28.752480, 21.500000
-18.246879, -28.752480, 21.625000
-18.175602, -28.640166, 21.750000
-18.175602, -28.640166, 21.875000
-18.104325, -28.527852, 22.000000
-18.104325, -28.527852, 22.125000
-18.104325, -28.527852, 22.250000
-18.104325, -28.527852, 22.375000
-18.033048, -28.415537, 22.500000
-18.033048, -28.415537, 22.625000
-18.033048, -28.415537, 22.750000
-17.961771, -28.303223, 22.875000
-17.961771, -28.303223, 23.000000
-17.961771, -28.303223, 23.125000
-17.890495, -28.190908, 23.250000
-17.890495, -28.190908, 23.375000
-17.890495, -28.190908, 23.500000
-17.819218, -28.078594, 23.625000
-17.819218, -28.078594, 23.750000
-17.819218, -28.078594, 23.875000
-17.747941, -27.966280, 24.000000
-17.676664, -27.853965, 24.125000
-17.676664, -27.853965, 24.250000
-17.676664, -27.853965, 24.375000
-17.605387, -27.741651, 24.500000
-17.605387, -27.741651, 24.625000
-17.534110, -27.629337, 24.750000
-17.534110, -27.629337, 24.875000
-17.534110, -27.629337, 25.000000
-17.462833, -27.517022, 25.125000
-17.462833, -27.517022, 25.250000
-17.391556, -27.404708, 25.375000
-17.391556, -27.404708, 25.500000
-17.391556, -27.404708, 25.625000
-17.320280, -27.292393, 25.750000
-17.320280, -27.292393, 25.875000
-17.320280, -27.292393, 26.000000
-17.249003, -27.180079, 26.125000
-17.249003, -27.180079, 26.250000
-17.249003, -27.180079, 26.375000
-17.177726, -27.067765, 26.500000
-17.177726, -27.067765, 26.625000
-17.106449, -26.955450, 26.750000
-17.106449, -26.955450, 26.875000
-17.106449, -26.955450, 27.000000
-17.035172, -26.843136, 27.125000
-17.035172, -26.843136, 27.250000
-17.035172, -26.843136, 27.375000
-16.963895, -26.730822, 27.500000
-16.963895, -26.730822, 27.625000
-16.892618, -26.618507, 27.750000
-16.963895, -26.730822, 27.875000
-16.821341, -26.506193, 28.000000
-16.821341, -26.506193, 28.125000
-16.821341, -26.506193, 28.250000
-16.750065, -26.393878, 28.375000
-16.750065, -26.393878, 28.500000
-16.750065, -26.393878, 28.625000
-16.678788, -26.281564, 28.750000
-16.678788, -26.281564, 28.875000
-16.678788, -26.281564, 29.000000
-16.607511, -26.169250, 29.125000
-16.678788, -26.281564, 29.250000
-16.536234, -26.056935, 29.375000
-16.536234, -26.056935, 29.500000
-16.536234, -26.056935, 29.625000
-16.464957, -25.944621, 29.750000
-16.536234, -26.056935, 29.875000
-16.393680, -25.832307, 30.000000
-16.393680, -25.832307, 30.125000
-16.393680, -25.832307, 30.250000
-16.322403, -25.719992, 30.375000
-16.322403, -25.719992, 30.500000
-16.251127, -25.607678, 30.625000
-16.251127, -25.607678, 30.750000
-16.251127, -25.607678, 30.875000
-16.179850, -25.495363, 31.000000
-16.179850, -25.495363, 31.125000
-16.108573, -25.383049, 31.250000
-16.108573, -25.383049, 31.375000
-16.108573, -25.383049, 31.500000
-16.037296, -25.270735, 31.625000
-16.037296, -25.270735, 31.750000
-15.966019, -25.158420, 31.875000
-15.966019, -25.158420, 32.000000
-15.966019, -25.158420, 32.125000
-15.894742, -25.046106, 32.250000
-15.894742, -25.046106, 32.375000
-15.894742, -25.046106, 32.500000
-15.823465, -24.933792, 32.625000
-15.823465, -24.933792, 32.750000
-15.823465, -24.933792, 32.875000
-15.752188, -24.821477, 33.000000
-15.752188, -24.821477, 33.125000
-15.680912, -24.709163, 33.250000
-15.680912, -24.709163, 33.375000
-15.609635, -24.596848, 33.500000
-15.609635, -24.596848, 33.625000
-15.609635, -24.596848, 33.750000
-15.538358, -24.484534, 33.875000
-15.538358, -24.484534, 34.000000
-15.538358, -24.484534, 34.125000
-15.467081, -24.372220, 34.250000
-15.467081, -24.372220, 34.375000
-15.395804, -24.259905, 34.500000
-15.395804, -24.259905, 34.625000
-15.395804, -24.259905, 34.750000
-15.324527, -24.147591, 34.875000
-15.253250, -24.035277, 35.000000
-15.253250, -24.035277, 35.125000
-15.253250, -24.035277, 35.250000
-15.181973, -23.922962, 35.375000
-15.181973, -23.922962, 35.500000
-15.181973, -23.922962, 35.625000
-15.110697, -23.810648, 35.750000
-15.110697, -23.810648, 35.875000
-15.039420, -23.698333, 36.000000
-15.039420, -23.698333, 36.125000
-15.039420, -23.698333, 36.250000
-14.968143, -23.586019, 36.375000
-14.968143, -23.586019, 36.500000
-15.039420, -23.698333, 36.625000
-14.896866, -23.473705, 36.750000
-14.896866, -23.473705, 36.875000
-14.825589, -23.361390, 37.000000
-14.825589, -23.361390, 37.125000
-14.825589, -23.361390, 37.250000
-14.754312, -23.249076, 37.375000
-14.754312, -23.249076, 37.500000
-14.683035, -23.136762, 37.625000
-14.754312, -23.249076, 37.750000
-14.683035, -23.136762, 37.875000
-14.611758, -23.024447, 38.000000
-14.611758, -23.024447, 38.125000
-14.540482, -22.912133, 38.250000
-14.540482, -22.912133, 38.375000
-14.540482, -22.912133, 38.500000
-14.469205, -22.799818, 38.625000
-14.469205, -22.799818, 38.750000
-14.397928, -22.687504, 38.875000
-14.469205, -22.799818, 39.000000
-14.397928, -22.687504, 39.125000
-14.326651, -22.575190, 39.250000
-14.326651, -22.575190, 39.375000
-14.255374, -22.462875, 39.500000
-14.255374, -22.462875, 39.625000
-14.184097, -22.350561, 39.750000
-14.184097, -22.350561, 39.875000
-14.184097, -22.350561, 40.000000
-14.184097, -22.350561, 40.125000
-14.112820, -22.238247, 40.250000
-14.112820, -22.238247, 40.375000
-14.041544, -22.125932, 40.500000
-14.041544, -22.125932, 40.625000
-14.041544, -22.125932, 40.750000
-14.041544, -22.125932, 40.875000
-13.970267, -22.013618, 41.000000
-13.898990, -21.901303, 41.125000
-13.898990, -21.901303, 41.250000
-13.898990, -21.901303, 41.375000
-13.827713, -21.788989, 41.500000
-13.827713, -21.788989, 41.625000
-13.756436, -21.676675, 41.750000
-13.756436, -21.676675, 41.875000
-13.756436, -21.676675, 42.000000
-13.685159, -21.564360, 42.125000
-13.685159, -21.564360, 42.250000
-13.613882, -21.452046, 42.375000
-13.613882, -21.452046, 42.500000
-13.613882, -21.452046, 42.625000
-13.542605, -21.339732, 42.750000
-13.542605, -21.339732, 42.875000
-13.542605, -21.339732, 43.000000
-13.471329, -21.227417, 43.125000
-13.471329, -21.227417, 43.250000
-13.400052, -21.115103, 43.375000
-13.400052, -21.115103, 43.500000
-13.400052, -21.115103, 43.625000
-13.328775, -21.002788, 43.750000
-13.400052, -21.115103, 43.875000
-13.257498, -20.890474, 44.000000
-13.257498, -20.890474, 44.125000
-13.257498, -20.890474, 44.250000
-13.186221, -20.778160, 44.375000
-13.186221, -20.778160, 44.500000
-13.186221, -20.778160, 44.625000
-13.114944, -20.665845, 44.750000
-13.114944, -20.665845, 44.875000
-13.114944, -20.665845, 45.000000
-13.043667, -20.553531, 45.125000
-13.043667, -20.553531, 45.250000
-12.972390, -20.441217, 45.375000
-12.972390, -20.441217, 45.500000
-12.901114, -20.328902, 45.625000
-12.901114, -20.328902, 45.750000
-12.901114, -20.328902, 45.875000
-12.829837, -20.216588, 46.000000
-12.829837, -20.216588, 46.125000
-12.758560, -20.104273, 46.250000
-12.758560, -20.104273, 46.375000
-12.758560, -20.104273, 46.500000
-12.687283, -19.991959, 46.625000
-12.687283, -19.991959, 46.750000
-12.687283, -19.991959, 46.875000
-12.616006, -19.879645, 47.000000
-12.616006, -19.879645, 47.125000
-12.544729, -19.767330, 47.250000
-12.544729, -19.767330, 47.375000
-12.616006, -19.879645, 47.500000
-12.544729, -19.767330, 47.625000
-12.473452, -19.655016, 47.750000
-12.402175, -19.542701, 47.875000
-12.402175, -19.542701, 48.000000
-12.402175, -19.542701, 48.125000
-12.402175, -19.542701, 48.250000
-12.330899, -19.430387, 48.375000
-12.330899, -19.430387, 48.500000
-12.330899, -19.430387, 48.625000
-12.330899, -19.430387, 48.750000
-12.330899, -19.430387, 48.875000
-12.330899, -19.430387, 49.000000
-12.330899, -19.430387, 49.125000
-12.402175, -19.542701, 49.250000
-12.402175, -19.542701, 49.375000
-12.402175, -19.542701, 49.500000
-12.473452, -19.655016, 49.625000
-12.473452, -19.655016, 49.750000
-12.544729, -19.767330, 49.875000
-12.616006, -19.879645, 50.000000
-12.544729, -19.767330, 50.125000
-12.544729, -19.767330, 50.250000
-12.616006, -19.879645, 50.375000
-12.687283, -19.991959, 50.500000
-12.687283, -19.991959, 50.625000
-12.687283, -19.991959, 50.750000
-12.687283, -19.991959, 50.875000
-12.758560, -20.104273, 51.000000
-12.758560, -20.104273, 51.125000
-12.829837, -20.216588, 51.250000
-12.829837, -20.216588, 51.375000
-12.829837, -20.216588, 51.500000
-12.901114, -20.328902, 51.625000
-12.901114, -20.328902, 51.750000
-12.972390, -20.441217, 51.875000
-13.043667, -20.553531, 52.000000
-13.043667, -20.553531, 52.125000
-13.114944, -20.665845, 52.250000
-13.043667, -20.553531, 52.375000
-13.114944, -20.665845, 52.500000
-13.114944, -20.665845, 52.625000
-13.186221, -20.778160, 52.750000
-13.257498, -20.890474, 52.875000
-13.257498, -20.890474, 53.000000
-13.257498, -20.890474, 53.125000
-13.257498, -20.890474, 53.250000
-13.328775, -21.002788, 53.375000
-13.328775, -21.002788, 53.500000
-13.400052, -21.115103, 53.625000
-13.400052, -21.115103, 53.750000
-13.471329, -21.227417, 53.875000
-13.471329, -21.227417, 54.000000
-13.471329, -21.227417, 54.125000
-13.542605, -21.339732, 54.250000
-13.542605, -21.339732, 54.375000
-13.613882, -21.452046, 54.500000
-13.613882, -21.452046, 54.625000
-13.613882, -21.452046, 54.750000
-13.685159, -21.564360, 54.875000
-13.685159, -21.564360, 55.000000
-13.756436, -21.676675, 55.125000
-13.756436, -21.676675, 55.250000
-13.756436, -21.676675, 55.375000
-13.827713, -21.788989, 55.500000
-13.827713, -21.788989, 55.625000
-13.898990, -21.901303, 55.750000
-13.898990, -21.901303, 55.875000
-13.898990, -21.901303, 56.000000
-13.898990, -21.901303, 56.125000
-13.970267, -22.013618, 56.250000
-13.970267, -22.013618, 56.375000
-14.041544, -22.125932, 56.500000
-14.041544, -22.125932, 56.625000
-14.112820, -22.238247, 56.750000
-14.112820, -22.238247, 56.875000
-14.184097, -22.350561, 57.000000
-14.184097, -22.350561, 57.125000
-14.184097, -22.350561, 57.250000
-14.255374, -22.462875, 57.375000
-14.326651, -22.575190, 57.500000
-14.184097, -22.350561, 57.625000
-14.326651, -22.575190, 57.750000
-14.326651, -22.575190, 57.875000
-14.397928, -22.687504, 58.000000
-14.397928, -22.687504, 58.125000
-14.397928, -22.687504, 58.250000
-14.469205, -22.799818, 58.375000
-14.469205, -22.799818, 58.500000
-14.469205, -22.799818, 58.625000
-14.540482, -22.912133, 58.750000
-14.611758, -23.024447, 58.875000
-14.611758, -23.024447, 59.000000
-14.611758, -23.024447, 59.125000
-14.611758, -23.024447, 59.250000
-14.683035, -23.136762, 59.375000
-14.683035, -23.136762, 59.500000
-14.754312, -23.249076, 59.625000
-14.754312, -23.249076, 59.750000
-14.825589, -23.361390, 59.875000
-14.825589, -23.361390, 60.000000
-14.825589, -23.361390, 60.125000
-14.896866, -23.473705, 60.250000
-14.896866, -23.473705, 60.375000
-14.968143, -23.586019, 60.500000
-14.968143, -23.586019, 60.625000
-15.039420, -23.698333, 60.750000
-15.039420, -23.698333, 60.875000
-15.039420, -23.698333, 61.000000
-15.110697, -23.810648, 61.125000
-15.181973, -23.922962, 61.250000
-15.181973, -23.922962, 61.375000
-15.181973, -23.922962, 61.500000
-15.181973, -23.922962, 61.625000
-15.253250, -24.035277, 61.750000
-15.253250, -24.035277, 61.875000
-15.324527, -24.147591, 62.000000
-15.324527, -24.147591, 62.125000
-15.324527, -24.147591, 62.250000
-15.395804, -24.259905, 62.375000
-15.467081, -24.372220, 62.500000
-15.467081, -24.372220, 62.625000
-15.467081, -24.372220, 62.750000
-15.467081, -24.372220, 62.875000
-15.538358, -24.484534, 63.000000
-15.538358, -24.484534, 63.125000
-15.609635, -24.596848, 63.250000
-15.609635, -24.596848, 63.375000
-15.609635, -24.596848, 63.500000
-15.680912, -24.709163, 63.625000
-15.680912, -24.709163, 63.750000
-15.752188, -24.821477, 63.875000
-15.752188, -24.821477, 64.000000
-15.752188, -24.821477, 64.125000
-15.823465, -24.933792, 64.250000
-15.823465, -24.933792, 64.375000
-15.894742, -25.046106, 64.500000
-15.894742, -25.046106, 64.625000
-15.894742, -25.046106, 64.750000
-15.966019, -25.158420, 64.875000
-15.966019, -25.158420, 65.000000
-16.037296, -25.270735, 65.125000
-16.037296, -25.270735, 65.250000
-16.037296, -25.270735, 65.375000
-16.108573, -25.383049, 65.500000
-16.108573, -25.383049, 65.625000
-16.179850, -25.495363, 65.750000
-16.179850, -25.495363, 65.875000
-16.179850, -25.495363, 66.000000
-16.251127, -25.607678, 66.125000
-16.251127, -25.607678, 66.250000
-16.322403, -25.719992, 66.375000
-16.322403, -25.719992, 66.500000
-16.393680, -25.832307, 66.625000
-16.393680, -25.832307, 66.750000
-16.393680, -25.832307, 66.875000
-16.464957, -25.944621, 67.000000
-16.464957, -25.944621, 67.125000
-16.536234, -26.056935, 67.250000
-16.536234, -26.056935, 67.375000
-16.536234, -26.056935, 67.500000
-16.607511, -26.169250, 67.625000
-16.607511, -26.169250, 67.750000
-16.678788, -26.281564, 67.875000
-16.678788, -26.281564, 68.000000
-16.750065, -26.393878, 68.125000
-16.750065, -26.393878, 68.250000
-16.750065, -26.393878, 68.375000
-16.821341, -26.506193, 68.500000
-16.821341, -26.506193, 68.625000
-16.892618, -26.618507, 68.750000
-16.892618, -26.618507, 68.875000
-16.892618, -26.618507, 69.000000
-16.963895, -26.730822, 69.125000
-16.963895, -26.730822, 69.250000
-17.035172, -26.843136, 69.375000
-17.035172, -26.843136, 69.500000
-17.106449, -26.955450, 69.625000
-17.106449, -26.955450, 69.750000
-17.106449, -26.955450, 69.875000
-17.249003, -27.180079, 70.000000
-17.177726, -27.067765, 70.125000
-17.249003, -27.180079, 70.250000
-17.249003, -27.180079, 70.375000
-17.320280, -27.292393, 70.500000
-17.320280, -27.292393, 70.625000
-17.391556, -27.404708, 70.750000
-17.391556, -27.404708, 70.875000
-17.391556, -27.404708, 71.000000
-17.391556, -27.404708, 71.125000
-17.462833, -27.517022, 71.250000
-17.462833, -27.517022, 71.375000
-17.534110, -27.629337, 71.500000
-17.534110, -27.629337, 71.625000
-17.534110, -27.629337, 71.750000
-17.605387, -27.741651, 71.875000
-17.605387, -27.741651, 72.000000
-17.676664, -27.853965, 72.125000
-17.676664, -27.853965, 72.250000
-17.747941, -27.966280, 72.375000
-17.747941, -27.966280, 72.500000
-17.747941, -27.966280, 72.625000
-17.819218, -28.078594, 72.750000
-17.819218, -28.078594, 72.875000
-17.890495, -28.190908, 73.000000
-17.890495, -28.190908, 73.125000
-17.890495, -28.190908, 73.250000
-17.961771, -28.303223, 73.375000
-17.961771, -28.303223, 73.500000
-18.033048, -28.415537, 73.625000
-18.033048, -28.415537, 73.750000
-18.033048, -28.415537, 73.875000
-18.104325, -28.527852, 74.000000
-18.104325, -28.527852, 74.125000
-18.104325, -28.527852, 74.250000
-18.175602, -28.640166, 74.375000
-18.175602, -28.640166, 74.500000
-18.246879, -28.752480, 74.625000
-18.246879, -28.752480, 74.750000
-18.246879, -28.752480, 74.875000
-18.318156, -28.864795, 75.000000
-18.318156, -28.864795, 75.125000
-18.389433, -28.977109, 75.250000
-18.389433, -28.977109, 75.375000
-18.389433, -28.977109, 75.500000
-18.460709, -29.089423, 75.625000
-18.460709, -29.089423, 75.750000
-18.531986, -29.201738, 75.875000
-18.531986, -29.201738, 76.000000
-18.531986, -29.201738, 76.125000
-18.603263, -29.314052, 76.250000
-18.603263, -29.314052, 76.375000
-18.603263, -29.314052, 76.500000
-18.674540, -29.426367, 76.625000
-18.745817, -29.538681, 76.750000
-18.745817, -29.538681, 76.875000
-18.745817, -29.538681, 77.000000
-18.817094, -29.650995, 77.125000
-18.817094, -29.650995, 77.250000
-18.817094, -29.650995, 77.375000
-18.888371, -29.763310, 77.500000
-18.817094, -29.650995, 77.625000
-18.959648, -29.875624, 77.750000
-18.959648, -29.875624, 77.875000
-19.030924, -29.987938, 78.000000
-18.888371, -29.763310, 78.125000
-18.888371, -29.763310, 78.250000
-19.173478, -30.212567, 78.375000
-18.011876, -30.456419, 19.375000
-18.011876, -30.456419, 19.500000
-18.011876, -30.456419, 19.625000
-18.011876, -30.456419, 19.750000
-18.011876, -30.456419, 19.875000
-17.944162, -30.341921, 20.000000
-17.876448, -30.227424, 20.125000
-17.876448, -30.227424, 20.250000
-17.808735, -30.112926, 20.375000
-17.808735, -30.112926, 20.500000
-17.808735, -30.112926, 20.625000
-17.808735, -30.112926, 20.750000
-17.741021, -29.998428, 20.875000
-17.741021, -29.998428, 21.000000
-17.741021, -29.998428, 21.125000
-17.741021, -29.998428, 21.250000
-17.673307, -29.883930, 21.375000
-17.605593, -29.769432, 21.500000
-17.605593, -29.769432, 21.625000
-17.605593, -29.769432, 21.750000
-17.537879, -29.654935, 21.875000
-17.537879, -29.654935, 22.000000
-17.470166, -29.540437, 22.125000
-17.470166, -29.540437, 22.250000
-17.402452, -29.425939, 22.375000
-17.402452, -29.425939, 22.500000
-17.402452, -29.425939, 22.625000
-17.334738, -29.311441, 22.750000
-17.334738, -29.311441, 22.875000
-17.334738, -29.311441, 23.000000
-17.334738, -29.311441, 23.125000
-17.267024, -29.196943, 23.250000
-17.267024, -29.196943, 23.375000
-17.267024, -29.196943, 23.500000
-17.199310, -29.082445, 23.625000
-17.131596, -28.967948, 23.750000
-17.131596, -28.967948, 23.875000
-17.063883, -28.853450, 24.000000
-17.063883, -28.853450, 24.125000
-17.131596, -28.967948, 24.250000
-16.996169, -28.738952, 24.375000
-16.996169, -28.738952, 24.500000
-16.928455, -28.624454, 24.625000
-16.928455, -28.624454, 24.750000
-16.996169, -28.738952, 24.875000
-16.860741, -28.509956, 25.000000
-16.860741, -28.509956, 25.125000
-16.860741, -28.509956, 25.250000
-16.793027, -28.395459, 25.375000
-16.793027, -28.395459, 25.500000
-16.725314, -28.280961, 25.625000
-16.725314, -28.280961, 25.750000
-16.725314, -28.280961, 25.875000
-16.657600, -28.166463, 26.000000
-16.657600, -28.166463, 26.125000
-16.589886, -28.051965, 26.250000
-16.589886, -28.051965, 26.375000
-16.589886, -28.051965, 26.500000
-16.589886, -28.051965, 26.625000
-16.522172, -27.937467, 26.750000
-16.522172, -27.937467, 26.875000
-16.454458, -27.822969, 27.000000
-16.454458, -27.822969, 27.125000
-16.386744, -27.708472, 27.250000
-16.386744, -27.708472, 27.375000
-16.386744, -27.708472, 27.500000
-16.319031, -27.593974, 27.625000
-16.319031, -27.593974, 27.750000
-16.319031, -27.593974, 27.875000
-16.251317, -27.479476, 28.000000
-16.251317, -27.479476, 28.125000
-16.251317, -27.479476, 28.250000
-16.183603, -27.364978, 28.375000
-16.115889, -27.250480, 28.500000
-16.115889, -27.250480, 28.625000
-16.115889, -27.250480, 28.750000
-16.115889, -27.250480, 28.875000
-16.048175, -27.135983, 29.000000
-16.048175, -27.135983, 29.125000
-15.980462, -27.021485, 29.250000
-15.980462, -27.021485, 29.375000
-15.912748, -26.906987, 29.500000
-15.912748, -26.906987, 29.625000
-15.912748, -26.906987, 29.750000
-15.845034, -26.792489, 29.875000
-15.845034, -26.792489, 30.000000
-15.845034, -26.792489, 30.125000
-15.777320, -26.677991, 30.250000
-15.845034, -26.792489, 30.375000
-15.709606, -26.563493, 30.500000
-15.709606, -26.563493, 30.625000
-15.709606, -26.563493, 30.750000
-15.641892, -26.448996, 30.875000
-15.574179, -26.334498, 31.000000
-15.574179, -26.334498, 31.125000
-15.641892, -26.448996, 31.250000
-15.506465, -26.220000, 31.375000
-15.506465, -26.220000, 31.500000
-15.506465, -26.220000, 31.625000
-15.438751, -26.105502, 31.750000
-15.438751, -26.105502, 31.875000
-15.371037, -25.991004, 32.000000
-15.371037, -25.991004, 32.125000
-15.371037, -25.991004, 32.250000
-15.303323, -25.876507, 32.375000
-15.303323, -25.876507, 32.500000
-15.303323, -25.876507, 32.625000
-15.235609, -25.762009, 32.750000
-15.235609, -25.762009, 32.875000
-15.167896, -25.647511, 33.000000
-15.167896, -25.647511, 33.125000
-15.100182, -25.533013, 33.250000
-15.100182, -25.533013, 33.375000
-15.100182, -25.533013, 33.500000
-15.032468, -25.418515, 33.625000
-14.964754, -25.304017, 33.750000
-14.964754, -25.304017, 33.875000
-14.964754, -25.304017, 34.000000
-14.964754, -25.304017, 34.125000
-14.897040, -25.189520, 34.250000
-14.897040, -25.189520, 34.375000
-14.829327, -25.075022, 34.500000
-14.829327, -25.075022, 34.625000
-14.829327, -25.075022, 34.750000
-14.761613, -24.960524, 34.875000
-14.829327, -25.075022, 35.000000
-14.693899, -24.846026, 35.125000
-14.693899, -24.846026, 35.250000
-14.693899, -24.846026, 35.375000
-14.626185, -24.731528, 35.500000
-14.558471, -24.617031, 35.625000
-14.558471, -24.617031, 35.750000
-14.558471, -24.617031, 35.875000
-14.558471, -24.617031, 36.000000
-14.490757, -24.502533, 36.125000
-14.558471, -24.617031, 36.250000
-14.423044, -24.388035, 36.375000
-14.423044, -24.388035, 36.500000
-14.423044, -24.388035, 36.625000
-14.355330, -24.273537, 36.750000
-14.355330, -24.273537, 36.875000
-14.287616, -24.159039, 37.000000
-14.287616, -24.159039, 37.125000
-14.219902, -24.044541, 37.250000
-14.219902, -24.044541, 37.375000
-14.219902, -24.044541, 37.500000
-14.152188, -23.930044, 37.625000
-14.152188, -23.930044, 37.750000
-14.084475, -23.815546, 37.875000
-14.084475, -23.815546, 38.000000
-14.084475, -23.815546, 38.125000
-14.016761, -23.701048, 38.250000
-14.016761, -23.701048, 38.375000
-13.949047, -23.586550, 38.500000
-13.949047, -23.586550, 38.625000
-14.016761, -23.701048, 38.750000
-13.881333, -23.472052, 38.875000
-13.949047, -23.586550, 39.000000
-13.813619, -23.357555, 39.125000
-13.813619, -23.357555, 39.250000
-13.813619, -23.357555, 39.375000
-13.745905, -23.243057, 39.500000
-13.813619, -23.357555, 39.625000
-13.678192, -23.128559, 39.750000
-13.678192, -23.128559, 39.875000
-13.610478, -23.014061, 40.000000
-13.610478, -23.014061, 40.125000
-13.610478, -23.014061, 40.250000
-13.542764, -22.899563, 40.375000
-13.542764, -22.899563, 40.500000
-13.542764, -22.899563, 40.625000
-13.475050, -22.785066, 40.750000
-13.475050, -22.785066, 40.875000
-13.407336, -22.670568, 41.000000
-13.407336, -22.670568, 41.125000
-13.475050, -22.785066, 41.250000
-13.339623, -22.556070, 41.375000
-13.339623, -22.556070, 41.500000
-13.339623, -22.556070, 41.625000
-13.271909, -22.441572, 41.750000
-13.271909, -22.441572, 41.875000
-13.204195, -22.327074, 42.000000
-13.204195, -22.327074, 42.125000
-13.204195, -22.327074, 42.250000
-13.136481, -22.212576, 42.375000
-13.136481, -22.212576, 42.500000
-13.068767, -22.098079, 42.625000
-13.136481, -22.212576, 42.750000
-13.068767, -22.098079, 42.875000
-13.001053, -21.983581, 43.000000
-13.001053, -21.983581, 43.125000
-12.933340, -21.869083, 43.250000
-12.933340, -21.869083, 43.375000
-12.933340, -21.869083, 43.500000
-12.865626, -21.754585, 43.625000
-12.865626, -21.754585, 43.750000
-12.865626, -21.754585, 43.875000
-12.797912, -21.640087, 44.000000
-12.797912, -21.640087, 44.125000
-12.730198, -21.525590, 44.250000
-12.730198, -21.525590, 44.375000
-12.662484, -21.411092, 44.500000
-12.730198, -21.525590, 44.625000
-12.594771, -21.296594, 44.750000
-12.594771, -21.296594, 44.875000
-12.594771, -21.296594, 45.000000
-12.594771, -21.296594, 45.125000
-12.527057, -21.182096, 45.250000
-12.459343, -21.067598, 45.375000
-12.459343, -21.067598, 45.500000
-12.459343, -21.067598, 45.625000
-12.459343, -21.067598, 45.750000
-12.391629, -20.953100, 45.875000
-12.391629, -20.953100, 46.000000
-12.323915, -20.838603, 46.125000
-12.323915, -20.838603, 46.250000
-12.256201, -20.724105, 46.375000
-12.256201, -20.724105, 46.500000
-12.256201, -20.724105, 46.625000
-12.188488, -20.609607, 46.750000
-12.188488, -20.609607, 46.875000
-12.120774, -20.495109, 47.000000
-12.120774, -20.495109, 47.125000
-12.120774, -20.495109, 47.250000
-12.120774, -20.495109, 47.375000
-12.053060, -20.380611, 47.500000
-12.053060, -20.380611, 47.625000
-11.985346, -20.266114, 47.750000
-11.985346, -20.266114, 47.875000
-11.985346, -20.266114, 48.000000
-11.917632, -20.151616, 48.125000
-11.917632, -20.151616, 48.250000
-11.849918, -20.037118, 48.375000
-11.849918, -20.037118, 48.500000
-11.849918, -20.037118, 48.625000
-11.849918, -20.037118, 48.750000
-11.849918, -20.037118, 48.875000
-11.849918, -20.037118, 49.000000
-11.849918, -20.037118, 49.125000
-11.849918, -20.037118, 49.250000
-11.917632, -20.151616, 49.375000
-11.917632, -20.151616, 49.500000
-11.917632, -20.151616, 49.625000
-11.917632, -20.151616, 49.750000
-12.053060, -20.380611, 49.875000
-11.985346, -20.266114, 50.000000
-12.053060, -20.380611, 50.125000
-12.053060, -20.380611, 50.250000
-12.053060, -20.380611, 50.375000
-12.120774, -20.495109, 50.500000
-12.120774, -20.495109, 50.625000
-12.188488, -20.609607, 50.750000
-12.188488, -20.609607, 50.875000
-12.188488, -20.609607, 51.000000
-12.256201, -20.724105, 51.125000
-12.256201, -20.724105, 51.250000
-12.323915, -20.838603, 51.375000
-12.323915, -20.838603, 51.500000
-12.323915, -20.838603, 51.625000
-12.391629, -20.953100, 51.750000
-12.391629, -20.953100, 51.875000
-12.323915, -20.838603, 52.000000
-12.527057, -21.182096, 52.125000
-12.459343, -21.067598, 52.250000
-12.527057, -21.182096, 52.375000
-12.527057, -21.182096, 52.500000
-12.527057, -21.182096, 52.625000
-12.594771, -21.296594, 52.750000
-12.594771, -21.296594, 52.875000
-12.662484, -21.411092, 53.000000
-12.662484, -21.411092, 53.125000
-12.730198, -21.525590, 53.250000
-12.730198, -21.525590, 53.375000
-12.797912, -21.640087, 53.500000
-12.797912, -21.640087, 53.625000
-12.797912, -21.640087, 53.750000
-12.865626, -21.754585, 53.875000
-12.865626, -21.754585, 54.000000
-12.933340, -21.869083, 54.125000
-12.933340, -21.869083, 54.250000
-12.933340, -21.869083, 54.375000
-13.001053, -21.983581, 54.500000
-13.001053, -21.983581, 54.625000
-13.068767, -22.098079, 54.750000
-13.068767, -22.098079, 54.875000
-13.068767, -22.098079, 55.000000
-13.136481, -22.212576, 55.125000
-13.136481, -22.212576, 55.250000
-13.204195, -22.327074, 55.375000
-13.204195, -22.327074, 55.500000
-13.204195, -22.327074, 55.625000
-13.271909, -22.441572, 55.750000
-13.271909, -22.441572, 55.875000
-13.271909, -22.441572, 56.000000
-13.407336, -22.670568, 56.125000
-13.339623, -22.556070, 56.250000
-13.339623, -22.556070, 56.375000
-13.407336, -22.670568, 56.500000
-13.407336, -22.670568, 56.625000
-13.475050, -22.785066, 56.750000
-13.475050, -22.785066, 56.875000
-13.475050, -22.785066, 57.000000
-13.610478, -23.014061, 57.125000
-13.610478, -23.014061, 57.250000
-13.542764, -22.899563, 57.375000
-13.610478, -23.014061, 57.500000
-13.610478, -23.014061, 57.625000
-13.678192, -23.128559, 57.750000
-13.745905, -23.243057, 57.875000
-13.678192, -23.128559, 58.000000
-13.745905, -23.243057, 58.125000
-13.745905, -23.243057, 58.250000
-13.813619, -23.357555, 58.375000
-13.813619, -23.357555, 58.500000
-13.813619, -23.357555, 58.625000
-13.881333, -23.472052, 58.750000
-13.881333, -23.472052, 58.875000
-13.949047, -23.586550, 59.000000
-13.949047, -23.586550, 59.125000
-14.016761, -23.701048, 59.250000
-14.016761, -23.701048, 59.375000
-14.016761, -23.701048, 59.500000
-14.084475, -23.815546, 59.625000
-14.084475, -23.815546, 59.750000
-14.084475, -23.815546, 59.875000
-14.152188, -23.930044, 60.000000
-14.152188, -23.930044, 60.125000
-14.219902, -24.044541, 60.250000
-14.219902, -24.044541, 60.375000
-14.287616, -24.159039, 60.500000
-14.287616, -24.159039, 60.625000
-14.287616, -24.159039, 60.750000
-14.355330, -24.273537, 60.875000
-14.355330, -24.273537, 61.000000
-14.423044, -24.388035, 61.125000
-14.423044, -24.388035, 61.250000
-14.423044, -24.388035, 61.375000
-14.490757, -24.502533, 61.500000
-14.490757, -24.502533, 61.625000
-14.558471, -24.617031, 61.750000
-14.558471, -24.617031, 61.875000
-14.558471, -24.617031, 62.000000
-14.626185, -24.731528, 62.125000
-14.693899, -24.846026, 62.250000
-14.693899, -24.846026, 62.375000
-14.693899, -24.846026, 62.500000
-14.693899, -24.846026, 62.625000
-14.761613, -24.960524, 62.750000
-14.761613, -24.960524, 62.875000
-14.829327, -25.075022, 63.000000
-14.829327, -25.075022, 63.125000
-14.829327, -25.075022, 63.250000
-14.897040, -25.189520, 63.375000
-14.897040, -25.189520, 63.500000
-14.964754, -25.304017, 63.625000
-14.964754, -25.304017, 63.750000
-14.964754, -25.304017, 63.875000
-15.032468, -25.418515, 64.000000
-15.032468, -25.418515, 64.125000
-15.032468, -25.418515, 64.250000
-15.100182, -25.533013, 64.375000
-15.100182, -25.533013, 64.500000
-15.167896, -25.647511, 64.625000
-15.167896, -25.647511, 64.750000
-15.167896, -25.647511, 64.875000
-15.303323, -25.876507, 65.000000
-15.235609, -25.762009, 65.125000
-15.303323, -25.876507, 65.250000
-15.303323, -25.876507, 65.375000
-15.303323, -25.876507, 65.500000
-15.438751, -26.105502, 65.625000
-15.371037, -25.991004, 65.750000
-15.371037, -25.991004, 65.875000
-15.438751, -26.105502, 66.000000
-15.438751, -26.105502, 66.125000
-15.506465, -26.220000, 66.250000
-15.506465, -26.220000, 66.375000
-15.574179, -26.334498, 66.500000
-15.574179, -26.334498, 66.625000
-15.574179, -26.334498, 66.750000
-15.641892, -26.448996, 66.875000
-15.641892, -26.448996, 67.000000
-15.709606, -26.563493, 67.125000
-15.709606, -26.563493, 67.250000
-15.709606, -26.563493, 67.375000
-15.777320, -26.677991, 67.500000
-15.777320, -26.677991, 67.625000
-15.845034, -26.792489, 67.750000
-15.845034, -26.792489, 67.875000
-15.912748, -26.906987, 68.000000
-15.912748, -26.906987, 68.125000
-15.912748, -26.906987, 68.250000
-15.980462, -27.021485, 68.375000
-15.980462, -27.021485, 68.500000
-16.048175, -27.135983, 68.625000
-16.048175, -27.135983, 68.750000
-16.048175, -27.135983, 68.875000
-16.115889, -27.250480, 69.000000
-16.115889, -27.250480, 69.125000
-16.183603, -27.364978, 69.250000
-16.183603, -27.364978, 69.375000
-16.251317, -27.479476, 69.500000
-16.251317, -27.479476, 69.625000
-16.251317, -27.479476, 69.750000
-16.319031, -27.593974, 69.875000
-16.319031, -27.593974, 70.000000
-16.386744, -27.708472, 70.125000
-16.386744, -27.708472, 70.250000
-16.454458, -27.822969, 70.375000
-16.454458, -27.822969, 70.500000
-16.454458, -27.822969, 70.625000
-16.454458, -27.822969, 70.750000
-16.522172, -27.937467, 70.875000
-16.522172, -27.937467, 71.000000
-16.589886, -28.051965, 71.125000
-16.589886, -28.051965, 71.250000
-16.589886, -28.051965, 71.375000
-16.657600, -28.166463, 71.500000
-16.657600, -28.166463, 71.625000
-16.725314, -28.280961, 71.750000
-16.725314, -28.280961, 71.875000
-16.793027, -28.395459, 72.000000
-16.793027, -28.395459, 72.125000
-16.793027, -28.395459, 72.250000
-16.860741, -28.509956, 72.375000
-16.860741, -28.509956, 72.500000
-16.860741, -28.509956, 72.625000
-16.928455, -28.624454, 72.750000
-16.928455, -28.624454, 72.875000
-16.928455, -28.624454, 73.000000
-16.996169, -28.738952, 73.125000
-17.063883, -28.853450, 73.250000
-17.063883, -28.853450, 73.375000
-17.063883, -28.853450, 73.500000
-17.131596, -28.967948, 73.625000
-17.131596, -28.967948, 73.750000
-17.131596, -28.967948, 73.875000
-17.199310, -29.082445, 74.000000
-17.199310, -29.082445, 74.125000
-17.199310, -29.082445, 74.250000
-17.267024, -29.196943, 74.375000
-17.267024, -29.196943, 74.500000
-17.334738, -29.311441, 74.625000
-17.334738, -29.311441, 74.750000
-17.334738, -29.311441, 74.875000
-17.402452, -29.425939, 75.000000
-17.402452, -29.425939, 75.125000
-17.470166, -29.540437, 75.250000
-17.470166, -29.540437, 75.375000
-17.470166, -29.540437, 75.500000
-17.537879, -29.654935, 75.625000
-17.537879, -29.654935, 75.750000
-17.605593, -29.769432, 75.875000
-17.605593, -29.769432, 76.000000
-17.673307, -29.883930, 76.125000
-17.673307, -29.883930, 76.250000
-17.673307, -29.883930, 76.375000
-17.741021, -29.998428, 76.500000
-17.808735, -30.112926, 76.625000
-17.741021, -29.998428, 76.750000
-17.876448, -30.227424, 76.875000
-17.808735, -30.112926, 77.000000
-17.876448, -30.227424, 77.125000
-17.876448, -30.227424, 77.250000
-17.876448, -30.227424, 77.375000
-17.944162, -30.341921, 77.500000
-17.944162, -30.341921, 77.625000
-18.011876, -30.456419, 77.750000
-18.011876, -30.456419, 77.875000
-18.011876, -30.456419, 78.000000
-18.011876, -30.456419, 78.125000
-18.011876, -30.456419, 78.250000
-18.011876, -30.456419, 78.375000
-18.011876, -30.456419, 78.500000
-17.110413, -31.123726, 19.250000
-16.982245, -30.890589, 19.375000
-17.046329, -31.007158, 19.500000
-17.046329, -31.007158, 19.625000
-16.982245, -30.890589, 19.750000
-16.918161, -30.774021, 19.875000
-16.918161, -30.774021, 20.000000
-16.918161, -30.774021, 20.125000
-16.854077, -30.657453, 20.250000
-16.854077, -30.657453, 20.375000
-16.854077, -30.657453, 20.500000
-16.854077, -30.657453, 20.625000
-16.789993, -30.540884, 20.750000
-16.789993, -30.540884, 20.875000
-16.789993, -30.540884, 21.000000
-16.725909, -30.424316, 21.125000
-16.725909, -30.424316, 21.250000
-16.725909, -30.424316, 21.375000
-16.661825, -30.307748, 21.500000
-16.661825, -30.307748, 21.625000
-16.597741, -30.191180, 21.750000
-16.533658, -30.074611, 21.875000
-16.597741, -30.191180, 22.000000
-16.533658, -30.074611, 22.125000
-16.469574, -29.958043, 22.250000
-16.469574, -29.958043, 22.375000
-16.469574, -29.958043, 22.500000
-16.405490, -29.841475, 22.625000
-16.405490, -29.841475, 22.750000
-16.405490, -29.841475, 22.875000
-16.341406, -29.724907, 23.000000
-16.341406, -29.724907, 23.125000
-16.341406, -29.724907, 23.250000
-16.277322, -29.608338, 23.375000
-16.213238, -29.491770, 23.500000
-16.213238, -29.491770, 23.625000
-16.277322, -29.608338, 23.750000
-16.149154, -29.375202, 23.875000
-16.149154, -29.375202, 24.000000
-16.149154, -29.375202, 24.125000
-16.085070, -29.258634, 24.250000
-16.085070, -29.258634, 24.375000
-16.020986, -29.142065, 24.500000
-16.085070, -29.258634, 24.625000
-15.956902, -29.025497, 24.750000
-15.956902, -29.025497, 24.875000
-15.956902, -29.025497, 25.000000
-15.892818, -28.908929, 25.125000
-15.892818, -28.908929, 25.250000
-15.828734, -28.792361, 25.375000
-15.828734, -28.792361, 25.500000
-15.892818, -28.908929, 25.625000
-15.764650, -28.675792, 25.750000
-15.764650, -28.675792, 25.875000
-15.700566, -28.559224, 26.000000
-15.700566, -28.559224, 26.125000
-15.700566, -28.559224, 26.250000
-15.636482, -28.442656, 26.375000
-15.636482, -28.442656, 26.500000
-15.636482, -28.442656, 26.625000
-15.572398, -28.326088, 26.750000
-15.572398, -28.326088, 26.875000
-15.572398, -28.326088, 27.000000
-15.508314, -28.209519, 27.125000
-15.508314, -28.209519, 27.250000
-15.508314, -28.209519, 27.375000
-15.444230, -28.092951, 27.500000
-15.444230, -28.092951, 27.625000
-15.380147, -27.976383, 27.750000
-15.380147, -27.976383, 27.875000
-15.380147, -27.976383, 28.000000
-15.316063, -27.859814, 28.125000
-15.316063, -27.859814, 28.250000
-15.251979, -27.743246, 28.375000
-15.251979, -27.743246, 28.500000
-15.187895, -27.626678, 28.625000
-15.187895, -27.626678, 28.750000
-15.187895, -27.626678, 28.875000
-15.187895, -27.626678, 29.000000
-15.123811, -27.510110, 29.125000
-15.123811, -27.510110, 29.250000
-15.059727, -27.393541, 29.375000
-15.059727, -27.393541, 29.500000
-15.059727, -27.393541, 29.625000
-14.995643, -27.276973, 29.750000
-14.995643, -27.276973, 29.875000
-14.931559, -27.160405, 30.000000
-14.995643, -27.276973, 30.125000
-14.931559, -27.160405, 30.250000
-14.867475, -27.043837, 30.375000
-14.867475, -27.043837, 30.500000
-14.803391, -26.927268, 30.625000
-14.867475, -27.043837, 30.750000
-14.739307, -26.810700, 30.875000
-14.739307, -26.810700, 31.000000
-14.739307, -26.810700, 31.125000
-14.675223, -26.694132, 31.250000
-14.675223, -26.694132, 31.375000
-14.675223, -26.694132, 31.500000
-14.611139, -26.577564, 31.625000
-14.611139, -26.577564, 31.750000
-14.547055, -26.460995, 31.875000
-14.547055, -26.460995, 32.000000
-14.482971, -26.344427, 32.125000
-14.482971, -26.344427, 32.250000
-14.482971, -26.344427, 32.375000
-14.482971, -26.344427, 32.500000
-14.418887, -26.227859, 32.625000
-14.418887, -26.227859, 32.750000
-14.354803, -26.111291, 32.875000
-14.354803, -26.111291, 33.000000
-14.290720, -25.994722, 33.125000
-14.290720, -25.994722, 33.250000
-14.226636, -25.878154, 33.375000
-14.226636, -25.878154, 33.500000
-14.162552, -25.761586, 33.625000
-14.162552, -25.761586, 33.750000
-14.226636, -25.878154, 33.875000
-14.098468, -25.645017, 34.000000
-14.098468, -25.645017, 34.125000
-14.034384, -25.528449, 34.250000
-14.034384, -25.528449, 34.375000
-14.098468, -25.645017, 34.500000
-13.970300, -25.411881, 34.625000
-14.034384, -25.528449, 34.750000
-13.906216, -25.295313, 34.875000
-13.906216, -25.295313, 35.000000
-13.906216, -25.295313, 35.125000
-13.906216, -25.295313, 35.250000
-13.842132, -25.178744, 35.375000
-13.778048, -25.062176, 35.500000
-13.778048, -25.062176, 35.625000
-13.778048, -25.062176, 35.750000
-13.713964, -24.945608, 35.875000
-13.713964, -24.945608, 36.000000
-13.778048, -25.062176, 36.125000
-13.713964, -24.945608, 36.250000
-13.649880, -24.829040, 36.375000
-13.649880, -24.829040, 36.500000
-13.585796, -24.712471, 36.625000
-13.521712, -24.595903, 36.750000
-13.521712, -24.595903, 36.875000
-13.521712, -24.595903, 37.000000
-13.521712, -24.595903, 37.125000
-13.457628, -24.479335, 37.250000
-13.457628, -24.479335, 37.375000
-13.393544, -24.362767, 37.500000
-13.393544, -24.362767, 37.625000
-13.329460, -24.246198, 37.750000
-13.329460, -24.246198, 37.875000
-13.265376, -24.129630, 38.000000
-13.265376, -24.129630, 38.125000
-13.265376, -24.129630, 38.250000
-13.201292, -24.013062, 38.375000
-13.201292, -24.013062, 38.500000
-13.201292, -24.013062, 38.625000
-13.137209, -23.896494, 38.750000
-13.137209, -23.896494, 38.875000
-13.073125, -23.779925, 39.000000
-13.137209, -23.896494, 39.125000
-13.073125, -23.779925, 39.250000
-13.073125, -23.779925, 39.375000
-13.009041, -23.663357, 39.500000
-12.944957, -23.546789, 39.625000
-12.944957, -23.546789, 39.750000
-12.944957, -23.546789, 39.875000
-12.880873, -23.430221, 40.000000
-12.880873, -23.430221, 40.125000
-12.816789, -23.313652, 40.250000
-12.816789, -23.313652, 40.375000
-12.752705, -23.197084, 40.500000
-12.752705, -23.197084, 40.625000
-12.816789, -23.313652, 40.750000
-12.688621, -23.080516, 40.875000
-12.688621, -23.080516, 41.000000
-12.752705, -23.197084, 41.125000
-12.624537, -22.963947, 41.250000
-12.624537, -22.963947, 41.375000
-12.624537, -22.963947, 41.500000
