-12.958079, -21.910915, 45.750000
-12.958079, -21.910915, 45.875000
-12.868092, -21.758756, 46.000000
-12.868092, -21.758756, 46.125000
-12.868092, -21.758756, 46.250000
-12.778106, -21.606597, 46.375000
-12.778106, -21.606597, 46.500000
-12.778106, -21.606597, 46.625000
-12.688119, -21.454437, 46.750000
-12.688119, -21.454437, 46.875000
-12.688119, -21.454437, 47.000000
-12.688119, -21.454437, 47.125000
-12.688119, -21.454437, 47.250000
-12.598132, -21.302278, 47.375000
-12.598132, -21.302278, 47.500000
-12.598132, -21.302278, 47.625000
-12.598132, -21.302278, 47.750000
-12.508146, -21.150119, 47.875000
-12.508146, -21.150119, 48.000000
-12.508146, -21.150119, 48.125000
-12.508146, -21.150119, 48.250000
-12.418159, -20.997960, 48.375000
-12.328172, -20.845801, 48.500000
-12.328172, -20.845801, 48.625000
-12.328172, -20.845801, 48.750000
-12.328172, -20.845801, 48.875000
-12.328172, -20.845801, 49.000000
-12.328172, -20.845801, 49.125000
-12.328172, -20.845801, 49.250000
-12.328172, -20.845801, 49.375000
-12.418159, -20.997960, 49.500000
-12.418159, -20.997960, 49.625000
-12.418159, -20.997960, 49.750000
-12.508146, -21.150119, 49.875000
-12.508146, -21.150119, 50.000000
-12.598132, -21.302278, 50.125000
-12.598132, -21.302278, 50.250000
-12.598132, -21.302278, 50.375000
-12.688119, -21.454437, 50.500000
-12.598132, -21.302278, 50.625000
-12.778106, -21.606597, 50.750000
-12.688119, -21.454437, 50.875000
-12.778106, -21.606597, 51.000000
-12.778106, -21.606597, 51.125000
-12.778106, -21.606597, 51.250000
-12.868092, -21.758756, 51.375000
-12.958079, -21.910915, 51.500000
-12.868092, -21.758756, 51.625000
-12.958079, -21.910915, 51.750000
-13.048066, -22.063074, 51.875000
-12.958079, -21.910915, 52.000000
-13.048066, -22.063074, 52.125000
-13.048066, -22.063074, 52.250000
-13.048066, -22.063074, 52.375000
-13.138052, -22.215233, 52.500000
-13.138052, -22.215233, 52.625000
-13.138052, -22.215233, 52.750000
-13.228039, -22.367392, 52.875000
-13.228039, -22.367392, 53.000000
-13.318026, -22.519551, 53.125000
-13.318026, -22.519551, 53.250000
-13.318026, -22.519551, 53.375000
-13.408012, -22.671711, 53.500000
-13.408012, -22.671711, 53.625000
-13.497999, -22.823870, 53.750000
-13.497999, -22.823870, 53.875000
-13.587986, -22.976029, 54.000000
-13.587986, -22.976029, 54.125000
-13.587986, -22.976029, 54.250000
-13.587986, -22.976029, 54.375000
-13.677972, -23.128188, 54.500000
-13.677972, -23.128188, 54.625000
-13.677972, -23.128188, 54.750000
-13.767959, -23.280347, 54.875000
-13.767959, -23.280347, 55.000000
-13.767959, -23.280347, 55.125000
-13.857946, -23.432506, 55.250000
-13.857946, -23.432506, 55.375000
-13.857946, -23.432506, 55.500000
-14.037919, -23.736824, 55.625000
-13.947932, -23.584665, 55.750000
-14.037919, -23.736824, 55.875000
-14.037919, -23.736824, 56.000000
-14.127906, -23.888984, 56.125000
-14.127906, -23.888984, 56.250000
-14.127906, -23.888984, 56.375000
-14.217892, -24.041143, 56.500000
-14.307879, -24.193302, 56.625000
-14.217892, -24.041143, 56.750000
-14.307879, -24.193302, 56.875000
-14.307879, -24.193302, 57.000000
-14.307879, -24.193302, 57.125000
-14.397865, -24.345461, 57.250000
-14.397865, -24.345461, 57.375000
-14.397865, -24.345461, 57.500000
-14.487852, -24.497620, 57.625000
-14.487852, -24.497620, 57.750000
-14.487852, -24.497620, 57.875000
-14.577839, -24.649779, 58.000000
-14.577839, -24.649779, 58.125000
-14.577839, -24.649779, 58.250000
-14.667825, -24.801938, 58.375000
-14.667825, -24.801938, 58.500000
-14.667825, -24.801938, 58.625000
-14.847799, -25.106257, 58.750000
-14.757812, -24.954097, 58.875000
-14.757812, -24.954097, 59.000000
-14.847799, -25.106257, 59.125000
-14.847799, -25.106257, 59.250000
-14.937785, -25.258416, 59.375000
-15.027772, -25.410575, 59.500000
-14.937785, -25.258416, 59.625000
-15.027772, -25.410575, 59.750000
-15.027772, -25.410575, 59.875000
-15.117759, -25.562734, 60.000000
-15.117759, -25.562734, 60.125000
-15.117759, -25.562734, 60.250000
-15.117759, -25.562734, 60.375000
-15.207745, -25.714893, 60.500000
-15.207745, -25.714893, 60.625000
-15.297732, -25.867052, 60.750000
-15.297732, -25.867052, 60.875000
-15.387719, -26.019211, 61.000000
-15.387719, -26.019211, 61.125000
-15.387719, -26.019211, 61.250000
-15.477705, -26.171371, 61.375000
-15.567692, -26.323530, 61.500000
-15.477705, -26.171371, 61.625000
-15.567692, -26.323530, 61.750000
-15.567692, -26.323530, 61.875000
-15.567692, -26.323530, 62.000000
-15.657679, -26.475689, 62.125000
-15.747665, -26.627848, 62.250000
-15.747665, -26.627848, 62.375000
-15.747665, -26.627848, 62.500000
-15.837652, -26.780007, 62.625000
-15.837652, -26.780007, 62.750000
-15.927639, -26.932166, 62.875000
-15.837652, -26.780007, 63.000000
-15.927639, -26.932166, 63.125000
-15.927639, -26.932166, 63.250000
-16.017625, -27.084325, 63.375000
-16.017625, -27.084325, 63.500000
-16.107612, -27.236484, 63.625000
-16.107612, -27.236484, 63.750000
-16.107612, -27.236484, 63.875000
-16.107612, -27.236484, 64.000000
-16.107612, -27.236484, 64.125000
-16.197599, -27.388644, 64.250000
-16.197599, -27.388644, 64.375000
-16.287585, -27.540803, 64.500000
-16.377572, -27.692962, 64.625000
-16.287585, -27.540803, 64.750000
-16.287585, -27.540803, 64.875000
-16.377572, -27.692962, 65.000000
-16.377572, -27.692962, 65.125000
-16.467559, -27.845121, 65.250000
-16.467559, -27.845121, 65.375000
-16.467559, -27.845121, 65.500000
-16.647532, -28.149439, 65.625000
-16.557545, -27.997280, 65.750000
-16.557545, -27.997280, 65.875000
-16.647532, -28.149439, 66.000000
-16.647532, -28.149439, 66.125000
-16.647532, -28.149439, 66.250000
-16.647532, -28.149439, 66.375000
-16.737519, -28.301598, 66.500000
-16.827505, -28.453758, 66.625000
-16.827505, -28.453758, 66.750000
-16.827505, -28.453758, 66.875000
-16.827505, -28.453758, 67.000000
-16.827505, -28.453758, 67.125000
-16.917492, -28.605917, 67.250000
-16.917492, -28.605917, 67.375000
-17.097465, -28.910235, 67.500000
-17.007479, -28.758076, 67.625000
-17.097465, -28.910235, 67.750000
-17.097465, -28.910235, 67.875000
-17.097465, -28.910235, 68.000000
-17.187452, -29.062394, 68.125000
-17.187452, -29.062394, 68.250000
-17.277439, -29.214553, 68.375000
-17.277439, -29.214553, 68.500000
-17.277439, -29.214553, 68.625000
-17.277439, -29.214553, 68.750000
-17.367425, -29.366712, 68.875000
-17.367425, -29.366712, 69.000000
-17.457412, -29.518871, 69.125000
-17.547399, -29.671031, 69.250000
-17.547399, -29.671031, 69.375000
-17.547399, -29.671031, 69.500000
-17.547399, -29.671031, 69.625000
-17.637385, -29.823190, 69.750000
-17.637385, -29.823190, 69.875000
-17.727372, -29.975349, 70.000000
-17.727372, -29.975349, 70.125000
-17.727372, -29.975349, 70.250000
-17.817359, -30.127508, 70.375000
-17.817359, -30.127508, 70.500000
-17.907345, -30.279667, 70.625000
-17.907345, -30.279667, 70.750000
-17.907345, -30.279667, 70.875000
-17.907345, -30.279667, 71.000000
-17.997332, -30.431826, 71.125000
-17.997332, -30.431826, 71.250000
-17.997332, -30.431826, 71.375000
-18.087319, -30.583985, 71.500000
-18.087319, -30.583985, 71.625000
-18.177305, -30.736144, 71.750000
-18.177305, -30.736144, 71.875000
-18.177305, -30.736144, 72.000000
-18.267292, -30.888304, 72.125000
-18.267292, -30.888304, 72.250000
-18.357278, -31.040463, 72.375000
-18.357278, -31.040463, 72.500000
-18.357278, -31.040463, 72.625000
-18.447265, -31.192622, 72.750000
-18.447265, -31.192622, 72.875000
-18.447265, -31.192622, 73.000000
-18.537252, -31.344781, 73.125000
-18.537252, -31.344781, 73.250000
-18.537252, -31.344781, 73.375000
-18.627238, -31.496940, 73.500000
-18.627238, -31.496940, 73.625000
-18.627238, -31.496940, 73.750000
-18.717225, -31.649099, 73.875000
-18.717225, -31.649099, 74.000000
-18.717225, -31.649099, 74.125000
-18.807212, -31.801258, 74.250000
-18.807212, -31.801258, 74.375000
-18.807212, -31.801258, 74.500000
-18.897198, -31.953418, 74.625000
-18.897198, -31.953418, 74.750000
-18.897198, -31.953418, 74.875000
-18.987185, -32.105577, 75.000000
-18.987185, -32.105577, 75.125000
-19.077172, -32.257736, 75.250000
-19.167158, -32.409895, 75.375000
-19.077172, -32.257736, 75.500000
-19.167158, -32.409895, 75.625000
-19.167158, -32.409895, 75.750000
-19.167158, -32.409895, 75.875000
-19.257145, -32.562054, 76.000000
-19.257145, -32.562054, 76.125000
-19.257145, -32.562054, 76.250000
-19.347132, -32.714213, 76.375000
-19.347132, -32.714213, 76.500000
-19.437118, -32.866372, 76.625000
-19.437118, -32.866372, 76.750000
-19.437118, -32.866372, 76.875000
-19.437118, -32.866372, 77.000000
-19.527105, -33.018531, 77.125000
-19.617092, -33.170691, 77.250000
-19.617092, -33.170691, 77.375000
-19.707078, -33.322850, 77.500000
-19.707078, -33.322850, 77.625000
-19.707078, -33.322850, 77.750000
-19.797065, -33.475009, 77.875000
-19.707078, -33.322850, 78.000000
-19.797065, -33.475009, 78.125000
-19.797065, -33.475009, 78.250000
-19.797065, -33.475009, 78.375000
-19.887052, -33.627168, 78.500000
-19.887052, -33.627168, 78.625000
-19.977038, -33.779327, 78.750000
-19.977038, -33.779327, 78.875000
-19.977038, -33.779327, 79.000000
-20.067025, -33.931486, 79.125000
-20.067025, -33.931486, 79.250000
-20.067025, -33.931486, 79.375000
-20.157012, -34.083645, 79.500000
-20.157012, -34.083645, 79.625000
-20.157012, -34.083645, 79.750000
-20.246998, -34.235804, 79.875000
-20.246998, -34.235804, 80.000000
-20.246998, -34.235804, 80.125000
-20.336985, -34.387964, 80.250000
-20.336985, -34.387964, 80.375000
-20.336985, -34.387964, 80.500000
-20.426972, -34.540123, 80.625000
-20.426972, -34.540123, 80.750000
-20.426972, -34.540123, 80.875000
-20.426972, -34.540123, 81.000000
-20.516958, -34.692282, 81.125000
-20.516958, -34.692282, 81.250000
-20.606945, -34.844441, 81.375000
-20.606945, -34.844441, 81.500000
-20.606945, -34.844441, 81.625000
-20.606945, -34.844441, 81.750000
-20.696932, -34.996600, 81.875000
-20.696932, -34.996600, 82.000000
-20.696932, -34.996600, 82.125000
-20.696932, -34.996600, 82.250000
-20.786918, -35.148759, 82.375000
-20.786918, -35.148759, 82.500000
-20.876905, -35.300918, 82.625000
-20.876905, -35.300918, 82.750000
-20.786918, -35.148759, 82.875000
-18.820984, -34.235242, 13.625000
-18.906147, -34.390153, 13.750000
-18.820984, -34.235242, 13.875000
-18.820984, -34.235242, 14.000000
-18.650658, -33.925421, 14.125000
-18.650658, -33.925421, 14.250000
-18.650658, -33.925421, 14.375000
-18.565495, -33.770511, 14.500000
-18.565495, -33.770511, 14.625000
-18.565495, -33.770511, 14.750000
-18.480332, -33.615600, 14.875000
-18.480332, -33.615600, 15.000000
-18.395170, -33.460689, 15.125000
-18.310007, -33.305779, 15.250000
-18.310007, -33.305779, 15.375000
-18.310007, -33.305779, 15.500000
-18.310007, -33.305779, 15.625000
-18.310007, -33.305779, 15.750000
-18.224844, -33.150868, 15.875000
-18.310007, -33.305779, 16.000000
-18.224844, -33.150868, 16.125000
-18.224844, -33.150868, 16.250000
-18.224844, -33.150868, 16.375000
-18.139681, -32.995958, 16.500000
-18.139681, -32.995958, 16.625000
-18.054518, -32.841047, 16.750000
-18.054518, -32.841047, 16.875000
-18.054518, -32.841047, 17.000000
-18.054518, -32.841047, 17.125000
-18.054518, -32.841047, 17.250000
-17.969356, -32.686136, 17.375000
-17.884193, -32.531226, 17.500000
-17.884193, -32.531226, 17.625000
-17.884193, -32.531226, 17.750000
-17.799030, -32.376315, 17.875000
-17.799030, -32.376315, 18.000000
-17.713867, -32.221405, 18.125000
-17.713867, -32.221405, 18.250000
-17.713867, -32.221405, 18.375000
-17.713867, -32.221405, 18.500000
-17.713867, -32.221405, 18.625000
-17.713867, -32.221405, 18.750000
-17.628704, -32.066494, 18.875000
-17.628704, -32.066494, 19.000000
-17.543541, -31.911583, 19.125000
-17.543541, -31.911583, 19.250000
-17.543541, -31.911583, 19.375000
-17.458379, -31.756673, 19.500000
-17.458379, -31.756673, 19.625000
-17.458379, -31.756673, 19.750000
-17.458379, -31.756673, 19.875000
-17.373216, -31.601762, 20.000000
-17.373216, -31.601762, 20.125000
-17.373216, -31.601762, 20.250000
-17.288053, -31.446852, 20.375000
-17.288053, -31.446852, 20.500000
-17.288053, -31.446852, 20.625000
-17.288053, -31.446852, 20.750000
-17.202890, -31.291941, 20.875000
-17.202890, -31.291941, 21.000000
-17.202890, -31.291941, 21.125000
-17.117727, -31.137030, 21.250000
-17.202890, -31.291941, 21.375000
-17.117727, -31.137030, 21.500000
-17.032564, -30.982120, 21.625000
-17.032564, -30.982120, 21.750000
-17.032564, -30.982120, 21.875000
-17.032564, -30.982120, 22.000000
-16.947402, -30.827209, 22.125000
-16.947402, -30.827209, 22.250000
-16.947402, -30.827209, 22.375000
-16.862239, -30.672299, 22.500000
-16.862239, -30.672299, 22.625000
-16.862239, -30.672299, 22.750000
-16.862239, -30.672299, 22.875000
-16.777076, -30.517388, 23.000000
-16.777076, -30.517388, 23.125000
-16.777076, -30.517388, 23.250000
-16.691913, -30.362477, 23.375000
-16.691913, -30.362477, 23.500000
-16.691913, -30.362477, 23.625000
-16.691913, -30.362477, 23.750000
-16.606750, -30.207567, 23.875000
-16.606750, -30.207567, 24.000000
-16.606750, -30.207567, 24.125000
-16.521588, -30.052656, 24.250000
-16.521588, -30.052656, 24.375000
-16.521588, -30.052656, 24.500000
-16.436425, -29.897746, 24.625000
-16.436425, -29.897746, 24.750000
-16.436425, -29.897746, 24.875000
-16.351262, -29.742835, 25.000000
-16.351262, -29.742835, 25.125000
-16.266099, -29.587924, 25.250000
-16.266099, -29.587924, 25.375000
-16.266099, -29.587924, 25.500000
-16.266099, -29.587924, 25.625000
-16.180936, -29.433014, 25.750000
-16.180936, -29.433014, 25.875000
-16.180936, -29.433014, 26.000000
-16.180936, -29.433014, 26.125000
-16.095773, -29.278103, 26.250000
-16.095773, -29.278103, 26.375000
-16.095773, -29.278103, 26.500000
-16.095773, -29.278103, 26.625000
-16.095773, -29.278103, 26.750000
-16.095773, -29.278103, 26.875000
-16.010611, -29.123193, 27.000000
-16.010611, -29.123193, 27.125000
-15.925448, -28.968282, 27.250000
-15.925448, -28.968282, 27.375000
-15.925448, -28.968282, 27.500000
-15.925448, -28.968282, 27.625000
-15.925448, -28.968282, 27.750000
-15.925448, -28.968282, 27.875000
-15.840285, -28.813371, 28.000000
-15.755122, -28.658461, 28.125000
-15.755122, -28.658461, 28.250000
-15.755122, -28.658461, 28.375000
-15.755122, -28.658461, 28.500000
-15.755122, -28.658461, 28.625000
-15.669959, -28.503550, 28.750000
-15.669959, -28.503550, 28.875000
-15.669959, -28.503550, 29.000000
-15.669959, -28.503550, 29.125000
-15.584797, -28.348640, 29.250000
-15.584797, -28.348640, 29.375000
-15.584797, -28.348640, 29.500000
-15.499634, -28.193729, 29.625000
-15.499634, -28.193729, 29.750000
-15.499634, -28.193729, 29.875000
-15.414471, -28.038818, 30.000000
-15.414471, -28.038818, 30.125000
-15.414471, -28.038818, 30.250000
-15.329308, -27.883908, 30.375000
-15.329308, -27.883908, 30.500000
-15.329308, -27.883908, 30.625000
-15.329308, -27.883908, 30.750000
-15.244145, -27.728997, 30.875000
-15.244145, -27.728997, 31.000000
-15.244145, -27.728997, 31.125000
-15.244145, -27.728997, 31.250000
-15.158982, -27.574087, 31.375000
-15.158982, -27.574087, 31.500000
-15.073820, -27.419176, 31.625000
-15.073820, -27.419176, 31.750000
-15.073820, -27.419176, 31.875000
-15.073820, -27.419176, 32.000000
-14.988657, -27.264265, 32.125000
-14.988657, -27.264265, 32.250000
-14.988657, -27.264265, 32.375000
-14.988657, -27.264265, 32.500000
-14.903494, -27.109355, 32.625000
-14.903494, -27.109355, 32.750000
-14.903494, -27.109355, 32.875000
-14.818331, -26.954444, 33.000000
-14.818331, -26.954444, 33.125000
-14.818331, -26.954444, 33.250000
-14.818331, -26.954444, 33.375000
-14.733168, -26.799534, 33.500000
-14.733168, -26.799534, 33.625000
-14.733168, -26.799534, 33.750000
-14.733168, -26.799534, 33.875000
-14.648005, -26.644623, 34.000000
-14.648005, -26.644623, 34.125000
-14.648005, -26.644623, 34.250000
-14.562843, -26.489712, 34.375000
-14.562843, -26.489712, 34.500000
-14.562843, -26.489712, 34.625000
-14.477680, -26.334802, 34.750000
-14.477680, -26.334802, 34.875000
-14.477680, -26.334802, 35.000000
-14.477680, -26.334802, 35.125000
-14.392517, -26.179891, 35.250000
-14.392517, -26.179891, 35.375000
-14.392517, -26.179891, 35.500000
-14.307354, -26.024981, 35.625000
-14.307354, -26.024981, 35.750000
-14.307354, -26.024981, 35.875000
-14.307354, -26.024981, 36.000000
-14.222191, -25.870070, 36.125000
-14.222191, -25.870070, 36.250000
-14.222191, -25.870070, 36.375000
-14.137029, -25.715159, 36.500000
-14.137029, -25.715159, 36.625000
-14.137029, -25.715159, 36.750000
-14.137029, -25.715159, 36.875000
-14.051866, -25.560249, 37.000000
-14.051866, -25.560249, 37.125000
-14.051866, -25.560249, 37.250000
-13.966703, -25.405338, 37.375000
-13.966703, -25.405338, 37.500000
-13.966703, -25.405338, 37.625000
-13.881540, -25.250428, 37.750000
-13.881540, -25.250428, 37.875000
-13.881540, -25.250428, 38.000000
-13.881540, -25.250428, 38.125000
-13.796377, -25.095517, 38.250000
-13.796377, -25.095517, 38.375000
-13.796377, -25.095517, 38.500000
-13.711214, -24.940606, 38.625000
-13.711214, -24.940606, 38.750000
-13.711214, -24.940606, 38.875000
-13.711214, -24.940606, 39.000000
-13.626052, -24.785696, 39.125000
-13.626052, -24.785696, 39.250000
-13.626052, -24.785696, 39.375000
-13.540889, -24.630785, 39.500000
-13.540889, -24.630785, 39.625000
-13.540889, -24.630785, 39.750000
-13.455726, -24.475875, 39.875000
-13.455726, -24.475875, 40.000000
-13.455726, -24.475875, 40.125000
-13.370563, -24.320964, 40.250000
-13.370563, -24.320964, 40.375000
-13.370563, -24.320964, 40.500000
-13.370563, -24.320964, 40.625000
-13.285400, -24.166053, 40.750000
-13.285400, -24.166053, 40.875000
-13.285400, -24.166053, 41.000000
-13.285400, -24.166053, 41.125000
-13.285400, -24.166053, 41.250000
-13.200237, -24.011143, 41.375000
-13.200237, -24.011143, 41.500000
-13.115075, -23.856232, 41.625000
-13.115075, -23.856232, 41.750000
-13.115075, -23.856232, 41.875000
-13.115075, -23.856232, 42.000000
-13.115075, -23.856232, 42.125000
-13.029912, -23.701322, 42.250000
-13.029912, -23.701322, 42.375000
-13.029912, -23.701322, 42.500000
-13.029912, -23.701322, 42.625000
-12.944749, -23.546411, 42.750000
-12.944749, -23.546411, 42.875000
-12.944749, -23.546411, 43.000000
-12.859586, -23.391500, 43.125000
-12.859586, -23.391500, 43.250000
-12.859586, -23.391500, 43.375000
-12.859586, -23.391500, 43.500000
-12.774423, -23.236590, 43.625000
-12.774423, -23.236590, 43.750000
-12.774423, -23.236590, 43.875000
-12.689261, -23.081679, 44.000000
-12.689261, -23.081679, 44.125000
-12.689261, -23.081679, 44.250000
-12.604098, -22.926769, 44.375000
-12.604098, -22.926769, 44.500000
-12.604098, -22.926769, 44.625000
-12.604098, -22.926769, 44.750000
-12.604098, -22.926769, 44.875000
-12.518935, -22.771858, 45.000000
-12.518935, -22.771858, 45.125000
-12.518935, -22.771858, 45.250000
-12.433772, -22.616947, 45.375000
-12.433772, -22.616947, 45.500000
-12.433772, -22.616947, 45.625000
-12.433772, -22.616947, 45.750000
-12.433772, -22.616947, 45.875000
-12.348609, -22.462037, 46.000000
-12.348609, -22.462037, 46.125000
-12.348609, -22.462037, 46.250000
-12.263446, -22.307126, 46.375000
-12.263446, -22.307126, 46.500000
-12.178284, -22.152216, 46.625000
-12.263446, -22.307126, 46.750000
-12.178284, -22.152216, 46.875000
-12.178284, -22.152216, 47.000000
-12.178284, -22.152216, 47.125000
-12.093121, -21.997305, 47.250000
-12.093121, -21.997305, 47.375000
-12.093121, -21.997305, 47.500000
-12.007958, -21.842394, 47.625000
-12.007958, -21.842394, 47.750000
-12.007958, -21.842394, 47.875000
-12.007958, -21.842394, 48.000000
-11.922795, -21.687484, 48.125000
-11.922795, -21.687484, 48.250000
-11.837632, -21.532573, 48.375000
-11.837632, -21.532573, 48.500000
-11.837632, -21.532573, 48.625000
-11.922795, -21.687484, 48.750000
-11.837632, -21.532573, 48.875000
-11.922795, -21.687484, 49.000000
-11.752469, -21.377663, 49.125000
-11.837632, -21.532573, 49.250000
-11.837632, -21.532573, 49.375000
-11.837632, -21.532573, 49.500000
-11.837632, -21.532573, 49.625000
-11.922795, -21.687484, 49.750000
-11.922795, -21.687484, 49.875000
-11.922795, -21.687484, 50.000000
-11.922795, -21.687484, 50.125000
-12.007958, -21.842394, 50.250000
-12.007958, -21.842394, 50.375000
-12.007958, -21.842394, 50.500000
-12.093121, -21.997305, 50.625000
-12.093121, -21.997305, 50.750000
-12.093121, -21.997305, 50.875000
-12.178284, -22.152216, 51.000000
-12.178284, -22.152216, 51.125000
-12.178284, -22.152216, 51.250000
-12.178284, -22.152216, 51.375000
-12.263446, -22.307126, 51.500000
-12.263446, -22.307126, 51.625000
-12.348609, -22.462037, 51.750000
-12.348609, -22.462037, 51.875000
-12.348609, -22.462037, 52.000000
-12.433772, -22.616947, 52.125000
-12.433772, -22.616947, 52.250000
-12.433772, -22.616947, 52.375000
-12.518935, -22.771858, 52.500000
-12.604098, -22.926769, 52.625000
-12.604098, -22.926769, 52.750000
-12.604098, -22.926769, 52.875000
-12.604098, -22.926769, 53.000000
-12.604098, -22.926769, 53.125000
-12.689261, -23.081679, 53.250000
-12.774423, -23.236590, 53.375000
-12.774423, -23.236590, 53.500000
-12.774423, -23.236590, 53.625000
-12.859586, -23.391500, 53.750000
-12.859586, -23.391500, 53.875000
-12.859586, -23.391500, 54.000000
-12.944749, -23.546411, 54.125000
-12.944749, -23.546411, 54.250000
-12.944749, -23.546411, 54.375000
-13.029912, -23.701322, 54.500000
-13.029912, -23.701322, 54.625000
-13.029912, -23.701322, 54.750000
-13.029912, -23.701322, 54.875000
-13.115075, -23.856232, 55.000000
-13.115075, -23.856232, 55.125000
-13.200237, -24.011143, 55.250000
-13.200237, -24.011143, 55.375000
-13.285400, -24.166053, 55.500000
-13.370563, -24.320964, 55.625000
-13.285400, -24.166053, 55.750000
-13.285400, -24.166053, 55.875000
-13.370563, -24.320964, 56.000000
-13.370563, -24.320964, 56.125000
-13.455726, -24.475875, 56.250000
-13.540889, -24.630785, 56.375000
-13.455726, -24.475875, 56.500000
-13.626052, -24.785696, 56.625000
-13.540889, -24.630785, 56.750000
-13.540889, -24.630785, 56.875000
-13.626052, -24.785696, 57.000000
-13.626052, -24.785696, 57.125000
-13.711214, -24.940606, 57.250000
-13.711214, -24.940606, 57.375000
-13.711214, -24.940606, 57.500000
-13.796377, -25.095517, 57.625000
-13.796377, -25.095517, 57.750000
-13.796377, -25.095517, 57.875000
-13.796377, -25.095517, 58.000000
-13.881540, -25.250428, 58.125000
-13.881540, -25.250428, 58.250000
-13.966703, -25.405338, 58.375000
-14.051866, -25.560249, 58.500000
-13.966703, -25.405338, 58.625000
-14.051866, -25.560249, 58.750000
-14.051866, -25.560249, 58.875000
-14.051866, -25.560249, 59.000000
-14.137029, -25.715159, 59.125000
-14.137029, -25.715159, 59.250000
-14.137029, -25.715159, 59.375000
-14.222191, -25.870070, 59.500000
-14.222191, -25.870070, 59.625000
-14.222191, -25.870070, 59.750000
-14.392517, -26.179891, 59.875000
-14.307354, -26.024981, 60.000000
-14.307354, -26.024981, 60.125000
-14.392517, -26.179891, 60.250000
-14.392517, -26.179891, 60.375000
-14.392517, -26.179891, 60.500000
-14.477680, -26.334802, 60.625000
-14.477680, -26.334802, 60.750000
-14.562843, -26.489712, 60.875000
-14.562843, -26.489712, 61.000000
-14.648005, -26.644623, 61.125000
-14.648005, -26.644623, 61.250000
-14.648005, -26.644623, 61.375000
-14.733168, -26.799534, 61.500000
-14.733168, -26.799534, 61.625000
-14.733168, -26.799534, 61.750000
-14.818331, -26.954444, 61.875000
-14.818331, -26.954444, 62.000000
-14.818331, -26.954444, 62.125000
-14.903494, -27.109355, 62.250000
-14.988657, -27.264265, 62.375000
-14.988657, -27.264265, 62.500000
-14.988657, -27.264265, 62.625000
-14.988657, -27.264265, 62.750000
-15.073820, -27.419176, 62.875000
-15.073820, -27.419176, 63.000000
-15.073820, -27.419176, 63.125000
-15.158982, -27.574087, 63.250000
-15.158982, -27.574087, 63.375000
-15.244145, -27.728997, 63.500000
-15.244145, -27.728997, 63.625000
-15.244145, -27.728997, 63.750000
-15.244145, -27.728997, 63.875000
-15.329308, -27.883908, 64.000000
-15.414471, -28.038818, 64.125000
-15.329308, -27.883908, 64.250000
-15.414471, -28.038818, 64.375000
-15.414471, -28.038818, 64.500000
-15.499634, -28.193729, 64.625000
-15.499634, -28.193729, 64.750000
-15.499634, -28.193729, 64.875000
-15.499634, -28.193729, 65.000000
-15.584797, -28.348640, 65.125000
-15.584797, -28.348640, 65.250000
-15.669959, -28.503550, 65.375000
-15.755122, -28.658461, 65.500000
-15.669959, -28.503550, 65.625000
-15.755122, -28.658461, 65.750000
-15.840285, -28.813371, 65.875000
-15.755122, -28.658461, 66.000000
-15.755122, -28.658461, 66.125000
-15.925448, -28.968282, 66.250000
-15.840285, -28.813371, 66.375000
-15.925448, -28.968282, 66.500000
-15.925448, -28.968282, 66.625000
-15.925448, -28.968282, 66.750000
-15.925448, -28.968282, 66.875000
-16.010611, -29.123193, 67.000000
-16.010611, -29.123193, 67.125000
-16.010611, -29.123193, 67.250000
-16.095773, -29.278103, 67.375000
-16.095773, -29.278103, 67.500000
-16.180936, -29.433014, 67.625000
-16.266099, -29.587924, 67.750000
-16.180936, -29.433014, 67.875000
-16.266099, -29.587924, 68.000000
-16.266099, -29.587924, 68.125000
-16.266099, -29.587924, 68.250000
-16.351262, -29.742835, 68.375000
-16.351262, -29.742835, 68.500000
-16.436425, -29.897746, 68.625000
-16.436425, -29.897746, 68.750000
-16.436425, -29.897746, 68.875000
-16.521588, -30.052656, 69.000000
-16.521588, -30.052656, 69.125000
-16.606750, -30.207567, 69.250000
-16.606750, -30.207567, 69.375000
-16.606750, -30.207567, 69.500000
-16.691913, -30.362477, 69.625000
-16.691913, -30.362477, 69.750000
-16.777076, -30.517388, 69.875000
-16.777076, -30.517388, 70.000000
-16.777076, -30.517388, 70.125000
-16.862239, -30.672299, 70.250000
-16.862239, -30.672299, 70.375000
-16.862239, -30.672299, 70.500000
-16.947402, -30.827209, 70.625000
-16.947402, -30.827209, 70.750000
-16.947402, -30.827209, 70.875000
-16.947402, -30.827209, 71.000000
-17.032564, -30.982120, 71.125000
-17.117727, -31.137030, 71.250000
-17.032564, -30.982120, 71.375000
-17.202890, -31.291941, 71.500000
-17.117727, -31.137030, 71.625000
-17.202890, -31.291941, 71.750000
-17.202890, -31.291941, 71.875000
-17.202890, -31.291941, 72.000000
-17.288053, -31.446852, 72.125000
-17.288053, -31.446852, 72.250000
-17.373216, -31.601762, 72.375000
-17.373216, -31.601762, 72.500000
-17.373216, -31.601762, 72.625000
-17.458379, -31.756673, 72.750000
-17.458379, -31.756673, 72.875000
-17.458379, -31.756673, 73.000000
-17.543541, -31.911583, 73.125000
-17.543541, -31.911583, 73.250000
-17.543541, -31.911583, 73.375000
-17.628704, -32.066494, 73.500000
-17.628704, -32.066494, 73.625000
-17.713867, -32.221405, 73.750000
-17.713867, -32.221405, 73.875000
-17.713867, -32.221405, 74.000000
-17.799030, -32.376315, 74.125000
-17.799030, -32.376315, 74.250000
-17.799030, -32.376315, 74.375000
-17.799030, -32.376315, 74.500000
-17.884193, -32.531226, 74.625000
-17.884193, -32.531226, 74.750000
-17.969356, -32.686136, 74.875000
-17.969356, -32.686136, 75.000000
-17.969356, -32.686136, 75.125000
-18.139681, -32.995958, 75.250000
-18.054518, -32.841047, 75.375000
-18.139681, -32.995958, 75.500000
-18.139681, -32.995958, 75.625000
-18.224844, -33.150868, 75.750000
-18.139681, -32.995958, 75.875000
-18.224844, -33.150868, 76.000000
-18.224844, -33.150868, 76.125000
-18.310007, -33.305779, 76.250000
-18.310007, -33.305779, 76.375000
-18.310007, -33.305779, 76.500000
-18.395170, -33.460689, 76.625000
-18.395170, -33.460689, 76.750000
-18.395170, -33.460689, 76.875000
-18.480332, -33.615600, 77.000000
-18.480332, -33.615600, 77.125000
-18.565495, -33.770511, 77.250000
-18.565495, -33.770511, 77.375000
-18.565495, -33.770511, 77.500000
-18.565495, -33.770511, 77.625000
-18.650658, -33.925421, 77.750000
-18.650658, -33.925421, 77.875000
-18.735821, -34.080332, 78.000000
-18.735821, -34.080332, 78.125000
-18.735821, -34.080332, 78.250000
-18.820984, -34.235242, 78.375000
-18.820984, -34.235242, 78.500000
-18.906147, -34.390153, 78.625000
-18.906147, -34.390153, 78.750000
-18.906147, -34.390153, 78.875000
-18.991309, -34.545064, 79.000000
-18.991309, -34.545064, 79.125000
-18.991309, -34.545064, 79.250000
-18.991309, -34.545064, 79.375000
-19.076472, -34.699974, 79.500000
-19.076472, -34.699974, 79.625000
-19.076472, -34.699974, 79.750000
-19.161635, -34.854885, 79.875000
-19.161635, -34.854885, 80.000000
-19.246798, -35.009795, 80.125000
-19.246798, -35.009795, 80.250000
-19.246798, -35.009795, 80.375000
-19.246798, -35.009795, 80.500000
-19.331961, -35.164706, 80.625000
-19.331961, -35.164706, 80.750000
-19.331961, -35.164706, 80.875000
-19.331961, -35.164706, 81.000000
-19.417124, -35.319617, 81.125000
-19.502286, -35.474527, 81.250000
-19.502286, -35.474527, 81.375000
-19.502286, -35.474527, 81.500000
-19.587449, -35.629438, 81.625000
-19.587449, -35.629438, 81.750000
-19.587449, -35.629438, 81.875000
-19.587449, -35.629438, 82.000000
-19.587449, -35.629438, 82.125000
-19.672612, -35.784348, 82.250000
-19.672612, -35.784348, 82.375000
-19.757775, -35.939259, 82.500000
-19.672612, -35.784348, 82.625000
-19.757775, -35.939259, 82.750000
-19.672612, -35.784348, 82.875000
-19.757775, -35.939259, 83.000000
-19.672612, -35.784348, 83.125000
-17.656087, -34.652022, 13.625000
-17.736342, -34.809531, 13.750000
-17.656087, -34.652022, 13.875000
-17.656087, -34.652022, 14.000000
-17.575832, -34.494512, 14.125000
-17.575832, -34.494512, 14.250000
-17.495577, -34.337003, 14.375000
-17.495577, -34.337003, 14.500000
-17.495577, -34.337003, 14.625000
-17.415322, -34.179494, 14.750000
-17.415322, -34.179494, 14.875000
-17.335067, -34.021985, 15.000000
-17.415322, -34.179494, 15.125000
-17.335067, -34.021985, 15.250000
-17.254812, -33.864476, 15.375000
-17.254812, -33.864476, 15.500000
-17.254812, -33.864476, 15.625000
-17.254812, -33.864476, 15.750000
-17.174557, -33.706966, 15.875000
-17.174557, -33.706966, 16.000000
-17.094302, -33.549457, 16.125000
-17.094302, -33.549457, 16.250000
-17.094302, -33.549457, 16.375000
-17.174557, -33.706966, 16.500000
-17.014047, -33.391948, 16.625000
-17.014047, -33.391948, 16.750000
-17.014047, -33.391948, 16.875000
-17.014047, -33.391948, 17.000000
-16.933792, -33.234439, 17.125000
-16.933792, -33.234439, 17.250000
-16.853537, -33.076930, 17.375000
-16.853537, -33.076930, 17.500000
-16.773283, -32.919420, 17.625000
-16.773283, -32.919420, 17.750000
-16.773283, -32.919420, 17.875000
-16.693028, -32.761911, 18.000000
-16.693028, -32.761911, 18.125000
-16.693028, -32.761911, 18.250000
-16.693028, -32.761911, 18.375000
-16.612773, -32.604402, 18.500000
-16.612773, -32.604402, 18.625000
-16.612773, -32.604402, 18.750000
-16.612773, -32.604402, 18.875000
-16.532518, -32.446893, 19.000000
-16.532518, -32.446893, 19.125000
-16.612773, -32.604402, 19.250000
-16.452263, -32.289384, 19.375000
-16.452263, -32.289384, 19.500000
-16.452263, -32.289384, 19.625000
-16.452263, -32.289384, 19.750000
-16.372008, -32.131875, 19.875000
-16.372008, -32.131875, 20.000000
-16.372008, -32.131875, 20.125000
-16.291753, -31.974365, 20.250000
-16.291753, -31.974365, 20.375000
-16.291753, -31.974365, 20.500000
-16.291753, -31.974365, 20.625000
-16.291753, -31.974365, 20.750000
-16.211498, -31.816856, 20.875000
-16.211498, -31.816856, 21.000000
-16.211498, -31.816856, 21.125000
-16.131243, -31.659347, 21.250000
-16.050988, -31.501838, 21.375000
-16.050988, -31.501838, 21.500000
-16.050988, -31.501838, 21.625000
-16.050988, -31.501838, 21.750000
-16.050988, -31.501838, 21.875000
-15.970733, -31.344329, 22.000000
-15.970733, -31.344329, 22.125000
-15.970733, -31.344329, 22.250000
-15.970733, -31.344329, 22.375000
-15.890478, -31.186819, 22.500000
-15.890478, -31.186819, 22.625000
-15.890478, -31.186819, 22.750000
-15.810223, -31.029310, 22.875000
-15.810223, -31.029310, 23.000000
-15.810223, -31.029310, 23.125000
-15.810223, -31.029310, 23.250000
-15.729968, -30.871801, 23.375000
-15.729968, -30.871801, 23.500000
-15.649713, -30.714292, 23.625000
-15.729968, -30.871801, 23.750000
-15.649713, -30.714292, 23.875000
-15.649713, -30.714292, 24.000000
-15.569458, -30.556783, 24.125000
-15.569458, -30.556783, 24.250000
-15.489203, -30.399273, 24.375000
-15.489203, -30.399273, 24.500000
-15.489203, -30.399273, 24.625000
-15.489203, -30.399273, 24.750000
-15.408949, -30.241764, 24.875000
-15.408949, -30.241764, 25.000000
-15.328694, -30.084255, 25.125000
-15.328694, -30.084255, 25.250000
-15.328694, -30.084255, 25.375000
-15.328694, -30.084255, 25.500000
-15.248439, -29.926746, 25.625000
-15.248439, -29.926746, 25.750000
-15.248439, -29.926746, 25.875000
-15.248439, -29.926746, 26.000000
-15.168184, -29.769237, 26.125000
-15.168184, -29.769237, 26.250000
-15.168184, -29.769237, 26.375000
-15.168184, -29.769237, 26.500000
-15.168184, -29.769237, 26.625000
-15.087929, -29.611728, 26.750000
-15.087929, -29.611728, 26.875000
-15.007674, -29.454218, 27.000000
-15.007674, -29.454218, 27.125000
-15.007674, -29.454218, 27.250000
-15.007674, -29.454218, 27.375000
-15.007674, -29.454218, 27.500000
-15.007674, -29.454218, 27.625000
-14.927419, -29.296709, 27.750000
-14.847164, -29.139200, 27.875000
-14.847164, -29.139200, 28.000000
-14.847164, -29.139200, 28.125000
-14.847164, -29.139200, 28.250000
-14.847164, -29.139200, 28.375000
-14.847164, -29.139200, 28.500000
-14.766909, -28.981691, 28.625000
-14.766909, -28.981691, 28.750000
-14.766909, -28.981691, 28.875000
-14.686654, -28.824182, 29.000000
-14.686654, -28.824182, 29.125000
-14.686654, -28.824182, 29.250000
-14.606399, -28.666672, 29.375000
-14.606399, -28.666672, 29.500000
-14.606399, -28.666672, 29.625000
-14.606399, -28.666672, 29.750000
-14.526144, -28.509163, 29.875000
-14.526144, -28.509163, 30.000000
-14.526144, -28.509163, 30.125000
-14.445889, -28.351654, 30.250000
-14.445889, -28.351654, 30.375000
-14.445889, -28.351654, 30.500000
-14.445889, -28.351654, 30.625000
-14.365634, -28.194145, 30.750000
-14.365634, -28.194145, 30.875000
-14.285379, -28.036636, 31.000000
-14.285379, -28.036636, 31.125000
-14.285379, -28.036636, 31.250000
-14.285379, -28.036636, 31.375000
-14.205124, -27.879126, 31.500000
-14.205124, -27.879126, 31.625000
-14.205124, -27.879126, 31.750000
-14.205124, -27.879126, 31.875000
-14.124869, -27.721617, 32.000000
-14.124869, -27.721617, 32.125000
-14.124869, -27.721617, 32.250000
-14.124869, -27.721617, 32.375000
-14.044615, -27.564108, 32.500000
-14.044615, -27.564108, 32.625000
-14.044615, -27.564108, 32.750000
-13.964360, -27.406599, 32.875000
-13.964360, -27.406599, 33.000000
-13.964360, -27.406599, 33.125000
-13.964360, -27.406599, 33.250000
-13.884105, -27.249090, 33.375000
-13.884105, -27.249090, 33.500000
-13.884105, -27.249090, 33.625000
-13.803850, -27.091580, 33.750000
-13.803850, -27.091580, 33.875000
-13.803850, -27.091580, 34.000000
-13.803850, -27.091580, 34.125000
-13.723595, -26.934071, 34.250000
-13.723595, -26.934071, 34.375000
-13.723595, -26.934071, 34.500000
-13.643340, -26.776562, 34.625000
-13.643340, -26.776562, 34.750000
-13.643340, -26.776562, 34.875000
-13.563085, -26.619053, 35.000000
-13.563085, -26.619053, 35.125000
-13.563085, -26.619053, 35.250000
-13.563085, -26.619053, 35.375000
-13.482830, -26.461544, 35.500000
-13.482830, -26.461544, 35.625000
-13.482830, -26.461544, 35.750000
-13.482830, -26.461544, 35.875000
-13.482830, -26.461544, 36.000000
-13.402575, -26.304035, 36.125000
-13.402575, -26.304035, 36.250000
-13.402575, -26.304035, 36.375000
-13.322320, -26.146525, 36.500000
-13.322320, -26.146525, 36.625000
-13.242065, -25.989016, 36.750000
-13.242065, -25.989016, 36.875000
-13.242065, -25.989016, 37.000000
-13.242065, -25.989016, 37.125000
-13.161810, -25.831507, 37.250000
-13.161810, -25.831507, 37.375000
-13.161810, -25.831507, 37.500000
-13.081555, -25.673998, 37.625000
-13.081555, -25.673998, 37.750000
-13.081555, -25.673998, 37.875000
-13.001300, -25.516489, 38.000000
-13.001300, -25.516489, 38.125000
-13.001300, -25.516489, 38.250000
-12.921045, -25.358979, 38.375000
-12.921045, -25.358979, 38.500000
-12.921045, -25.358979, 38.625000
-12.921045, -25.358979, 38.750000
-12.840790, -25.201470, 38.875000
-12.840790, -25.201470, 39.000000
-12.840790, -25.201470, 39.125000
-12.840790, -25.201470, 39.250000
-12.760535, -25.043961, 39.375000
-12.760535, -25.043961, 39.500000
-12.760535, -25.043961, 39.625000
-12.680281, -24.886452, 39.750000
-12.680281, -24.886452, 39.875000
-12.680281, -24.886452, 40.000000
-12.680281, -24.886452, 40.125000
-12.680281, -24.886452, 40.250000
-12.600026, -24.728943, 40.375000
-12.600026, -24.728943, 40.500000
-12.600026, -24.728943, 40.625000
-12.519771, -24.571433, 40.750000
-12.519771, -24.571433, 40.875000
-12.519771, -24.571433, 41.000000
-12.519771, -24.571433, 41.125000
-12.439516, -24.413924, 41.250000
-12.439516, -24.413924, 41.375000
-12.439516, -24.413924, 41.500000
-12.359261, -24.256415, 41.625000
-12.359261, -24.256415, 41.750000
-12.359261, -24.256415, 41.875000
-12.279006, -24.098906, 42.000000
-12.279006, -24.098906, 42.125000
-12.279006, -24.098906, 42.250000
-12.279006, -24.098906, 42.375000
-12.279006, -24.098906, 42.500000
-12.198751, -23.941397, 42.625000
-12.198751, -23.941397, 42.750000
-12.198751, -23.941397, 42.875000
-12.118496, -23.783888, 43.000000
-12.118496, -23.783888, 43.125000
-12.118496, -23.783888, 43.250000
-12.118496, -23.783888, 43.375000
-12.038241, -23.626378, 43.500000
-12.038241, -23.626378, 43.625000
-12.038241, -23.626378, 43.750000
-11.957986, -23.468869, 43.875000
-11.957986, -23.468869, 44.000000
-11.957986, -23.468869, 44.125000
-11.957986, -23.468869, 44.250000
-11.877731, -23.311360, 44.375000
-11.877731, -23.311360, 44.500000
-11.877731, -23.311360, 44.625000
-11.797476, -23.153851, 44.750000
-11.797476, -23.153851, 44.875000
-11.797476, -23.153851, 45.000000
-11.797476, -23.153851, 45.125000
-11.717221, -22.996342, 45.250000
-11.717221, -22.996342, 45.375000
-11.717221, -22.996342, 45.500000
-11.636966, -22.838832, 45.625000
-11.636966, -22.838832, 45.750000
-11.636966, -22.838832, 45.875000
-11.556711, -22.681323, 46.000000
-11.636966, -22.838832, 46.125000
-11.556711, -22.681323, 46.250000
-11.556711, -22.681323, 46.375000
-11.556711, -22.681323, 46.500000
-11.556711, -22.681323, 46.625000
-11.476456, -22.523814, 46.750000
-11.476456, -22.523814, 46.875000
-11.476456, -22.523814, 47.000000
-11.396202, -22.366305, 47.125000
-11.396202, -22.366305, 47.250000
-11.396202, -22.366305, 47.375000
-11.396202, -22.366305, 47.500000
-11.315947, -22.208796, 47.625000
-11.315947, -22.208796, 47.750000
-11.235692, -22.051286, 47.875000
-11.315947, -22.208796, 48.000000
-11.235692, -22.051286, 48.125000
-11.235692, -22.051286, 48.250000
-11.155437, -21.893777, 48.375000
-11.155437, -21.893777, 48.500000
-11.075182, -21.736268, 48.625000
-11.075182, -21.736268, 48.750000
-11.075182, -21.736268, 48.875000
-11.075182, -21.736268, 49.000000
-11.075182, -21.736268, 49.125000
-11.155437, -21.893777, 49.250000
-11.155437, -21.893777, 49.375000
-11.155437, -21.893777, 49.500000
-11.155437, -21.893777, 49.625000
-11.155437, -21.893777, 49.750000
-11.235692, -22.051286, 49.875000
-11.235692, -22.051286, 50.000000
-11.235692, -22.051286, 50.125000
-11.235692, -22.051286, 50.250000
-11.315947, -22.208796, 50.375000
-11.315947, -22.208796, 50.500000
-11.315947, -22.208796, 50.625000
-11.396202, -22.366305, 50.750000
-11.476456, -22.523814, 50.875000
-11.476456, -22.523814, 51.000000
-11.476456, -22.523814, 51.125000
-11.476456, -22.523814, 51.250000
-11.476456, -22.523814, 51.375000
-11.556711, -22.681323, 51.500000
-11.636966, -22.838832, 51.625000
-11.556711, -22.681323, 51.750000
-11.636966, -22.838832, 51.875000
-11.636966, -22.838832, 52.000000
-11.717221, -22.996342, 52.125000
-11.717221, -22.996342, 52.250000
-11.717221, -22.996342, 52.375000
-11.797476, -23.153851, 52.500000
-11.797476, -23.153851, 52.625000
-11.797476, -23.153851, 52.750000
-11.797476, -23.153851, 52.875000
-11.957986, -23.468869, 53.000000
-11.877731, -23.311360, 53.125000
-11.957986, -23.468869, 53.250000
-11.957986, -23.468869, 53.375000
-12.038241, -23.626378, 53.500000
-12.038241, -23.626378, 53.625000
-12.038241, -23.626378, 53.750000
-12.118496, -23.783888, 53.875000
-12.118496, -23.783888, 54.000000
-12.118496, -23.783888, 54.125000
-12.198751, -23.941397, 54.250000
-12.198751, -23.941397, 54.375000
-12.198751, -23.941397, 54.500000
-12.279006, -24.098906, 54.625000
-12.279006, -24.098906, 54.750000
-12.279006, -24.098906, 54.875000
-12.359261, -24.256415, 55.000000
-12.359261, -24.256415, 55.125000
-12.439516, -24.413924, 55.250000
-12.439516, -24.413924, 55.375000
-12.439516, -24.413924, 55.500000
-12.519771, -24.571433, 55.625000
-12.519771, -24.571433, 55.750000
-12.519771, -24.571433, 55.875000
-12.680281, -24.886452, 56.000000
-12.600026, -24.728943, 56.125000
-12.600026, -24.728943, 56.250000
-12.680281, -24.886452, 56.375000
-12.680281, -24.886452, 56.500000
-12.760535, -25.043961, 56.625000
-12.760535, -25.043961, 56.750000
-12.760535, -25.043961, 56.875000
-12.840790, -25.201470, 57.000000
-12.921045, -25.358979, 57.125000
-12.840790, -25.201470, 57.250000
-13.001300, -25.516489, 57.375000
-12.921045, -25.358979, 57.500000
-13.001300, -25.516489, 57.625000
-13.001300, -25.516489, 57.750000
-13.081555, -25.673998, 57.875000
-13.001300, -25.516489, 58.000000
-13.081555, -25.673998, 58.125000
-13.081555, -25.673998, 58.250000
-13.161810, -25.831507, 58.375000
-13.242065, -25.989016, 58.500000
-13.161810, -25.831507, 58.625000
-13.161810, -25.831507, 58.750000
-13.242065, -25.989016, 58.875000
-13.242065, -25.989016, 59.000000
-13.322320, -26.146525, 59.125000
-13.322320, -26.146525, 59.250000
-13.322320, -26.146525, 59.375000
-13.402575, -26.304035, 59.500000
-13.402575, -26.304035, 59.625000
-13.402575, -26.304035, 59.750000
-13.402575, -26.304035, 59.875000
-13.563085, -26.619053, 60.000000
-13.482830, -26.461544, 60.125000
-13.482830, -26.461544, 60.250000
-13.563085, -26.619053, 60.375000
-13.563085, -26.619053, 60.500000
-13.723595, -26.934071, 60.625000
-13.643340, -26.776562, 60.750000
-13.723595, -26.934071, 60.875000
-13.723595, -26.934071, 61.000000
-13.723595, -26.934071, 61.125000
-13.803850, -27.091580, 61.250000
-13.884105, -27.249090, 61.375000
-13.884105, -27.249090, 61.500000
-13.884105, -27.249090, 61.625000
-13.884105, -27.249090, 61.750000
-13.964360, -27.406599, 61.875000
-13.964360, -27.406599, 62.000000
-14.044615, -27.564108, 62.125000
-14.044615, -27.564108, 62.250000
-14.044615, -27.564108, 62.375000
-14.044615, -27.564108, 62.500000
-14.124869, -27.721617, 62.625000
-14.124869, -27.721617, 62.750000
-14.205124, -27.879126, 62.875000
-14.205124, -27.879126, 63.000000
-14.205124, -27.879126, 63.125000
-14.285379, -28.036636, 63.250000
-14.285379, -28.036636, 63.375000
-14.365634, -28.194145, 63.500000
-14.285379, -28.036636, 63.625000
-14.445889, -28.351654, 63.750000
-14.365634, -28.194145, 63.875000
-14.445889, -28.351654, 64.000000
-14.445889, -28.351654, 64.125000
-14.445889, -28.351654, 64.250000
-14.445889, -28.351654, 64.375000
-14.606399, -28.666672, 64.500000
-14.526144, -28.509163, 64.625000
-14.606399, -28.666672, 64.750000
-14.686654, -28.824182, 64.875000
-14.606399, -28.666672, 65.000000
-14.686654, -28.824182, 65.125000
-14.686654, -28.824182, 65.250000
-14.686654, -28.824182, 65.375000
-14.766909, -28.981691, 65.500000
-14.766909, -28.981691, 65.625000
-14.847164, -29.139200, 65.750000
-14.927419, -29.296709, 65.875000
-14.847164, -29.139200, 66.000000
-14.847164, -29.139200, 66.125000
-14.927419, -29.296709, 66.250000
-15.007674, -29.454218, 66.375000
-14.927419, -29.296709, 66.500000
-15.007674, -29.454218, 66.625000
-15.007674, -29.454218, 66.750000
-15.007674, -29.454218, 66.875000
-15.087929, -29.611728, 67.000000
-15.168184, -29.769237, 67.125000
-15.087929, -29.611728, 67.250000
-15.168184, -29.769237, 67.375000
-15.168184, -29.769237, 67.500000
-15.168184, -29.769237, 67.625000
-15.248439, -29.926746, 67.750000
-15.248439, -29.926746, 67.875000
-15.328694, -30.084255, 68.000000
-15.328694, -30.084255, 68.125000
-15.328694, -30.084255, 68.250000
-15.408949, -30.241764, 68.375000
-15.408949, -30.241764, 68.500000
-15.489203, -30.399273, 68.625000
-15.489203, -30.399273, 68.750000
-15.489203, -30.399273, 68.875000
-15.569458, -30.556783, 69.000000
-15.569458, -30.556783, 69.125000
-15.569458, -30.556783, 69.250000
-15.649713, -30.714292, 69.375000
-15.649713, -30.714292, 69.500000
-15.649713, -30.714292, 69.625000
-15.729968, -30.871801, 69.750000
-15.810223, -31.029310, 69.875000
-15.810223, -31.029310, 70.000000
-15.810223, -31.029310, 70.125000
-15.890478, -31.186819, 70.250000
-15.890478, -31.186819, 70.375000
-15.890478, -31.186819, 70.500000
-15.890478, -31.186819, 70.625000
-15.970733, -31.344329, 70.750000
-15.970733, -31.344329, 70.875000
-15.970733, -31.344329, 71.000000
-16.050988, -31.501838, 71.125000
-16.050988, -31.501838, 71.250000
-16.050988, -31.501838, 71.375000
-16.131243, -31.659347, 71.500000
-16.131243, -31.659347, 71.625000
-16.211498, -31.816856, 71.750000
-16.211498, -31.816856, 71.875000
-16.211498, -31.816856, 72.000000
-16.291753, -31.974365, 72.125000
-16.291753, -31.974365, 72.250000
-16.372008, -32.131875, 72.375000
-16.372008, -32.131875, 72.500000
-16.372008, -32.131875, 72.625000
-16.452263, -32.289384, 72.750000
-16.452263, -32.289384, 72.875000
-16.452263, -32.289384, 73.000000
-16.532518, -32.446893, 73.125000
-16.532518, -32.446893, 73.250000
-16.532518, -32.446893, 73.375000
-16.612773, -32.604402, 73.500000
-16.612773, -32.604402, 73.625000
-16.612773, -32.604402, 73.750000
-16.693028, -32.761911, 73.875000
-16.693028, -32.761911, 74.000000
-16.773283, -32.919420, 74.125000
-16.773283, -32.919420, 74.250000
-16.773283, -32.919420, 74.375000
-16.773283, -32.919420, 74.500000
-16.853537, -33.076930, 74.625000
-16.853537, -33.076930, 74.750000
-16.933792, -33.234439, 74.875000
-16.933792, -33.234439, 75.000000
-16.933792, -33.234439, 75.125000
-17.014047, -33.391948, 75.250000
-17.014047, -33.391948, 75.375000
-17.014047, -33.391948, 75.500000
-17.094302, -33.549457, 75.625000
-17.094302, -33.549457, 75.750000
-17.094302, -33.549457, 75.875000
-17.174557, -33.706966, 76.000000
-17.174557, -33.706966, 76.125000
-17.174557, -33.706966, 76.250000
-17.254812, -33.864476, 76.375000
-17.254812, -33.864476, 76.500000
-17.335067, -34.021985, 76.625000
-17.335067, -34.021985, 76.750000
-17.415322, -34.179494, 76.875000
-17.415322, -34.179494, 77.000000
-17.415322, -34.179494, 77.125000
-17.495577, -34.337003, 77.250000
-17.495577, -34.337003, 77.375000
-17.575832, -34.494512, 77.500000
-17.575832, -34.494512, 77.625000
-17.575832, -34.494512, 77.750000
-17.575832, -34.494512, 77.875000
-17.656087, -34.652022, 78.000000
-17.656087, -34.652022, 78.125000
-17.736342, -34.809531, 78.250000
-17.736342, -34.809531, 78.375000
-17.736342, -34.809531, 78.500000
-17.736342, -34.809531, 78.625000
-17.816597, -34.967040, 78.750000
-17.816597, -34.967040, 78.875000
-17.816597, -34.967040, 79.000000
-17.896852, -35.124549, 79.125000
-17.896852, -35.124549, 79.250000
-17.896852, -35.124549, 79.375000
-17.896852, -35.124549, 79.500000
-17.977107, -35.282058, 79.625000
-17.977107, -35.282058, 79.750000
-18.057362, -35.439567, 79.875000
-18.057362, -35.439567, 80.000000
-18.057362, -35.439567, 80.125000
-18.137616, -35.597077, 80.250000
-18.137616, -35.597077, 80.375000
-18.137616, -35.597077, 80.500000
-18.217871, -35.754586, 80.625000
-18.217871, -35.754586, 80.750000
-18.217871, -35.754586, 80.875000
-18.298126, -35.912095, 81.000000
-18.298126, -35.912095, 81.125000
-18.298126, -35.912095, 81.250000
-18.378381, -36.069604, 81.375000
-18.378381, -36.069604, 81.500000
-18.378381, -36.069604, 81.625000
-18.458636, -36.227113, 81.750000
-18.458636, -36.227113, 81.875000
-18.458636, -36.227113, 82.000000
-18.538891, -36.384623, 82.125000
-18.538891, -36.384623, 82.250000
-18.538891, -36.384623, 82.375000
-18.538891, -36.384623, 82.500000
-18.619146, -36.542132, 82.625000
-18.538891, -36.384623, 82.750000
-18.619146, -36.542132, 82.875000
-18.538891, -36.384623, 83.000000
