-21.960517, 14.924352, 54.250000
-21.960517, 14.924352, 54.375000
-22.086727, 15.010124, 54.500000
-22.086727, 15.010124, 54.625000
-22.086727, 15.010124, 54.750000
-22.212937, 15.095896, 54.875000
-22.212937, 15.095896, 55.000000
-22.212937, 15.095896, 55.125000
-22.339147, 15.181668, 55.250000
-22.465357, 15.267441, 55.375000
-22.465357, 15.267441, 55.500000
-22.591566, 15.353213, 55.625000
-22.591566, 15.353213, 55.750000
-22.591566, 15.353213, 55.875000
-22.843986, 15.524757, 56.000000
-22.717776, 15.438985, 56.125000
-22.843986, 15.524757, 56.250000
-22.843986, 15.524757, 56.375000
-22.843986, 15.524757, 56.500000
-22.970196, 15.610529, 56.625000
-22.970196, 15.610529, 56.750000
-23.222616, 15.782073, 56.875000
-23.096406, 15.696301, 57.000000
-23.096406, 15.696301, 57.125000
-23.222616, 15.782073, 57.250000
-23.222616, 15.782073, 57.375000
-23.222616, 15.782073, 57.500000
-23.348826, 15.867846, 57.625000
-23.348826, 15.867846, 57.750000
-23.475036, 15.953618, 57.875000
-23.475036, 15.953618, 58.000000
-23.475036, 15.953618, 58.125000
-23.601245, 16.039390, 58.250000
-23.601245, 16.039390, 58.375000
-23.727455, 16.125162, 58.500000
-23.727455, 16.125162, 58.625000
-23.853665, 16.210934, 58.750000
-23.853665, 16.210934, 58.875000
-23.853665, 16.210934, 59.000000
-23.979875, 16.296706, 59.125000
-23.979875, 16.296706, 59.250000
-24.106085, 16.382478, 59.375000
-24.106085, 16.382478, 59.500000
-24.106085, 16.382478, 59.625000
-24.232295, 16.468251, 59.750000
-24.232295, 16.468251, 59.875000
-24.358505, 16.554023, 60.000000
-24.358505, 16.554023, 60.125000
-24.484714, 16.639795, 60.250000
-24.484714, 16.639795, 60.375000
-24.610924, 16.725567, 60.500000
-24.610924, 16.725567, 60.625000
-24.610924, 16.725567, 60.750000
-24.737134, 16.811339, 60.875000
-24.863344, 16.897111, 61.000000
-24.863344, 16.897111, 61.125000
-24.863344, 16.897111, 61.250000
-24.863344, 16.897111, 61.375000
-24.989554, 16.982883, 61.500000
-24.989554, 16.982883, 61.625000
-25.115764, 17.068655, 61.750000
-25.115764, 17.068655, 61.875000
-25.241974, 17.154428, 62.000000
-25.241974, 17.154428, 62.125000
-25.368184, 17.240200, 62.250000
-25.368184, 17.240200, 62.375000
-25.368184, 17.240200, 62.500000
-25.494393, 17.325972, 62.625000
-25.494393, 17.325972, 62.750000
-25.620603, 17.411744, 62.875000
-25.620603, 17.411744, 63.000000
-25.620603, 17.411744, 63.125000
-25.746813, 17.497516, 63.250000
-25.746813, 17.497516, 63.375000
-25.873023, 17.583288, 63.500000
-25.873023, 17.583288, 63.625000
-25.873023, 17.583288, 63.750000
-25.999233, 17.669060, 63.875000
-25.999233, 17.669060, 64.000000
-25.999233, 17.669060, 64.125000
-26.125443, 17.754833, 64.250000
-26.125443, 17.754833, 64.375000
-26.125443, 17.754833, 64.500000
-26.377863, 17.926377, 64.625000
-26.251653, 17.840605, 64.750000
-26.377863, 17.926377, 64.875000
-26.504072, 18.012149, 65.000000
-26.377863, 17.926377, 65.125000
-26.504072, 18.012149, 65.250000
-26.504072, 18.012149, 65.375000
-26.630282, 18.097921, 65.500000
-26.756492, 18.183693, 65.625000
-26.630282, 18.097921, 65.750000
-26.756492, 18.183693, 65.875000
-26.882702, 18.269465, 66.000000
-26.882702, 18.269465, 66.125000
-26.882702, 18.269465, 66.250000
-26.882702, 18.269465, 66.375000
-27.008912, 18.355238, 66.500000
-27.008912, 18.355238, 66.625000
-27.135122, 18.441010, 66.750000
-27.135122, 18.441010, 66.875000
-27.261332, 18.526782, 67.000000
-27.261332, 18.526782, 67.125000
-27.387541, 18.612554, 67.250000
-27.387541, 18.612554, 67.375000
-27.513751, 18.698326, 67.500000
-27.513751, 18.698326, 67.625000
-27.639961, 18.784098, 67.750000
-27.639961, 18.784098, 67.875000
-27.639961, 18.784098, 68.000000
-27.766171, 18.869870, 68.125000
-27.766171, 18.869870, 68.250000
-27.892381, 18.955643, 68.375000
-27.892381, 18.955643, 68.500000
-28.018591, 19.041415, 68.625000
-28.018591, 19.041415, 68.750000
-28.018591, 19.041415, 68.875000
-28.144801, 19.127187, 69.000000
-28.144801, 19.127187, 69.125000
-28.144801, 19.127187, 69.250000
-28.271011, 19.212959, 69.375000
-28.271011, 19.212959, 69.500000
-28.397220, 19.298731, 69.625000
-28.397220, 19.298731, 69.750000
-28.397220, 19.298731, 69.875000
-28.523430, 19.384503, 70.000000
-28.523430, 19.384503, 70.125000
-28.649640, 19.470275, 70.250000
-28.649640, 19.470275, 70.375000
-28.775850, 19.556047, 70.500000
-28.775850, 19.556047, 70.625000
-28.902060, 19.641820, 70.750000
-28.902060, 19.641820, 70.875000
-28.902060, 19.641820, 71.000000
-28.902060, 19.641820, 71.125000
-29.028270, 19.727592, 71.250000
-29.028270, 19.727592, 71.375000
-29.154480, 19.813364, 71.500000
-29.154480, 19.813364, 71.625000
-29.154480, 19.813364, 71.750000
-29.280689, 19.899136, 71.875000
-29.280689, 19.899136, 72.000000
-29.406899, 19.984908, 72.125000
-29.406899, 19.984908, 72.250000
-29.533109, 20.070680, 72.375000
-29.533109, 20.070680, 72.500000
-29.533109, 20.070680, 72.625000
-29.659319, 20.156452, 72.750000
-29.659319, 20.156452, 72.875000
-29.785529, 20.242225, 73.000000
-29.785529, 20.242225, 73.125000
-29.785529, 20.242225, 73.250000
-29.911739, 20.327997, 73.375000
-29.911739, 20.327997, 73.500000
-30.037949, 20.413769, 73.625000
-30.037949, 20.413769, 73.750000
-30.037949, 20.413769, 73.875000
-30.164159, 20.499541, 74.000000
-30.164159, 20.499541, 74.125000
-30.290368, 20.585313, 74.250000
-30.290368, 20.585313, 74.375000
-30.416578, 20.671085, 74.500000
-30.542788, 20.756857, 74.625000
-30.416578, 20.671085, 74.750000
-30.542788, 20.756857, 74.875000
-30.542788, 20.756857, 75.000000
-30.542788, 20.756857, 75.125000
-30.668998, 20.842630, 75.250000
-30.668998, 20.842630, 75.375000
-30.795208, 20.928402, 75.500000
-30.795208, 20.928402, 75.625000
-30.921418, 21.014174, 75.750000
-30.921418, 21.014174, 75.875000
-31.047628, 21.099946, 76.000000
-31.047628, 21.099946, 76.125000
-31.047628, 21.099946, 76.250000
-31.173838, 21.185718, 76.375000
-31.173838, 21.185718, 76.500000
-31.300047, 21.271490, 76.625000
-31.300047, 21.271490, 76.750000
-31.426257, 21.357262, 76.875000
-31.426257, 21.357262, 77.000000
-31.426257, 21.357262, 77.125000
-31.552467, 21.443035, 77.250000
-31.552467, 21.443035, 77.375000
-31.678677, 21.528807, 77.500000
-31.678677, 21.528807, 77.625000
-31.678677, 21.528807, 77.750000
-31.804887, 21.614579, 77.875000
-31.804887, 21.614579, 78.000000
-31.931097, 21.700351, 78.125000
-31.931097, 21.700351, 78.250000
-31.931097, 21.700351, 78.375000
-32.057307, 21.786123, 78.500000
-32.057307, 21.786123, 78.625000
-32.183516, 21.871895, 78.750000
-32.183516, 21.871895, 78.875000
-32.183516, 21.871895, 79.000000
-32.309726, 21.957667, 79.125000
-32.309726, 21.957667, 79.250000
-32.435936, 22.043439, 79.375000
-32.435936, 22.043439, 79.500000
-32.435936, 22.043439, 79.625000
-32.562146, 22.129212, 79.750000
-32.562146, 22.129212, 79.875000
-32.688356, 22.214984, 80.000000
-32.688356, 22.214984, 80.125000
-32.688356, 22.214984, 80.250000
-32.688356, 22.214984, 80.375000
-32.814566, 22.300756, 80.500000
-32.814566, 22.300756, 80.625000
-32.814566, 22.300756, 80.750000
-32.814566, 22.300756, 80.875000
-32.814566, 22.300756, 81.000000
-32.940776, 22.386528, 81.125000
-31.050864, 19.705478, 15.000000
-31.050864, 19.705478, 15.125000
-30.922022, 19.623712, 15.250000
-30.922022, 19.623712, 15.375000
-30.793181, 19.541947, 15.500000
-30.535497, 19.378416, 15.625000
-30.535497, 19.378416, 15.750000
-30.535497, 19.378416, 15.875000
-30.406655, 19.296650, 16.000000
-30.406655, 19.296650, 16.125000
-30.406655, 19.296650, 16.250000
-30.277813, 19.214885, 16.375000
-30.277813, 19.214885, 16.500000
-30.148972, 19.133119, 16.625000
-30.277813, 19.214885, 16.750000
-30.148972, 19.133119, 16.875000
-30.148972, 19.133119, 17.000000
-30.020130, 19.051354, 17.125000
-30.020130, 19.051354, 17.250000
-29.891288, 18.969588, 17.375000
-29.891288, 18.969588, 17.500000
-29.891288, 18.969588, 17.625000
-29.762446, 18.887823, 17.750000
-29.762446, 18.887823, 17.875000
-29.633605, 18.806057, 18.000000
-29.633605, 18.806057, 18.125000
-29.633605, 18.806057, 18.250000
-29.504763, 18.724292, 18.375000
-29.504763, 18.724292, 18.500000
-29.375921, 18.642526, 18.625000
-29.375921, 18.642526, 18.750000
-29.247079, 18.560761, 18.875000
-29.247079, 18.560761, 19.000000
-29.247079, 18.560761, 19.125000
-29.247079, 18.560761, 19.250000
-29.118238, 18.478996, 19.375000
-29.118238, 18.478996, 19.500000
-29.118238, 18.478996, 19.625000
-28.989396, 18.397230, 19.750000
-28.989396, 18.397230, 19.875000
-28.989396, 18.397230, 20.000000
-28.860554, 18.315465, 20.125000
-28.989396, 18.397230, 20.250000
-28.731712, 18.233699, 20.375000
-28.731712, 18.233699, 20.500000
-28.731712, 18.233699, 20.625000
-28.602871, 18.151934, 20.750000
-28.602871, 18.151934, 20.875000
-28.474029, 18.070168, 21.000000
-28.474029, 18.070168, 21.125000
-28.474029, 18.070168, 21.250000
-28.474029, 18.070168, 21.375000
-28.345187, 17.988403, 21.500000
-28.345187, 17.988403, 21.625000
-28.345187, 17.988403, 21.750000
-28.216345, 17.906637, 21.875000
-28.216345, 17.906637, 22.000000
-28.216345, 17.906637, 22.125000
-28.087504, 17.824872, 22.250000
-28.087504, 17.824872, 22.375000
-28.087504, 17.824872, 22.500000
-27.958662, 17.743106, 22.625000
-27.958662, 17.743106, 22.750000
-27.958662, 17.743106, 22.875000
-27.958662, 17.743106, 23.000000
-27.958662, 17.743106, 23.125000
-27.958662, 17.743106, 23.250000
-27.829820, 17.661341, 23.375000
-27.829820, 17.661341, 23.500000
-27.700978, 17.579575, 23.625000
-27.700978, 17.579575, 23.750000
-27.700978, 17.579575, 23.875000
-27.700978, 17.579575, 24.000000
-27.572137, 17.497810, 24.125000
-27.572137, 17.497810, 24.250000
-27.443295, 17.416044, 24.375000
-27.443295, 17.416044, 24.500000
-27.443295, 17.416044, 24.625000
-27.443295, 17.416044, 24.750000
-27.314453, 17.334279, 24.875000
-27.314453, 17.334279, 25.000000
-27.314453, 17.334279, 25.125000
-27.185611, 17.252514, 25.250000
-27.185611, 17.252514, 25.375000
-27.185611, 17.252514, 25.500000
-27.185611, 17.252514, 25.625000
-27.185611, 17.252514, 25.750000
-27.056769, 17.170748, 25.875000
-27.056769, 17.170748, 26.000000
-27.056769, 17.170748, 26.125000
-26.927928, 17.088983, 26.250000
-26.927928, 17.088983, 26.375000
-26.927928, 17.088983, 26.500000
-26.799086, 17.007217, 26.625000
-26.799086, 17.007217, 26.750000
-26.799086, 17.007217, 26.875000
-26.799086, 17.007217, 27.000000
-26.670244, 16.925452, 27.125000
-26.670244, 16.925452, 27.250000
-26.670244, 16.925452, 27.375000
-26.670244, 16.925452, 27.500000
-26.670244, 16.925452, 27.625000
-26.541402, 16.843686, 27.750000
-26.541402, 16.843686, 27.875000
-26.541402, 16.843686, 28.000000
-26.412561, 16.761921, 28.125000
-26.412561, 16.761921, 28.250000
-26.412561, 16.761921, 28.375000
-26.283719, 16.680155, 28.500000
-26.283719, 16.680155, 28.625000
-26.283719, 16.680155, 28.750000
-26.283719, 16.680155, 28.875000
-26.154877, 16.598390, 29.000000
-26.154877, 16.598390, 29.125000
-26.154877, 16.598390, 29.250000
-26.026035, 16.516624, 29.375000
-26.026035, 16.516624, 29.500000
-26.026035, 16.516624, 29.625000
-25.897194, 16.434859, 29.750000
-25.897194, 16.434859, 29.875000
-25.897194, 16.434859, 30.000000
-25.897194, 16.434859, 30.125000
-25.768352, 16.353093, 30.250000
-25.768352, 16.353093, 30.375000
-25.639510, 16.271328, 30.500000
-25.639510, 16.271328, 30.625000
-25.639510, 16.271328, 30.750000
-25.639510, 16.271328, 30.875000
-25.510668, 16.189562, 31.000000
-25.510668, 16.189562, 31.125000
-25.510668, 16.189562, 31.250000
-25.381827, 16.107797, 31.375000
-25.381827, 16.107797, 31.500000
-25.381827, 16.107797, 31.625000
-25.381827, 16.107797, 31.750000
-25.252985, 16.026032, 31.875000
-25.252985, 16.026032, 32.000000
-25.124143, 15.944266, 32.125000
-25.124143, 15.944266, 32.250000
-25.124143, 15.944266, 32.375000
-25.124143, 15.944266, 32.500000
-24.995301, 15.862501, 32.625000
-24.995301, 15.862501, 32.750000
-24.995301, 15.862501, 32.875000
-24.866460, 15.780735, 33.000000
-24.866460, 15.780735, 33.125000
-24.866460, 15.780735, 33.250000
-24.995301, 15.862501, 33.375000
-24.866460, 15.780735, 33.500000
-24.737618, 15.698970, 33.625000
-24.737618, 15.698970, 33.750000
-24.608776, 15.617204, 33.875000
-24.608776, 15.617204, 34.000000
-24.608776, 15.617204, 34.125000
-24.608776, 15.617204, 34.250000
-24.479934, 15.535439, 34.375000
-24.479934, 15.535439, 34.500000
-24.479934, 15.535439, 34.625000
-24.479934, 15.535439, 34.750000
-24.351093, 15.453673, 34.875000
-24.351093, 15.453673, 35.000000
-24.222251, 15.371908, 35.125000
-24.222251, 15.371908, 35.250000
-24.093409, 15.290142, 35.375000
-24.093409, 15.290142, 35.500000
-24.093409, 15.290142, 35.625000
-24.093409, 15.290142, 35.750000
-24.093409, 15.290142, 35.875000
-23.964567, 15.208377, 36.000000
-23.964567, 15.208377, 36.125000
-23.964567, 15.208377, 36.250000
-23.835726, 15.126611, 36.375000
-23.835726, 15.126611, 36.500000
-23.835726, 15.126611, 36.625000
-23.835726, 15.126611, 36.750000
-23.706884, 15.044846, 36.875000
-23.706884, 15.044846, 37.000000
-23.578042, 14.963080, 37.125000
-23.578042, 14.963080, 37.250000
-23.706884, 15.044846, 37.375000
-23.578042, 14.963080, 37.500000
-23.449200, 14.881315, 37.625000
-23.449200, 14.881315, 37.750000
-23.449200, 14.881315, 37.875000
-23.320358, 14.799550, 38.000000
-23.320358, 14.799550, 38.125000
-23.320358, 14.799550, 38.250000
-23.191517, 14.717784, 38.375000
-23.191517, 14.717784, 38.500000
-23.191517, 14.717784, 38.625000
-23.191517, 14.717784, 38.750000
-23.062675, 14.636019, 38.875000
-23.062675, 14.636019, 39.000000
-23.062675, 14.636019, 39.125000
-22.933833, 14.554253, 39.250000
-22.933833, 14.554253, 39.375000
-22.933833, 14.554253, 39.500000
-22.804991, 14.472488, 39.625000
-22.804991, 14.472488, 39.750000
-22.804991, 14.472488, 39.875000
-22.804991, 14.472488, 40.000000
-22.676150, 14.390722, 40.125000
-22.804991, 14.472488, 40.250000
-22.676150, 14.390722, 40.375000
-22.547308, 14.308957, 40.500000
-22.547308, 14.308957, 40.625000
-22.547308, 14.308957, 40.750000
-22.547308, 14.308957, 40.875000
-22.418466, 14.227191, 41.000000
-22.418466, 14.227191, 41.125000
-22.418466, 14.227191, 41.250000
-22.289624, 14.145426, 41.375000
-22.289624, 14.145426, 41.500000
-22.289624, 14.145426, 41.625000
-22.160783, 14.063660, 41.750000
-22.160783, 14.063660, 41.875000
-22.160783, 14.063660, 42.000000
-22.031941, 13.981895, 42.125000
-22.031941, 13.981895, 42.250000
-22.031941, 13.981895, 42.375000
-22.160783, 14.063660, 42.500000
-21.903099, 13.900129, 42.625000
-21.903099, 13.900129, 42.750000
-21.903099, 13.900129, 42.875000
-21.774257, 13.818364, 43.000000
-21.774257, 13.818364, 43.125000
-21.774257, 13.818364, 43.250000
-21.774257, 13.818364, 43.375000
-21.774257, 13.818364, 43.500000
-21.645416, 13.736598, 43.625000
-21.645416, 13.736598, 43.750000
-21.516574, 13.654833, 43.875000
-21.516574, 13.654833, 44.000000
-21.516574, 13.654833, 44.125000
-21.387732, 13.573068, 44.250000
-21.387732, 13.573068, 44.375000
-21.387732, 13.573068, 44.500000
-21.387732, 13.573068, 44.625000
-21.258890, 13.491302, 44.750000
-21.258890, 13.491302, 44.875000
-21.258890, 13.491302, 45.000000
-21.258890, 13.491302, 45.125000
-21.130049, 13.409537, 45.250000
-21.130049, 13.409537, 45.375000
-21.130049, 13.409537, 45.500000
-21.001207, 13.327771, 45.625000
-21.001207, 13.327771, 45.750000
-21.001207, 13.327771, 45.875000
-21.001207, 13.327771, 46.000000
-20.872365, 13.246006, 46.125000
-20.872365, 13.246006, 46.250000
-21.001207, 13.327771, 46.375000
-20.743523, 13.164240, 46.500000
-20.743523, 13.164240, 46.625000
-20.743523, 13.164240, 46.750000
-20.614682, 13.082475, 46.875000
-20.614682, 13.082475, 47.000000
-20.614682, 13.082475, 47.125000
-20.485840, 13.000709, 47.250000
-20.485840, 13.000709, 47.375000
-20.485840, 13.000709, 47.500000
-20.485840, 13.000709, 47.625000
-20.356998, 12.918944, 47.750000
-20.356998, 12.918944, 47.875000
-20.356998, 12.918944, 48.000000
-20.356998, 12.918944, 48.125000
-20.228156, 12.837178, 48.250000
-20.228156, 12.837178, 48.375000
-20.228156, 12.837178, 48.500000
-20.228156, 12.837178, 48.625000
-20.228156, 12.837178, 48.750000
-20.228156, 12.837178, 48.875000
-20.356998, 12.918944, 49.000000
-20.356998, 12.918944, 49.125000
-20.485840, 13.000709, 49.250000
-20.356998, 12.918944, 49.375000
-20.356998, 12.918944, 49.500000
-20.485840, 13.000709, 49.625000
-20.485840, 13.000709, 49.750000
-20.485840, 13.000709, 49.875000
-20.614682, 13.082475, 50.000000
-20.614682, 13.082475, 50.125000
-20.872365, 13.246006, 50.250000
-20.743523, 13.164240, 50.375000
-20.743523, 13.164240, 50.500000
-20.872365, 13.246006, 50.625000
-20.872365, 13.246006, 50.750000
-21.001207, 13.327771, 50.875000
-21.001207, 13.327771, 51.000000
-21.130049, 13.409537, 51.125000
-21.130049, 13.409537, 51.250000
-21.130049, 13.409537, 51.375000
-21.387732, 13.573068, 51.500000
-21.258890, 13.491302, 51.625000
-21.387732, 13.573068, 51.750000
-21.387732, 13.573068, 51.875000
-21.516574, 13.654833, 52.000000
-21.516574, 13.654833, 52.125000
-21.516574, 13.654833, 52.250000
-21.645416, 13.736598, 52.375000
-21.645416, 13.736598, 52.500000
-21.645416, 13.736598, 52.625000
-21.774257, 13.818364, 52.750000
-21.903099, 13.900129, 52.875000
-21.903099, 13.900129, 53.000000
-22.031941, 13.981895, 53.125000
-22.031941, 13.981895, 53.250000
-22.160783, 14.063660, 53.375000
-22.160783, 14.063660, 53.500000
-22.160783, 14.063660, 53.625000
-22.289624, 14.145426, 53.750000
-22.289624, 14.145426, 53.875000
-22.289624, 14.145426, 54.000000
-22.418466, 14.227191, 54.125000
-22.418466, 14.227191, 54.250000
-22.547308, 14.308957, 54.375000
-22.547308, 14.308957, 54.500000
-22.547308, 14.308957, 54.625000
-22.676150, 14.390722, 54.750000
-22.676150, 14.390722, 54.875000
-22.676150, 14.390722, 55.000000
-22.804991, 14.472488, 55.125000
-22.804991, 14.472488, 55.250000
-22.933833, 14.554253, 55.375000
-22.933833, 14.554253, 55.500000
-23.062675, 14.636019, 55.625000
-23.062675, 14.636019, 55.750000
-23.062675, 14.636019, 55.875000
-23.191517, 14.717784, 56.000000
-23.191517, 14.717784, 56.125000
-23.320358, 14.799550, 56.250000
-23.320358, 14.799550, 56.375000
-23.449200, 14.881315, 56.500000
-23.449200, 14.881315, 56.625000
-23.449200, 14.881315, 56.750000
-23.578042, 14.963080, 56.875000
-23.578042, 14.963080, 57.000000
-23.578042, 14.963080, 57.125000
-23.706884, 15.044846, 57.250000
-23.706884, 15.044846, 57.375000
-23.835726, 15.126611, 57.500000
-23.835726, 15.126611, 57.625000
-24.093409, 15.290142, 57.750000
-23.964567, 15.208377, 57.875000
-23.964567, 15.208377, 58.000000
-24.093409, 15.290142, 58.125000
-24.093409, 15.290142, 58.250000
-24.093409, 15.290142, 58.375000
-24.222251, 15.371908, 58.500000
-24.222251, 15.371908, 58.625000
-24.351093, 15.453673, 58.750000
-24.351093, 15.453673, 58.875000
-24.351093, 15.453673, 59.000000
-24.479934, 15.535439, 59.125000
-24.479934, 15.535439, 59.250000
-24.608776, 15.617204, 59.375000
-24.608776, 15.617204, 59.500000
-24.737618, 15.698970, 59.625000
-24.737618, 15.698970, 59.750000
-24.737618, 15.698970, 59.875000
-24.866460, 15.780735, 60.000000
-24.866460, 15.780735, 60.125000
-25.124143, 15.944266, 60.250000
-24.995301, 15.862501, 60.375000
-25.124143, 15.944266, 60.500000
-25.124143, 15.944266, 60.625000
-25.252985, 16.026032, 60.750000
-25.252985, 16.026032, 60.875000
-25.381827, 16.107797, 61.000000
-25.381827, 16.107797, 61.125000
-25.510668, 16.189562, 61.250000
-25.510668, 16.189562, 61.375000
-25.639510, 16.271328, 61.500000
-25.639510, 16.271328, 61.625000
-25.639510, 16.271328, 61.750000
-25.639510, 16.271328, 61.875000
-25.768352, 16.353093, 62.000000
-25.897194, 16.434859, 62.125000
-25.897194, 16.434859, 62.250000
-25.897194, 16.434859, 62.375000
-26.026035, 16.516624, 62.500000
-26.026035, 16.516624, 62.625000
-26.026035, 16.516624, 62.750000
-26.154877, 16.598390, 62.875000
-26.283719, 16.680155, 63.000000
-26.283719, 16.680155, 63.125000
-26.283719, 16.680155, 63.250000
-26.283719, 16.680155, 63.375000
-26.412561, 16.761921, 63.500000
-26.412561, 16.761921, 63.625000
-26.412561, 16.761921, 63.750000
-26.541402, 16.843686, 63.875000
-26.541402, 16.843686, 64.000000
-26.541402, 16.843686, 64.125000
-26.670244, 16.925452, 64.250000
-26.670244, 16.925452, 64.375000
-26.799086, 17.007217, 64.500000
-26.799086, 17.007217, 64.625000
-26.799086, 17.007217, 64.750000
-26.927928, 17.088983, 64.875000
-26.927928, 17.088983, 65.000000
-27.056769, 17.170748, 65.125000
-27.056769, 17.170748, 65.250000
-27.056769, 17.170748, 65.375000
-27.185611, 17.252514, 65.500000
-27.185611, 17.252514, 65.625000
-27.185611, 17.252514, 65.750000
-27.314453, 17.334279, 65.875000
-27.314453, 17.334279, 66.000000
-27.443295, 17.416044, 66.125000
-27.443295, 17.416044, 66.250000
-27.443295, 17.416044, 66.375000
-27.572137, 17.497810, 66.500000
-27.700978, 17.579575, 66.625000
-27.700978, 17.579575, 66.750000
-27.700978, 17.579575, 66.875000
-27.700978, 17.579575, 67.000000
-27.829820, 17.661341, 67.125000
-27.958662, 17.743106, 67.250000
-27.958662, 17.743106, 67.375000
-28.087504, 17.824872, 67.500000
-28.087504, 17.824872, 67.625000
-28.216345, 17.906637, 67.750000
-28.216345, 17.906637, 67.875000
-28.216345, 17.906637, 68.000000
-28.345187, 17.988403, 68.125000
-28.345187, 17.988403, 68.250000
-28.474029, 18.070168, 68.375000
-28.474029, 18.070168, 68.500000
-28.602871, 18.151934, 68.625000
-28.602871, 18.151934, 68.750000
-28.602871, 18.151934, 68.875000
-28.731712, 18.233699, 69.000000
-28.731712, 18.233699, 69.125000
-28.860554, 18.315465, 69.250000
-28.860554, 18.315465, 69.375000
-28.860554, 18.315465, 69.500000
-28.989396, 18.397230, 69.625000
-28.989396, 18.397230, 69.750000
-28.989396, 18.397230, 69.875000
-29.118238, 18.478996, 70.000000
-29.247079, 18.560761, 70.125000
-29.247079, 18.560761, 70.250000
-29.247079, 18.560761, 70.375000
-29.375921, 18.642526, 70.500000
-29.375921, 18.642526, 70.625000
-29.375921, 18.642526, 70.750000
-29.504763, 18.724292, 70.875000
-29.504763, 18.724292, 71.000000
-29.633605, 18.806057, 71.125000
-29.633605, 18.806057, 71.250000
-29.633605, 18.806057, 71.375000
-29.762446, 18.887823, 71.500000
-29.762446, 18.887823, 71.625000
-29.891288, 18.969588, 71.750000
-29.891288, 18.969588, 71.875000
-29.891288, 18.969588, 72.000000
-30.020130, 19.051354, 72.125000
-30.020130, 19.051354, 72.250000
-30.020130, 19.051354, 72.375000
-30.148972, 19.133119, 72.500000
-30.148972, 19.133119, 72.625000
-30.148972, 19.133119, 72.750000
-30.277813, 19.214885, 72.875000
-30.277813, 19.214885, 73.000000
-30.406655, 19.296650, 73.125000
-30.406655, 19.296650, 73.250000
-30.535497, 19.378416, 73.375000
-30.535497, 19.378416, 73.500000
-30.535497, 19.378416, 73.625000
-30.664339, 19.460181, 73.750000
-30.664339, 19.460181, 73.875000
-30.793181, 19.541947, 74.000000
-30.793181, 19.541947, 74.125000
-31.050864, 19.705478, 74.250000
-30.922022, 19.623712, 74.375000
-31.050864, 19.705478, 74.500000
-31.179706, 19.787243, 74.625000
-31.050864, 19.705478, 74.750000
-31.179706, 19.787243, 74.875000
-31.179706, 19.787243, 75.000000
-31.308548, 19.869008, 75.125000
-31.308548, 19.869008, 75.250000
-31.308548, 19.869008, 75.375000
-31.437389, 19.950774, 75.500000
-31.437389, 19.950774, 75.625000
-31.566231, 20.032539, 75.750000
-31.566231, 20.032539, 75.875000
-31.566231, 20.032539, 76.000000
-31.695073, 20.114305, 76.125000
-31.695073, 20.114305, 76.250000
-31.823915, 20.196070, 76.375000
-31.823915, 20.196070, 76.500000
-31.823915, 20.196070, 76.625000
-31.952756, 20.277836, 76.750000
-32.081598, 20.359601, 76.875000
-32.081598, 20.359601, 77.000000
-32.081598, 20.359601, 77.125000
-32.081598, 20.359601, 77.250000
-32.210440, 20.441367, 77.375000
-32.210440, 20.441367, 77.500000
-32.339282, 20.523132, 77.625000
-32.468123, 20.604898, 77.750000
-32.468123, 20.604898, 77.875000
-32.468123, 20.604898, 78.000000
-32.596965, 20.686663, 78.125000
-32.596965, 20.686663, 78.250000
-32.596965, 20.686663, 78.375000
-32.725807, 20.768429, 78.500000
-32.725807, 20.768429, 78.625000
-32.725807, 20.768429, 78.750000
-32.854649, 20.850194, 78.875000
-32.854649, 20.850194, 79.000000
-32.983490, 20.931960, 79.125000
-32.983490, 20.931960, 79.250000
-32.983490, 20.931960, 79.375000
-33.112332, 21.013725, 79.500000
-33.112332, 21.013725, 79.625000
-33.241174, 21.095490, 79.750000
-33.370016, 21.177256, 79.875000
-33.370016, 21.177256, 80.000000
-33.370016, 21.177256, 80.125000
-33.370016, 21.177256, 80.250000
-33.370016, 21.177256, 80.375000
-33.498857, 21.259021, 80.500000
-33.498857, 21.259021, 80.625000
-33.498857, 21.259021, 80.750000
-33.627699, 21.340787, 80.875000
-33.498857, 21.259021, 81.000000
-33.627699, 21.340787, 81.125000
-31.391813, 18.565067, 14.875000
-31.523160, 18.642745, 15.000000
-31.391813, 18.565067, 15.125000
-31.391813, 18.565067, 15.250000
-31.260467, 18.487389, 15.375000
-31.260467, 18.487389, 15.500000
-31.260467, 18.487389, 15.625000
-30.997774, 18.332032, 15.750000
-31.129120, 18.409710, 15.875000
-31.129120, 18.409710, 16.000000
-30.997774, 18.332032, 16.125000
-30.997774, 18.332032, 16.250000
-30.735081, 18.176676, 16.375000
-30.866427, 18.254354, 16.500000
-30.735081, 18.176676, 16.625000
-30.735081, 18.176676, 16.750000
-30.603734, 18.098998, 16.875000
-30.735081, 18.176676, 17.000000
-30.735081, 18.176676, 17.125000
-30.472388, 18.021320, 17.250000
-30.472388, 18.021320, 17.375000
-30.472388, 18.021320, 17.500000
-30.341041, 17.943642, 17.625000
-30.341041, 17.943642, 17.750000
-30.341041, 17.943642, 17.875000
-30.209695, 17.865964, 18.000000
-30.209695, 17.865964, 18.125000
-30.078348, 17.788286, 18.250000
-30.078348, 17.788286, 18.375000
-29.947002, 17.710608, 18.500000
-29.947002, 17.710608, 18.625000
-29.815655, 17.632929, 18.750000
-29.815655, 17.632929, 18.875000
-29.815655, 17.632929, 19.000000
-29.684309, 17.555251, 19.125000
-29.684309, 17.555251, 19.250000
-29.684309, 17.555251, 19.375000
-29.552962, 17.477573, 19.500000
-29.552962, 17.477573, 19.625000
-29.421616, 17.399895, 19.750000
-29.421616, 17.399895, 19.875000
-29.421616, 17.399895, 20.000000
-29.290269, 17.322217, 20.125000
-29.290269, 17.322217, 20.250000
-29.290269, 17.322217, 20.375000
-29.158923, 17.244539, 20.500000
-29.158923, 17.244539, 20.625000
-29.158923, 17.244539, 20.750000
-29.027576, 17.166861, 20.875000
-29.027576, 17.166861, 21.000000
-29.027576, 17.166861, 21.125000
-28.896230, 17.089183, 21.250000
-28.896230, 17.089183, 21.375000
-28.896230, 17.089183, 21.500000
-28.896230, 17.089183, 21.625000
-28.764883, 17.011505, 21.750000
-28.764883, 17.011505, 21.875000
-28.633537, 16.933826, 22.000000
-28.764883, 17.011505, 22.125000
-28.633537, 16.933826, 22.250000
-28.502190, 16.856148, 22.375000
-28.502190, 16.856148, 22.500000
-28.502190, 16.856148, 22.625000
-28.502190, 16.856148, 22.750000
-28.502190, 16.856148, 22.875000
-28.370844, 16.778470, 23.000000
-28.239497, 16.700792, 23.125000
-28.239497, 16.700792, 23.250000
-28.239497, 16.700792, 23.375000
-28.239497, 16.700792, 23.500000
-28.370844, 16.778470, 23.625000
-28.239497, 16.700792, 23.750000
-28.108151, 16.623114, 23.875000
-28.108151, 16.623114, 24.000000
-28.108151, 16.623114, 24.125000
-27.976804, 16.545436, 24.250000
-27.976804, 16.545436, 24.375000
-27.976804, 16.545436, 24.500000
-27.976804, 16.545436, 24.625000
-27.845458, 16.467758, 24.750000
-27.845458, 16.467758, 24.875000
-27.845458, 16.467758, 25.000000
-27.714111, 16.390080, 25.125000
-27.714111, 16.390080, 25.250000
-27.714111, 16.390080, 25.375000
-27.714111, 16.390080, 25.500000
-27.582765, 16.312402, 25.625000
-27.582765, 16.312402, 25.750000
-27.582765, 16.312402, 25.875000
-27.451418, 16.234724, 26.000000
-27.451418, 16.234724, 26.125000
-27.451418, 16.234724, 26.250000
-27.451418, 16.234724, 26.375000
-27.320072, 16.157045, 26.500000
-27.320072, 16.157045, 26.625000
-27.320072, 16.157045, 26.750000
-27.320072, 16.157045, 26.875000
-27.188725, 16.079367, 27.000000
-27.188725, 16.079367, 27.125000
-27.188725, 16.079367, 27.250000
-27.188725, 16.079367, 27.375000
-27.057379, 16.001689, 27.500000
-27.057379, 16.001689, 27.625000
-27.057379, 16.001689, 27.750000
-26.926032, 15.924011, 27.875000
-26.926032, 15.924011, 28.000000
-26.926032, 15.924011, 28.125000
-26.926032, 15.924011, 28.250000
-26.794686, 15.846333, 28.375000
-26.794686, 15.846333, 28.500000
-26.794686, 15.846333, 28.625000
-26.663339, 15.768655, 28.750000
-26.663339, 15.768655, 28.875000
-26.663339, 15.768655, 29.000000
-26.663339, 15.768655, 29.125000
-26.531993, 15.690977, 29.250000
-26.531993, 15.690977, 29.375000
-26.400646, 15.613299, 29.500000
-26.400646, 15.613299, 29.625000
-26.400646, 15.613299, 29.750000
-26.400646, 15.613299, 29.875000
-26.269300, 15.535621, 30.000000
-26.269300, 15.535621, 30.125000
-26.269300, 15.535621, 30.250000
-26.137953, 15.457943, 30.375000
-26.137953, 15.457943, 30.500000
-26.137953, 15.457943, 30.625000
-26.137953, 15.457943, 30.750000
-26.006607, 15.380264, 30.875000
-26.006607, 15.380264, 31.000000
-26.006607, 15.380264, 31.125000
-25.875260, 15.302586, 31.250000
-25.875260, 15.302586, 31.375000
-25.875260, 15.302586, 31.500000
-25.743914, 15.224908, 31.625000
-25.743914, 15.224908, 31.750000
-25.743914, 15.224908, 31.875000
-25.743914, 15.224908, 32.000000
-25.612567, 15.147230, 32.125000
-25.612567, 15.147230, 32.250000
-25.481221, 15.069552, 32.375000
-25.481221, 15.069552, 32.500000
-25.481221, 15.069552, 32.625000
-25.481221, 15.069552, 32.750000
-25.481221, 15.069552, 32.875000
-25.349874, 14.991874, 33.000000
-25.349874, 14.991874, 33.125000
-25.349874, 14.991874, 33.250000
-25.218528, 14.914196, 33.375000
-25.349874, 14.991874, 33.500000
-25.218528, 14.914196, 33.625000
-25.218528, 14.914196, 33.750000
-25.087181, 14.836518, 33.875000
-25.218528, 14.914196, 34.000000
-24.955835, 14.758840, 34.125000
-24.955835, 14.758840, 34.250000
-24.955835, 14.758840, 34.375000
-24.955835, 14.758840, 34.500000
-24.824488, 14.681161, 34.625000
-24.824488, 14.681161, 34.750000
-24.693142, 14.603483, 34.875000
-24.693142, 14.603483, 35.000000
-24.693142, 14.603483, 35.125000
-24.561795, 14.525805, 35.250000
-24.561795, 14.525805, 35.375000
-24.561795, 14.525805, 35.500000
-24.561795, 14.525805, 35.625000
-24.430449, 14.448127, 35.750000
-24.430449, 14.448127, 35.875000
-24.430449, 14.448127, 36.000000
-24.430449, 14.448127, 36.125000
-24.299102, 14.370449, 36.250000
-24.299102, 14.370449, 36.375000
-24.299102, 14.370449, 36.500000
-24.167756, 14.292771, 36.625000
-24.167756, 14.292771, 36.750000
-24.167756, 14.292771, 36.875000
-24.036409, 14.215093, 37.000000
-24.036409, 14.215093, 37.125000
-24.036409, 14.215093, 37.250000
-23.905063, 14.137415, 37.375000
-23.905063, 14.137415, 37.500000
-23.905063, 14.137415, 37.625000
-23.773716, 14.059737, 37.750000
-23.773716, 14.059737, 37.875000
-23.773716, 14.059737, 38.000000
-23.773716, 14.059737, 38.125000
-23.642370, 13.982059, 38.250000
-23.642370, 13.982059, 38.375000
-23.642370, 13.982059, 38.500000
-23.511023, 13.904380, 38.625000
-23.511023, 13.904380, 38.750000
-23.511023, 13.904380, 38.875000
-23.379677, 13.826702, 39.000000
-23.379677, 13.826702, 39.125000
-23.379677, 13.826702, 39.250000
-23.379677, 13.826702, 39.375000
-23.248330, 13.749024, 39.500000
-23.248330, 13.749024, 39.625000
-23.248330, 13.749024, 39.750000
-23.116984, 13.671346, 39.875000
-23.116984, 13.671346, 40.000000
-23.116984, 13.671346, 40.125000
-22.985637, 13.593668, 40.250000
-22.985637, 13.593668, 40.375000
-22.985637, 13.593668, 40.500000
-22.985637, 13.593668, 40.625000
-22.854291, 13.515990, 40.750000
-22.854291, 13.515990, 40.875000
-22.854291, 13.515990, 41.000000
-22.722944, 13.438312, 41.125000
-22.722944, 13.438312, 41.250000
-22.722944, 13.438312, 41.375000
-22.722944, 13.438312, 41.500000
-22.591598, 13.360634, 41.625000
-22.591598, 13.360634, 41.750000
-22.591598, 13.360634, 41.875000
-22.460251, 13.282956, 42.000000
-22.460251, 13.282956, 42.125000
-22.460251, 13.282956, 42.250000
-22.460251, 13.282956, 42.375000
-22.328905, 13.205278, 42.500000
-22.328905, 13.205278, 42.625000
-22.328905, 13.205278, 42.750000
-22.197558, 13.127599, 42.875000
-22.197558, 13.127599, 43.000000
-22.197558, 13.127599, 43.125000
-22.197558, 13.127599, 43.250000
-22.066212, 13.049921, 43.375000
-22.066212, 13.049921, 43.500000
-22.066212, 13.049921, 43.625000
-21.934865, 12.972243, 43.750000
-21.934865, 12.972243, 43.875000
-21.934865, 12.972243, 44.000000
-21.934865, 12.972243, 44.125000
-21.803519, 12.894565, 44.250000
-21.803519, 12.894565, 44.375000
-21.803519, 12.894565, 44.500000
-21.672172, 12.816887, 44.625000
-21.672172, 12.816887, 44.750000
-21.672172, 12.816887, 44.875000
-21.672172, 12.816887, 45.000000
-21.540826, 12.739209, 45.125000
-21.540826, 12.739209, 45.250000
-21.540826, 12.739209, 45.375000
-21.409479, 12.661531, 45.500000
-21.409479, 12.661531, 45.625000
-21.409479, 12.661531, 45.750000
-21.409479, 12.661531, 45.875000
-21.278133, 12.583853, 46.000000
-21.278133, 12.583853, 46.125000
-21.146786, 12.506175, 46.250000
-21.146786, 12.506175, 46.375000
-21.146786, 12.506175, 46.500000
-21.146786, 12.506175, 46.625000
-21.015440, 12.428496, 46.750000
-21.015440, 12.428496, 46.875000
-21.015440, 12.428496, 47.000000
-20.884093, 12.350818, 47.125000
-20.884093, 12.350818, 47.250000
-20.884093, 12.350818, 47.375000
-20.884093, 12.350818, 47.500000
-20.752747, 12.273140, 47.625000
-20.752747, 12.273140, 47.750000
-20.752747, 12.273140, 47.875000
-20.752747, 12.273140, 48.000000
-20.621400, 12.195462, 48.125000
-20.621400, 12.195462, 48.250000
-20.621400, 12.195462, 48.375000
-20.621400, 12.195462, 48.500000
-20.621400, 12.195462, 48.625000
-20.621400, 12.195462, 48.750000
-20.621400, 12.195462, 48.875000
-20.752747, 12.273140, 49.000000
-20.621400, 12.195462, 49.125000
-20.752747, 12.273140, 49.250000
-20.752747, 12.273140, 49.375000
-20.752747, 12.273140, 49.500000
-20.752747, 12.273140, 49.625000
-20.884093, 12.350818, 49.750000
-20.884093, 12.350818, 49.875000
-21.015440, 12.428496, 50.000000
-21.015440, 12.428496, 50.125000
-21.146786, 12.506175, 50.250000
-21.146786, 12.506175, 50.375000
-21.146786, 12.506175, 50.500000
-21.278133, 12.583853, 50.625000
-21.278133, 12.583853, 50.750000
-21.278133, 12.583853, 50.875000
-21.409479, 12.661531, 51.000000
-21.409479, 12.661531, 51.125000
-21.540826, 12.739209, 51.250000
-21.540826, 12.739209, 51.375000
-21.672172, 12.816887, 51.500000
-21.672172, 12.816887, 51.625000
-21.672172, 12.816887, 51.750000
-21.803519, 12.894565, 51.875000
-21.803519, 12.894565, 52.000000
-21.934865, 12.972243, 52.125000
-21.934865, 12.972243, 52.250000
-21.934865, 12.972243, 52.375000
-22.066212, 13.049921, 52.500000
-22.066212, 13.049921, 52.625000
-22.197558, 13.127599, 52.750000
-22.197558, 13.127599, 52.875000
-22.328905, 13.205278, 53.000000
-22.460251, 13.282956, 53.125000
-22.460251, 13.282956, 53.250000
-22.460251, 13.282956, 53.375000
-22.591598, 13.360634, 53.500000
-22.591598, 13.360634, 53.625000
-22.722944, 13.438312, 53.750000
-22.722944, 13.438312, 53.875000
-22.722944, 13.438312, 54.000000
-22.854291, 13.515990, 54.125000
-22.854291, 13.515990, 54.250000
-22.854291, 13.515990, 54.375000
-22.985637, 13.593668, 54.500000
-22.985637, 13.593668, 54.625000
-22.985637, 13.593668, 54.750000
-23.116984, 13.671346, 54.875000
-23.116984, 13.671346, 55.000000
-23.116984, 13.671346, 55.125000
-23.248330, 13.749024, 55.250000
-23.248330, 13.749024, 55.375000
-23.379677, 13.826702, 55.500000
-23.511023, 13.904380, 55.625000
-23.642370, 13.982059, 55.750000
-23.511023, 13.904380, 55.875000
-23.642370, 13.982059, 56.000000
-23.642370, 13.982059, 56.125000
-23.773716, 14.059737, 56.250000
-23.905063, 14.137415, 56.375000
-23.773716, 14.059737, 56.500000
-23.905063, 14.137415, 56.625000
-23.905063, 14.137415, 56.750000
-24.036409, 14.215093, 56.875000
-24.036409, 14.215093, 57.000000
-24.036409, 14.215093, 57.125000
-24.299102, 14.370449, 57.250000
-24.167756, 14.292771, 57.375000
-24.299102, 14.370449, 57.500000
-24.299102, 14.370449, 57.625000
-24.299102, 14.370449, 57.750000
-24.430449, 14.448127, 57.875000
-24.430449, 14.448127, 58.000000
-24.561795, 14.525805, 58.125000
-24.561795, 14.525805, 58.250000
-24.693142, 14.603483, 58.375000
-24.693142, 14.603483, 58.500000
-24.693142, 14.603483, 58.625000
-24.824488, 14.681161, 58.750000
-24.824488, 14.681161, 58.875000
-24.824488, 14.681161, 59.000000
-24.955835, 14.758840, 59.125000
-24.955835, 14.758840, 59.250000
-24.955835, 14.758840, 59.375000
-25.087181, 14.836518, 59.500000
-25.087181, 14.836518, 59.625000
-25.218528, 14.914196, 59.750000
-25.218528, 14.914196, 59.875000
-25.349874, 14.991874, 60.000000
-25.349874, 14.991874, 60.125000
-25.349874, 14.991874, 60.250000
-25.481221, 15.069552, 60.375000
-25.612567, 15.147230, 60.500000
-25.612567, 15.147230, 60.625000
-25.612567, 15.147230, 60.750000
-25.743914, 15.224908, 60.875000
-25.743914, 15.224908, 61.000000
-25.875260, 15.302586, 61.125000
-26.006607, 15.380264, 61.250000
-26.006607, 15.380264, 61.375000
-26.006607, 15.380264, 61.500000
-26.137953, 15.457943, 61.625000
-26.137953, 15.457943, 61.750000
-26.137953, 15.457943, 61.875000
-26.269300, 15.535621, 62.000000
-26.269300, 15.535621, 62.125000
-26.400646, 15.613299, 62.250000
-26.400646, 15.613299, 62.375000
-26.400646, 15.613299, 62.500000
-26.531993, 15.690977, 62.625000
-26.531993, 15.690977, 62.750000
-26.663339, 15.768655, 62.875000
-26.663339, 15.768655, 63.000000
-26.794686, 15.846333, 63.125000
-26.794686, 15.846333, 63.250000
-26.794686, 15.846333, 63.375000
-26.926032, 15.924011, 63.500000
-26.926032, 15.924011, 63.625000
-26.926032, 15.924011, 63.750000
-27.057379, 16.001689, 63.875000
-27.057379, 16.001689, 64.000000
-27.057379, 16.001689, 64.125000
-27.057379, 16.001689, 64.250000
-27.188725, 16.079367, 64.375000
-27.188725, 16.079367, 64.500000
-27.320072, 16.157045, 64.625000
-27.320072, 16.157045, 64.750000
-27.451418, 16.234724, 64.875000
-27.451418, 16.234724, 65.000000
-27.451418, 16.234724, 65.125000
-27.582765, 16.312402, 65.250000
-27.582765, 16.312402, 65.375000
-27.845458, 16.467758, 65.500000
-27.714111, 16.390080, 65.625000
-27.714111, 16.390080, 65.750000
-27.714111, 16.390080, 65.875000
-27.845458, 16.467758, 66.000000
-27.976804, 16.545436, 66.125000
-27.976804, 16.545436, 66.250000
-27.976804, 16.545436, 66.375000
-28.108151, 16.623114, 66.500000
-28.108151, 16.623114, 66.625000
-28.239497, 16.700792, 66.750000
-28.239497, 16.700792, 66.875000
-28.239497, 16.700792, 67.000000
-28.370844, 16.778470, 67.125000
-28.502190, 16.856148, 67.250000
-28.502190, 16.856148, 67.375000
-28.633537, 16.933826, 67.500000
-28.633537, 16.933826, 67.625000
-28.633537, 16.933826, 67.750000
-28.764883, 17.011505, 67.875000
-28.764883, 17.011505, 68.000000
-28.896230, 17.089183, 68.125000
-28.896230, 17.089183, 68.250000
-28.896230, 17.089183, 68.375000
-29.027576, 17.166861, 68.500000
-29.158923, 17.244539, 68.625000
-29.158923, 17.244539, 68.750000
-29.158923, 17.244539, 68.875000
-29.290269, 17.322217, 69.000000
-29.290269, 17.322217, 69.125000
-29.290269, 17.322217, 69.250000
-29.421616, 17.399895, 69.375000
-29.421616, 17.399895, 69.500000
-29.552962, 17.477573, 69.625000
-29.552962, 17.477573, 69.750000
-29.684309, 17.555251, 69.875000
-29.684309, 17.555251, 70.000000
-29.815655, 17.632929, 70.125000
-29.815655, 17.632929, 70.250000
-29.815655, 17.632929, 70.375000
-29.815655, 17.632929, 70.500000
-29.947002, 17.710608, 70.625000
-29.947002, 17.710608, 70.750000
-30.078348, 17.788286, 70.875000
-30.078348, 17.788286, 71.000000
-30.078348, 17.788286, 71.125000
-30.209695, 17.865964, 71.250000
-30.209695, 17.865964, 71.375000
-30.341041, 17.943642, 71.500000
-30.341041, 17.943642, 71.625000
-30.341041, 17.943642, 71.750000
-30.472388, 18.021320, 71.875000
-30.472388, 18.021320, 72.000000
-30.603734, 18.098998, 72.125000
-30.603734, 18.098998, 72.250000
-30.603734, 18.098998, 72.375000
-30.735081, 18.176676, 72.500000
-30.735081, 18.176676, 72.625000
-30.735081, 18.176676, 72.750000
-30.866427, 18.254354, 72.875000
-30.866427, 18.254354, 73.000000
-30.997774, 18.332032, 73.125000
-30.997774, 18.332032, 73.250000
-30.997774, 18.332032, 73.375000
-31.129120, 18.409710, 73.500000
-31.129120, 18.409710, 73.625000
-31.260467, 18.487389, 73.750000
-31.260467, 18.487389, 73.875000
-31.391813, 18.565067, 74.000000
-31.391813, 18.565067, 74.125000
-31.523160, 18.642745, 74.250000
-31.523160, 18.642745, 74.375000
-31.523160, 18.642745, 74.500000
-31.654506, 18.720423, 74.625000
-31.654506, 18.720423, 74.750000
-31.785853, 18.798101, 74.875000
-31.785853, 18.798101, 75.000000
-31.785853, 18.798101, 75.125000
-31.917199, 18.875779, 75.250000
-31.917199, 18.875779, 75.375000
-32.048546, 18.953457, 75.500000
-32.179892, 19.031135, 75.625000
-32.048546, 18.953457, 75.750000
-32.179892, 19.031135, 75.875000
-32.179892, 19.031135, 76.000000
-32.311239, 19.108813, 76.125000
-32.311239, 19.108813, 76.250000
-32.311239, 19.108813, 76.375000
-32.442585, 19.186491, 76.500000
-32.573932, 19.264170, 76.625000
-32.573932, 19.264170, 76.750000
-32.573932, 19.264170, 76.875000
-32.705278, 19.341848, 77.000000
-32.705278, 19.341848, 77.125000
-32.705278, 19.341848, 77.250000
-32.836625, 19.419526, 77.375000
-32.836625, 19.419526, 77.500000
-32.967971, 19.497204, 77.625000
-32.967971, 19.497204, 77.750000
-33.099318, 19.574882, 77.875000
-33.099318, 19.574882, 78.000000
-33.099318, 19.574882, 78.125000
-33.230664, 19.652560, 78.250000
-33.230664, 19.652560, 78.375000
-33.362011, 19.730238, 78.500000
-33.362011, 19.730238, 78.625000
-33.362011, 19.730238, 78.750000
-33.493357, 19.807916, 78.875000
-33.493357, 19.807916, 79.000000
-33.493357, 19.807916, 79.125000
-33.624704, 19.885594, 79.250000
-33.624704, 19.885594, 79.375000
-33.756050, 19.963273, 79.500000
-33.756050, 19.963273, 79.625000
-33.887397, 20.040951, 79.750000
-33.887397, 20.040951, 79.875000
-34.018743, 20.118629, 80.000000
-34.018743, 20.118629, 80.125000
-34.018743, 20.118629, 80.250000
-34.018743, 20.118629, 80.375000
-34.150090, 20.196307, 80.500000
-34.150090, 20.196307, 80.625000
-34.018743, 20.118629, 80.750000
-34.150090, 20.196307, 80.875000
-34.150090, 20.196307, 81.000000
-34.150090, 20.196307, 81.125000
-32.093188, 17.643379, 15.000000
-32.093188, 17.643379, 15.125000
-32.093188, 17.643379, 15.250000
-31.825745, 17.496351, 15.375000
-31.959466, 17.569865, 15.500000
-31.825745, 17.496351, 15.625000
-31.692023, 17.422837, 15.750000
-31.692023, 17.422837, 15.875000
-31.558301, 17.349323, 16.000000
-31.558301, 17.349323, 16.125000
-31.424580, 17.275809, 16.250000
-31.424580, 17.275809, 16.375000
-31.424580, 17.275809, 16.500000
-31.290858, 17.202295, 16.625000
-31.290858, 17.202295, 16.750000
-31.157136, 17.128781, 16.875000
-31.157136, 17.128781, 17.000000
-31.157136, 17.128781, 17.125000
-31.023415, 17.055267, 17.250000
-31.023415, 17.055267, 17.375000
-31.023415, 17.055267, 17.500000
-30.889693, 16.981753, 17.625000
-30.889693, 16.981753, 17.750000
-30.889693, 16.981753, 17.875000
-30.755972, 16.908238, 18.000000
-30.755972, 16.908238, 18.125000
-30.755972, 16.908238, 18.250000
-30.622250, 16.834724, 18.375000
-30.488528, 16.761210, 18.500000
-30.488528, 16.761210, 18.625000
-30.488528, 16.761210, 18.750000
-30.354807, 16.687696, 18.875000
-30.354807, 16.687696, 19.000000
-30.354807, 16.687696, 19.125000
-30.354807, 16.687696, 19.250000
-30.221085, 16.614182, 19.375000
-30.087364, 16.540668, 19.500000
-30.221085, 16.614182, 19.625000
-30.087364, 16.540668, 19.750000
-29.953642, 16.467154, 19.875000
-29.953642, 16.467154, 20.000000
-29.953642, 16.467154, 20.125000
-29.819920, 16.393640, 20.250000
-29.819920, 16.393640, 20.375000
-29.819920, 16.393640, 20.500000
-29.686199, 16.320126, 20.625000
-29.686199, 16.320126, 20.750000
-29.686199, 16.320126, 20.875000
-29.552477, 16.246612, 21.000000
-29.552477, 16.246612, 21.125000
-29.552477, 16.246612, 21.250000
-29.418755, 16.173098, 21.375000
-29.418755, 16.173098, 21.500000
-29.418755, 16.173098, 21.625000
-29.418755, 16.173098, 21.750000
-29.285034, 16.099584, 21.875000
-29.151312, 16.026070, 22.000000
-29.151312, 16.026070, 22.125000
-29.285034, 16.099584, 22.250000
-29.151312, 16.026070, 22.375000
-29.017591, 15.952555, 22.500000
-29.017591, 15.952555, 22.625000
-29.017591, 15.952555, 22.750000
-29.151312, 16.026070, 22.875000
-28.883869, 15.879041, 23.000000
-28.883869, 15.879041, 23.125000
-28.883869, 15.879041, 23.250000
-28.750147, 15.805527, 23.375000
-28.750147, 15.805527, 23.500000
-28.750147, 15.805527, 23.625000
-28.750147, 15.805527, 23.750000
-28.750147, 15.805527, 23.875000
-28.616426, 15.732013, 24.000000
-28.616426, 15.732013, 24.125000
-28.482704, 15.658499, 24.250000
-28.482704, 15.658499, 24.375000
-28.482704, 15.658499, 24.500000
-28.482704, 15.658499, 24.625000
-28.348983, 15.584985, 24.750000
-28.348983, 15.584985, 24.875000
-28.348983, 15.584985, 25.000000
-28.348983, 15.584985, 25.125000
-28.215261, 15.511471, 25.250000
-28.215261, 15.511471, 25.375000
-28.215261, 15.511471, 25.500000
-28.081539, 15.437957, 25.625000
-28.081539, 15.437957, 25.750000
-28.081539, 15.437957, 25.875000
-28.081539, 15.437957, 26.000000
-27.947818, 15.364443, 26.125000
-27.947818, 15.364443, 26.250000
-27.947818, 15.364443, 26.375000
-27.947818, 15.364443, 26.500000
-27.814096, 15.290929, 26.625000
-27.814096, 15.290929, 26.750000
-27.814096, 15.290929, 26.875000
-27.814096, 15.290929, 27.000000
-27.680374, 15.217415, 27.125000
-27.680374, 15.217415, 27.250000
-27.680374, 15.217415, 27.375000
-27.546653, 15.143901, 27.500000
-27.546653, 15.143901, 27.625000
-27.546653, 15.143901, 27.750000
-27.546653, 15.143901, 27.875000
-27.412931, 15.070386, 28.000000
-27.412931, 15.070386, 28.125000
-27.412931, 15.070386, 28.250000
-27.279210, 14.996872, 28.375000
-27.279210, 14.996872, 28.500000
-27.279210, 14.996872, 28.625000
-27.279210, 14.996872, 28.750000
-27.279210, 14.996872, 28.875000
-27.145488, 14.923358, 29.000000
-27.145488, 14.923358, 29.125000
-27.011766, 14.849844, 29.250000
-27.011766, 14.849844, 29.375000
-27.011766, 14.849844, 29.500000
-27.011766, 14.849844, 29.625000
-26.878045, 14.776330, 29.750000
-26.878045, 14.776330, 29.875000
-26.878045, 14.776330, 30.000000
-26.744323, 14.702816, 30.125000
-26.744323, 14.702816, 30.250000
-26.610602, 14.629302, 30.375000
-26.610602, 14.629302, 30.500000
-26.610602, 14.629302, 30.625000
-26.610602, 14.629302, 30.750000
-26.610602, 14.629302, 30.875000
-26.476880, 14.555788, 31.000000
-26.476880, 14.555788, 31.125000
-26.343158, 14.482274, 31.250000
-26.343158, 14.482274, 31.375000
-26.343158, 14.482274, 31.500000
-26.343158, 14.482274, 31.625000
-26.209437, 14.408760, 31.750000
-26.209437, 14.408760, 31.875000
-26.209437, 14.408760, 32.000000
-26.075715, 14.335246, 32.125000
-26.075715, 14.335246, 32.250000
-26.075715, 14.335246, 32.375000
-26.075715, 14.335246, 32.500000
-25.941993, 14.261732, 32.625000
-25.941993, 14.261732, 32.750000
-25.941993, 14.261732, 32.875000
-25.808272, 14.188218, 33.000000
-25.808272, 14.188218, 33.125000
-25.808272, 14.188218, 33.250000
-25.674550, 14.114703, 33.375000
-25.674550, 14.114703, 33.500000
-25.674550, 14.114703, 33.625000
-25.540829, 14.041189, 33.750000
-25.540829, 14.041189, 33.875000
-25.540829, 14.041189, 34.000000
-25.540829, 14.041189, 34.125000
-25.407107, 13.967675, 34.250000
-25.407107, 13.967675, 34.375000
-25.407107, 13.967675, 34.500000
-25.273385, 13.894161, 34.625000
-25.273385, 13.894161, 34.750000
-25.273385, 13.894161, 34.875000
-25.139664, 13.820647, 35.000000
-25.139664, 13.820647, 35.125000
-25.139664, 13.820647, 35.250000
-25.005942, 13.747133, 35.375000
-25.005942, 13.747133, 35.500000
-25.005942, 13.747133, 35.625000
-25.005942, 13.747133, 35.750000
-24.872221, 13.673619, 35.875000
-24.872221, 13.673619, 36.000000
-24.872221, 13.673619, 36.125000
-24.738499, 13.600105, 36.250000
-24.738499, 13.600105, 36.375000
-24.738499, 13.600105, 36.500000
-24.738499, 13.600105, 36.625000
-24.604777, 13.526591, 36.750000
-24.604777, 13.526591, 36.875000
-24.471056, 13.453077, 37.000000
