7.296469, 32.642525, 21.875000
7.254047, 32.452743, 22.000000
7.211626, 32.262960, 22.125000
7.211626, 32.262960, 22.250000
7.211626, 32.262960, 22.375000
7.211626, 32.262960, 22.500000
7.211626, 32.262960, 22.625000
7.211626, 32.262960, 22.750000
7.169205, 32.073178, 22.875000
7.169205, 32.073178, 23.000000
7.169205, 32.073178, 23.125000
7.169205, 32.073178, 23.250000
7.126783, 31.883396, 23.375000
7.126783, 31.883396, 23.500000
7.126783, 31.883396, 23.625000
7.126783, 31.883396, 23.750000
7.084362, 31.693614, 23.875000
7.084362, 31.693614, 24.000000
7.084362, 31.693614, 24.125000
7.041941, 31.503832, 24.250000
7.041941, 31.503832, 24.375000
7.041941, 31.503832, 24.500000
6.999519, 31.314050, 24.625000
6.999519, 31.314050, 24.750000
6.999519, 31.314050, 24.875000
6.999519, 31.314050, 25.000000
6.957098, 31.124268, 25.125000
6.957098, 31.124268, 25.250000
6.957098, 31.124268, 25.375000
6.957098, 31.124268, 25.500000
6.957098, 31.124268, 25.625000
6.914677, 30.934486, 25.750000
6.914677, 30.934486, 25.875000
6.957098, 31.124268, 26.000000
6.914677, 30.934486, 26.125000
6.914677, 30.934486, 26.250000
6.872255, 30.744703, 26.375000
6.872255, 30.744703, 26.500000
6.914677, 30.934486, 26.625000
6.914677, 30.934486, 26.750000
6.914677, 30.934486, 26.875000
6.872255, 30.744703, 27.000000
6.829834, 30.554921, 27.125000
6.829834, 30.554921, 27.250000
6.829834, 30.554921, 27.375000
6.829834, 30.554921, 27.500000
6.787413, 30.365139, 27.625000
6.787413, 30.365139, 27.750000
6.787413, 30.365139, 27.875000
6.787413, 30.365139, 28.000000
6.787413, 30.365139, 28.125000
6.787413, 30.365139, 28.250000
6.787413, 30.365139, 28.375000
6.787413, 30.365139, 28.500000
6.744991, 30.175357, 28.625000
6.744991, 30.175357, 28.750000
6.744991, 30.175357, 28.875000
6.744991, 30.175357, 29.000000
6.702570, 29.985575, 29.125000
6.702570, 29.985575, 29.250000
6.702570, 29.985575, 29.375000
6.702570, 29.985575, 29.500000
6.660149, 29.795793, 29.625000
6.660149, 29.795793, 29.750000
6.660149, 29.795793, 29.875000
6.660149, 29.795793, 30.000000
6.617727, 29.606011, 30.125000
6.617727, 29.606011, 30.250000
6.617727, 29.606011, 30.375000
6.617727, 29.606011, 30.500000
6.617727, 29.606011, 30.625000
6.575306, 29.416229, 30.750000
6.575306, 29.416229, 30.875000
6.575306, 29.416229, 31.000000
6.575306, 29.416229, 31.125000
6.532885, 29.226446, 31.250000
6.575306, 29.416229, 31.375000
6.532885, 29.226446, 31.500000
6.532885, 29.226446, 31.625000
6.532885, 29.226446, 31.750000
6.532885, 29.226446, 31.875000
6.490463, 29.036664, 32.000000
6.490463, 29.036664, 32.125000
6.490463, 29.036664, 32.250000
6.490463, 29.036664, 32.375000
6.448042, 28.846882, 32.500000
6.448042, 28.846882, 32.625000
6.448042, 28.846882, 32.750000
6.448042, 28.846882, 32.875000
6.448042, 28.846882, 33.000000
6.405621, 28.657100, 33.125000
6.448042, 28.846882, 33.250000
6.405621, 28.657100, 33.375000
6.405621, 28.657100, 33.500000
6.405621, 28.657100, 33.625000
6.405621, 28.657100, 33.750000
6.363199, 28.467318, 33.875000
6.363199, 28.467318, 34.000000
6.363199, 28.467318, 34.125000
6.363199, 28.467318, 34.250000
6.320778, 28.277536, 34.375000
6.320778, 28.277536, 34.500000
6.320778, 28.277536, 34.625000
6.320778, 28.277536, 34.750000
6.320778, 28.277536, 34.875000
6.320778, 28.277536, 35.000000
6.320778, 28.277536, 35.125000
6.278357, 28.087754, 35.250000
6.278357, 28.087754, 35.375000
6.278357, 28.087754, 35.500000
6.278357, 28.087754, 35.625000
6.235935, 27.897972, 35.750000
6.235935, 27.897972, 35.875000
6.193514, 27.708190, 36.000000
6.193514, 27.708190, 36.125000
6.235935, 27.897972, 36.250000
6.193514, 27.708190, 36.375000
6.193514, 27.708190, 36.500000
6.193514, 27.708190, 36.625000
6.193514, 27.708190, 36.750000
6.151093, 27.518407, 36.875000
6.151093, 27.518407, 37.000000
6.151093, 27.518407, 37.125000
6.151093, 27.518407, 37.250000
6.151093, 27.518407, 37.375000
6.151093, 27.518407, 37.500000
6.108671, 27.328625, 37.625000
6.108671, 27.328625, 37.750000
6.108671, 27.328625, 37.875000
6.066250, 27.138843, 38.000000
6.066250, 27.138843, 38.125000
6.066250, 27.138843, 38.250000
6.023829, 26.949061, 38.375000
6.023829, 26.949061, 38.500000
6.023829, 26.949061, 38.625000
6.023829, 26.949061, 38.750000
6.023829, 26.949061, 38.875000
6.023829, 26.949061, 39.000000
5.981408, 26.759279, 39.125000
5.981408, 26.759279, 39.250000
5.981408, 26.759279, 39.375000
5.981408, 26.759279, 39.500000
5.981408, 26.759279, 39.625000
5.981408, 26.759279, 39.750000
5.938986, 26.569497, 39.875000
5.938986, 26.569497, 40.000000
5.938986, 26.569497, 40.125000
5.938986, 26.569497, 40.250000
5.896565, 26.379715, 40.375000
5.896565, 26.379715, 40.500000
5.896565, 26.379715, 40.625000
5.896565, 26.379715, 40.750000
5.854144, 26.189933, 40.875000
5.854144, 26.189933, 41.000000
5.854144, 26.189933, 41.125000
5.854144, 26.189933, 41.250000
5.854144, 26.189933, 41.375000
5.811722, 26.000150, 41.500000
5.811722, 26.000150, 41.625000
5.811722, 26.000150, 41.750000
5.811722, 26.000150, 41.875000
5.769301, 25.810368, 42.000000
5.811722, 26.000150, 42.125000
5.769301, 25.810368, 42.250000
5.769301, 25.810368, 42.375000
5.769301, 25.810368, 42.500000
5.769301, 25.810368, 42.625000
5.769301, 25.810368, 42.750000
5.726880, 25.620586, 42.875000
5.769301, 25.810368, 43.000000
5.769301, 25.810368, 43.125000
5.726880, 25.620586, 43.250000
5.726880, 25.620586, 43.375000
5.684458, 25.430804, 43.500000
5.726880, 25.620586, 43.625000
5.684458, 25.430804, 43.750000
5.642037, 25.241022, 43.875000
5.684458, 25.430804, 44.000000
5.684458, 25.430804, 44.125000
5.642037, 25.241022, 44.250000
5.642037, 25.241022, 44.375000
5.642037, 25.241022, 44.500000
5.642037, 25.241022, 44.625000
5.599616, 25.051240, 44.750000
5.599616, 25.051240, 44.875000
5.599616, 25.051240, 45.000000
5.599616, 25.051240, 45.125000
5.599616, 25.051240, 45.250000
5.557194, 24.861458, 45.375000
5.599616, 25.051240, 45.500000
5.557194, 24.861458, 45.625000
5.557194, 24.861458, 45.750000
5.514773, 24.671676, 45.875000
5.514773, 24.671676, 46.000000
5.514773, 24.671676, 46.125000
5.557194, 24.861458, 46.250000
5.472352, 24.481893, 46.375000
5.472352, 24.481893, 46.500000
5.472352, 24.481893, 46.625000
5.472352, 24.481893, 46.750000
5.472352, 24.481893, 46.875000
5.472352, 24.481893, 47.000000
5.429930, 24.292111, 47.125000
5.429930, 24.292111, 47.250000
5.472352, 24.481893, 47.375000
5.472352, 24.481893, 47.500000
5.429930, 24.292111, 47.625000
5.387509, 24.102329, 47.750000
5.387509, 24.102329, 47.875000
5.387509, 24.102329, 48.000000
5.387509, 24.102329, 48.125000
5.387509, 24.102329, 48.250000
5.387509, 24.102329, 48.375000
5.387509, 24.102329, 48.500000
5.387509, 24.102329, 48.625000
5.387509, 24.102329, 48.750000
5.387509, 24.102329, 48.875000
5.429930, 24.292111, 49.000000
5.429930, 24.292111, 49.125000
5.429930, 24.292111, 49.250000
5.429930, 24.292111, 49.375000
5.472352, 24.481893, 49.500000
5.472352, 24.481893, 49.625000
5.472352, 24.481893, 49.750000
5.514773, 24.671676, 49.875000
5.514773, 24.671676, 50.000000
5.514773, 24.671676, 50.125000
5.557194, 24.861458, 50.250000
5.557194, 24.861458, 50.375000
5.557194, 24.861458, 50.500000
5.599616, 25.051240, 50.625000
5.599616, 25.051240, 50.750000
5.642037, 25.241022, 50.875000
5.642037, 25.241022, 51.000000
5.642037, 25.241022, 51.125000
5.642037, 25.241022, 51.250000
5.684458, 25.430804, 51.375000
5.726880, 25.620586, 51.500000
5.726880, 25.620586, 51.625000
5.726880, 25.620586, 51.750000
5.726880, 25.620586, 51.875000
5.769301, 25.810368, 52.000000
5.769301, 25.810368, 52.125000
5.811722, 26.000150, 52.250000
5.811722, 26.000150, 52.375000
5.811722, 26.000150, 52.500000
5.854144, 26.189933, 52.625000
5.854144, 26.189933, 52.750000
5.896565, 26.379715, 52.875000
5.896565, 26.379715, 53.000000
5.896565, 26.379715, 53.125000
5.896565, 26.379715, 53.250000
5.938986, 26.569497, 53.375000
5.981408, 26.759279, 53.500000
5.981408, 26.759279, 53.625000
5.981408, 26.759279, 53.750000
6.023829, 26.949061, 53.875000
6.066250, 27.138843, 54.000000
6.066250, 27.138843, 54.125000
6.066250, 27.138843, 54.250000
6.066250, 27.138843, 54.375000
6.108671, 27.328625, 54.500000
6.108671, 27.328625, 54.625000
6.151093, 27.518407, 54.750000
6.151093, 27.518407, 54.875000
6.151093, 27.518407, 55.000000
6.151093, 27.518407, 55.125000
6.193514, 27.708190, 55.250000
6.193514, 27.708190, 55.375000
6.235935, 27.897972, 55.500000
6.235935, 27.897972, 55.625000
6.278357, 28.087754, 55.750000
6.278357, 28.087754, 55.875000
6.278357, 28.087754, 56.000000
6.320778, 28.277536, 56.125000
6.320778, 28.277536, 56.250000
6.320778, 28.277536, 56.375000
6.320778, 28.277536, 56.500000
6.363199, 28.467318, 56.625000
6.405621, 28.657100, 56.750000
6.405621, 28.657100, 56.875000
6.405621, 28.657100, 57.000000
6.405621, 28.657100, 57.125000
6.490463, 29.036664, 57.250000
6.448042, 28.846882, 57.375000
6.490463, 29.036664, 57.500000
6.490463, 29.036664, 57.625000
6.490463, 29.036664, 57.750000
6.532885, 29.226446, 57.875000
6.532885, 29.226446, 58.000000
6.532885, 29.226446, 58.125000
6.575306, 29.416229, 58.250000
6.575306, 29.416229, 58.375000
6.617727, 29.606011, 58.500000
6.617727, 29.606011, 58.625000
6.617727, 29.606011, 58.750000
6.660149, 29.795793, 58.875000
6.660149, 29.795793, 59.000000
6.660149, 29.795793, 59.125000
6.702570, 29.985575, 59.250000
6.744991, 30.175357, 59.375000
6.744991, 30.175357, 59.500000
6.744991, 30.175357, 59.625000
6.744991, 30.175357, 59.750000
6.787413, 30.365139, 59.875000
6.787413, 30.365139, 60.000000
6.829834, 30.554921, 60.125000
6.829834, 30.554921, 60.250000
6.829834, 30.554921, 60.375000
6.872255, 30.744703, 60.500000
6.872255, 30.744703, 60.625000
6.872255, 30.744703, 60.750000
6.914677, 30.934486, 60.875000
6.914677, 30.934486, 61.000000
6.914677, 30.934486, 61.125000
6.957098, 31.124268, 61.250000
6.957098, 31.124268, 61.375000
7.041941, 31.503832, 61.500000
6.999519, 31.314050, 61.625000
7.041941, 31.503832, 61.750000
7.041941, 31.503832, 61.875000
7.041941, 31.503832, 62.000000
7.084362, 31.693614, 62.125000
7.084362, 31.693614, 62.250000
7.126783, 31.883396, 62.375000
7.126783, 31.883396, 62.500000
7.126783, 31.883396, 62.625000
7.126783, 31.883396, 62.750000
7.169205, 32.073178, 62.875000
7.169205, 32.073178, 63.000000
7.211626, 32.262960, 63.125000
7.254047, 32.452743, 63.250000
7.211626, 32.262960, 63.375000
7.254047, 32.452743, 63.500000
7.254047, 32.452743, 63.625000
7.296469, 32.642525, 63.750000
7.296469, 32.642525, 63.875000
7.296469, 32.642525, 64.000000
7.296469, 32.642525, 64.125000
7.338890, 32.832307, 64.250000
7.338890, 32.832307, 64.375000
7.381311, 33.022089, 64.500000
7.381311, 33.022089, 64.625000
7.423733, 33.211871, 64.750000
7.423733, 33.211871, 64.875000
7.423733, 33.211871, 65.000000
7.466154, 33.401653, 65.125000
7.466154, 33.401653, 65.250000
7.508575, 33.591435, 65.375000
7.508575, 33.591435, 65.500000
7.508575, 33.591435, 65.625000
7.550997, 33.781217, 65.750000
7.550997, 33.781217, 65.875000
7.550997, 33.781217, 66.000000
7.593418, 33.970999, 66.125000
7.593418, 33.970999, 66.250000
7.635839, 34.160782, 66.375000
7.635839, 34.160782, 66.500000
7.635839, 34.160782, 66.625000
7.678261, 34.350564, 66.750000
7.678261, 34.350564, 66.875000
7.720682, 34.540346, 67.000000
7.720682, 34.540346, 67.125000
7.720682, 34.540346, 67.250000
7.720682, 34.540346, 67.375000
7.763103, 34.730128, 67.500000
7.763103, 34.730128, 67.625000
7.805525, 34.919910, 67.750000
7.805525, 34.919910, 67.875000
7.805525, 34.919910, 68.000000
7.847946, 35.109692, 68.125000
7.847946, 35.109692, 68.250000
7.847946, 35.109692, 68.375000
7.890367, 35.299474, 68.500000
7.890367, 35.299474, 68.625000
7.932789, 35.489256, 68.750000
7.932789, 35.489256, 68.875000
7.932789, 35.489256, 69.000000
7.975210, 35.679039, 69.125000
7.975210, 35.679039, 69.250000
7.975210, 35.679039, 69.375000
8.017631, 35.868821, 69.500000
8.017631, 35.868821, 69.625000
8.102474, 36.248385, 69.750000
8.060053, 36.058603, 69.875000
8.102474, 36.248385, 70.000000
8.102474, 36.248385, 70.125000
8.102474, 36.248385, 70.250000
8.144895, 36.438167, 70.375000
8.144895, 36.438167, 70.500000
8.144895, 36.438167, 70.625000
8.187317, 36.627949, 70.750000
8.187317, 36.627949, 70.875000
8.187317, 36.627949, 71.000000
8.229738, 36.817731, 71.125000
8.229738, 36.817731, 71.250000
8.314581, 37.197296, 71.375000
8.272159, 37.007513, 71.500000
8.314581, 37.197296, 71.625000
8.314581, 37.197296, 71.750000
8.314581, 37.197296, 71.875000
8.357002, 37.387078, 72.000000
8.357002, 37.387078, 72.125000
8.399423, 37.576860, 72.250000
8.399423, 37.576860, 72.375000
8.399423, 37.576860, 72.500000
8.441845, 37.766642, 72.625000
8.441845, 37.766642, 72.750000
8.441845, 37.766642, 72.875000
8.484266, 37.956424, 73.000000
8.526687, 38.146206, 73.125000
8.484266, 37.956424, 73.250000
8.526687, 38.146206, 73.375000
8.526687, 38.146206, 73.500000
8.569109, 38.335988, 73.625000
8.569109, 38.335988, 73.750000
8.611530, 38.525770, 73.875000
8.611530, 38.525770, 74.000000
8.611530, 38.525770, 74.125000
8.653951, 38.715552, 74.250000
8.653951, 38.715552, 74.375000
8.653951, 38.715552, 74.500000
8.696373, 38.905335, 74.625000
8.696373, 38.905335, 74.750000
8.696373, 38.905335, 74.875000
8.696373, 38.905335, 75.000000
8.738794, 39.095117, 75.125000
8.738794, 39.095117, 75.250000
8.781215, 39.284899, 75.375000
8.781215, 39.284899, 75.500000
8.823637, 39.474681, 75.625000
8.823637, 39.474681, 75.750000
8.823637, 39.474681, 75.875000
8.866058, 39.664463, 76.000000
8.866058, 39.664463, 76.125000
8.908479, 39.854245, 76.250000
8.908479, 39.854245, 76.375000
8.908479, 39.854245, 76.500000
8.993322, 40.233809, 76.625000
8.950901, 40.044027, 76.750000
8.950901, 40.044027, 76.875000
8.993322, 40.233809, 77.000000
8.993322, 40.233809, 77.125000
8.993322, 40.233809, 77.250000
9.035743, 40.423592, 77.375000
9.035743, 40.423592, 77.500000
9.035743, 40.423592, 77.625000
9.078165, 40.613374, 77.750000
9.078165, 40.613374, 77.875000
9.120586, 40.803156, 78.000000
9.120586, 40.803156, 78.125000
9.120586, 40.803156, 78.250000
9.163007, 40.992938, 78.375000
9.163007, 40.992938, 78.500000
9.163007, 40.992938, 78.625000
9.205429, 41.182720, 78.750000
9.205429, 41.182720, 78.875000
9.205429, 41.182720, 79.000000
9.247850, 41.372502, 79.125000
9.290271, 41.562284, 79.250000
9.290271, 41.562284, 79.375000
9.290271, 41.562284, 79.500000
9.290271, 41.562284, 79.625000
9.375114, 41.941849, 79.750000
9.332693, 41.752066, 79.875000
9.332693, 41.752066, 80.000000
9.375114, 41.941849, 80.125000
9.417535, 42.131631, 80.250000
9.417535, 42.131631, 80.375000
9.417535, 42.131631, 80.500000
9.417535, 42.131631, 80.625000
9.459957, 42.321413, 80.750000
9.459957, 42.321413, 80.875000
9.459957, 42.321413, 81.000000
9.502378, 42.511195, 81.125000
9.502378, 42.511195, 81.250000
9.544799, 42.700977, 81.375000
9.544799, 42.700977, 81.500000
9.587221, 42.890759, 81.625000
9.544799, 42.700977, 81.750000
9.587221, 42.890759, 81.875000
9.587221, 42.890759, 82.000000
9.587221, 42.890759, 82.125000
9.544799, 42.700977, 82.250000
9.587221, 42.890759, 82.375000
9.587221, 42.890759, 82.500000
9.587221, 42.890759, 82.625000
9.587221, 42.890759, 82.750000
6.814130, 35.720920, 13.125000
6.814130, 35.720920, 13.250000
6.814130, 35.720920, 13.375000
6.777691, 35.529899, 13.500000
6.814130, 35.720920, 13.625000
6.814130, 35.720920, 13.750000
6.777691, 35.529899, 13.875000
6.741251, 35.338878, 14.000000
6.741251, 35.338878, 14.125000
6.741251, 35.338878, 14.250000
6.741251, 35.338878, 14.375000
6.704812, 35.147857, 14.500000
6.704812, 35.147857, 14.625000
6.704812, 35.147857, 14.750000
6.704812, 35.147857, 14.875000
6.668373, 34.956836, 15.000000
6.704812, 35.147857, 15.125000
6.631934, 34.765815, 15.250000
6.631934, 34.765815, 15.375000
6.595495, 34.574794, 15.500000
6.595495, 34.574794, 15.625000
6.595495, 34.574794, 15.750000
6.595495, 34.574794, 15.875000
6.595495, 34.574794, 16.000000
6.595495, 34.574794, 16.125000
6.595495, 34.574794, 16.250000
6.595495, 34.574794, 16.375000
6.595495, 34.574794, 16.500000
6.559055, 34.383773, 16.625000
6.559055, 34.383773, 16.750000
6.559055, 34.383773, 16.875000
6.522616, 34.192752, 17.000000
6.522616, 34.192752, 17.125000
6.522616, 34.192752, 17.250000
6.486177, 34.001731, 17.375000
6.486177, 34.001731, 17.500000
6.486177, 34.001731, 17.625000
6.486177, 34.001731, 17.750000
6.449738, 33.810710, 17.875000
6.449738, 33.810710, 18.000000
6.449738, 33.810710, 18.125000
6.449738, 33.810710, 18.250000
6.449738, 33.810710, 18.375000
6.413299, 33.619689, 18.500000
6.413299, 33.619689, 18.625000
6.413299, 33.619689, 18.750000
6.413299, 33.619689, 18.875000
6.413299, 33.619689, 19.000000
6.376859, 33.428668, 19.125000
6.376859, 33.428668, 19.250000
6.376859, 33.428668, 19.375000
6.413299, 33.619689, 19.500000
6.376859, 33.428668, 19.625000
6.340420, 33.237647, 19.750000
6.340420, 33.237647, 19.875000
6.340420, 33.237647, 20.000000
6.340420, 33.237647, 20.125000
6.340420, 33.237647, 20.250000
6.303981, 33.046626, 20.375000
6.303981, 33.046626, 20.500000
6.303981, 33.046626, 20.625000
6.303981, 33.046626, 20.750000
6.303981, 33.046626, 20.875000
6.267542, 32.855605, 21.000000
6.267542, 32.855605, 21.125000
6.267542, 32.855605, 21.250000
6.231103, 32.664584, 21.375000
6.231103, 32.664584, 21.500000
6.231103, 32.664584, 21.625000
6.231103, 32.664584, 21.750000
6.194663, 32.473563, 21.875000
6.194663, 32.473563, 22.000000
6.194663, 32.473563, 22.125000
6.194663, 32.473563, 22.250000
6.194663, 32.473563, 22.375000
6.158224, 32.282542, 22.500000
6.158224, 32.282542, 22.625000
6.158224, 32.282542, 22.750000
6.158224, 32.282542, 22.875000
6.158224, 32.282542, 23.000000
6.121785, 32.091521, 23.125000
6.121785, 32.091521, 23.250000
6.121785, 32.091521, 23.375000
6.121785, 32.091521, 23.500000
6.085346, 31.900500, 23.625000
6.085346, 31.900500, 23.750000
6.085346, 31.900500, 23.875000
6.048907, 31.709479, 24.000000
6.048907, 31.709479, 24.125000
6.048907, 31.709479, 24.250000
6.048907, 31.709479, 24.375000
6.048907, 31.709479, 24.500000
6.012468, 31.518458, 24.625000
6.012468, 31.518458, 24.750000
5.976028, 31.327437, 24.875000
5.976028, 31.327437, 25.000000
5.976028, 31.327437, 25.125000
6.012468, 31.518458, 25.250000
5.976028, 31.327437, 25.375000
5.939589, 31.136416, 25.500000
5.939589, 31.136416, 25.625000
5.939589, 31.136416, 25.750000
5.939589, 31.136416, 25.875000
5.903150, 30.945396, 26.000000
5.903150, 30.945396, 26.125000
5.903150, 30.945396, 26.250000
5.903150, 30.945396, 26.375000
5.903150, 30.945396, 26.500000
5.903150, 30.945396, 26.625000
5.866711, 30.754375, 26.750000
5.866711, 30.754375, 26.875000
5.866711, 30.754375, 27.000000
5.903150, 30.945396, 27.125000
5.866711, 30.754375, 27.250000
5.866711, 30.754375, 27.375000
5.830272, 30.563354, 27.500000
5.830272, 30.563354, 27.625000
5.866711, 30.754375, 27.750000
5.830272, 30.563354, 27.875000
5.830272, 30.563354, 28.000000
5.830272, 30.563354, 28.125000
5.830272, 30.563354, 28.250000
5.793832, 30.372333, 28.375000
5.793832, 30.372333, 28.500000
5.793832, 30.372333, 28.625000
5.757393, 30.181312, 28.750000
5.757393, 30.181312, 28.875000
5.757393, 30.181312, 29.000000
5.757393, 30.181312, 29.125000
5.720954, 29.990291, 29.250000
5.720954, 29.990291, 29.375000
5.757393, 30.181312, 29.500000
5.720954, 29.990291, 29.625000
5.720954, 29.990291, 29.750000
5.684515, 29.799270, 29.875000
5.684515, 29.799270, 30.000000
5.684515, 29.799270, 30.125000
5.684515, 29.799270, 30.250000
5.684515, 29.799270, 30.375000
5.684515, 29.799270, 30.500000
5.684515, 29.799270, 30.625000
5.684515, 29.799270, 30.750000
5.648076, 29.608249, 30.875000
5.611636, 29.417228, 31.000000
5.611636, 29.417228, 31.125000
5.611636, 29.417228, 31.250000
5.611636, 29.417228, 31.375000
5.611636, 29.417228, 31.500000
5.611636, 29.417228, 31.625000
5.611636, 29.417228, 31.750000
5.575197, 29.226207, 31.875000
5.575197, 29.226207, 32.000000
5.575197, 29.226207, 32.125000
5.575197, 29.226207, 32.250000
5.575197, 29.226207, 32.375000
5.538758, 29.035186, 32.500000
5.538758, 29.035186, 32.625000
5.538758, 29.035186, 32.750000
5.538758, 29.035186, 32.875000
5.502319, 28.844165, 33.000000
5.502319, 28.844165, 33.125000
5.502319, 28.844165, 33.250000
5.502319, 28.844165, 33.375000
5.502319, 28.844165, 33.500000
5.465880, 28.653144, 33.625000
5.465880, 28.653144, 33.750000
5.465880, 28.653144, 33.875000
5.465880, 28.653144, 34.000000
5.465880, 28.653144, 34.125000
5.429440, 28.462123, 34.250000
5.465880, 28.653144, 34.375000
5.429440, 28.462123, 34.500000
5.393001, 28.271102, 34.625000
5.393001, 28.271102, 34.750000
5.429440, 28.462123, 34.875000
5.393001, 28.271102, 35.000000
5.393001, 28.271102, 35.125000
5.393001, 28.271102, 35.250000
5.356562, 28.080081, 35.375000
5.356562, 28.080081, 35.500000
5.356562, 28.080081, 35.625000
5.356562, 28.080081, 35.750000
5.356562, 28.080081, 35.875000
5.356562, 28.080081, 36.000000
5.320123, 27.889060, 36.125000
5.320123, 27.889060, 36.250000
5.320123, 27.889060, 36.375000
5.320123, 27.889060, 36.500000
5.320123, 27.889060, 36.625000
5.283684, 27.698039, 36.750000
5.283684, 27.698039, 36.875000
5.283684, 27.698039, 37.000000
5.283684, 27.698039, 37.125000
5.247244, 27.507018, 37.250000
5.247244, 27.507018, 37.375000
5.247244, 27.507018, 37.500000
5.247244, 27.507018, 37.625000
5.210805, 27.315997, 37.750000
5.210805, 27.315997, 37.875000
5.210805, 27.315997, 38.000000
5.210805, 27.315997, 38.125000
5.210805, 27.315997, 38.250000
5.210805, 27.315997, 38.375000
5.174366, 27.124976, 38.500000
5.174366, 27.124976, 38.625000
5.174366, 27.124976, 38.750000
5.137927, 26.933955, 38.875000
5.137927, 26.933955, 39.000000
5.137927, 26.933955, 39.125000
5.137927, 26.933955, 39.250000
5.137927, 26.933955, 39.375000
5.137927, 26.933955, 39.500000
5.137927, 26.933955, 39.625000
5.137927, 26.933955, 39.750000
5.101488, 26.742934, 39.875000
5.101488, 26.742934, 40.000000
5.065048, 26.551913, 40.125000
5.065048, 26.551913, 40.250000
5.065048, 26.551913, 40.375000
5.065048, 26.551913, 40.500000
5.065048, 26.551913, 40.625000
5.028609, 26.360892, 40.750000
5.028609, 26.360892, 40.875000
5.028609, 26.360892, 41.000000
5.028609, 26.360892, 41.125000
4.992170, 26.169872, 41.250000
4.992170, 26.169872, 41.375000
4.992170, 26.169872, 41.500000
4.992170, 26.169872, 41.625000
4.992170, 26.169872, 41.750000
4.992170, 26.169872, 41.875000
4.992170, 26.169872, 42.000000
4.955731, 25.978851, 42.125000
4.955731, 25.978851, 42.250000
4.955731, 25.978851, 42.375000
4.955731, 25.978851, 42.500000
4.955731, 25.978851, 42.625000
4.919292, 25.787830, 42.750000
4.919292, 25.787830, 42.875000
4.919292, 25.787830, 43.000000
4.919292, 25.787830, 43.125000
4.882852, 25.596809, 43.250000
4.882852, 25.596809, 43.375000
4.882852, 25.596809, 43.500000
4.846413, 25.405788, 43.625000
4.846413, 25.405788, 43.750000
4.846413, 25.405788, 43.875000
4.846413, 25.405788, 44.000000
4.846413, 25.405788, 44.125000
4.846413, 25.405788, 44.250000
4.846413, 25.405788, 44.375000
4.809974, 25.214767, 44.500000
4.809974, 25.214767, 44.625000
4.809974, 25.214767, 44.750000
4.809974, 25.214767, 44.875000
4.809974, 25.214767, 45.000000
4.809974, 25.214767, 45.125000
4.773535, 25.023746, 45.250000
4.773535, 25.023746, 45.375000
4.737096, 24.832725, 45.500000
4.737096, 24.832725, 45.625000
4.737096, 24.832725, 45.750000
4.737096, 24.832725, 45.875000
4.737096, 24.832725, 46.000000
4.737096, 24.832725, 46.125000
4.737096, 24.832725, 46.250000
4.737096, 24.832725, 46.375000
4.700656, 24.641704, 46.500000
4.700656, 24.641704, 46.625000
4.737096, 24.832725, 46.750000
4.737096, 24.832725, 46.875000
4.664217, 24.450683, 47.000000
4.664217, 24.450683, 47.125000
4.664217, 24.450683, 47.250000
4.700656, 24.641704, 47.375000
4.664217, 24.450683, 47.500000
4.627778, 24.259662, 47.625000
4.627778, 24.259662, 47.750000
4.627778, 24.259662, 47.875000
4.627778, 24.259662, 48.000000
4.627778, 24.259662, 48.125000
4.627778, 24.259662, 48.250000
4.627778, 24.259662, 48.375000
4.627778, 24.259662, 48.500000
4.627778, 24.259662, 48.625000
4.627778, 24.259662, 48.750000
4.627778, 24.259662, 48.875000
4.664217, 24.450683, 49.000000
4.627778, 24.259662, 49.125000
4.664217, 24.450683, 49.250000
4.700656, 24.641704, 49.375000
4.664217, 24.450683, 49.500000
4.700656, 24.641704, 49.625000
4.700656, 24.641704, 49.750000
4.700656, 24.641704, 49.875000
4.737096, 24.832725, 50.000000
4.737096, 24.832725, 50.125000
4.737096, 24.832725, 50.250000
4.773535, 25.023746, 50.375000
4.773535, 25.023746, 50.500000
4.846413, 25.405788, 50.625000
4.809974, 25.214767, 50.750000
4.809974, 25.214767, 50.875000
4.846413, 25.405788, 51.000000
4.846413, 25.405788, 51.125000
4.882852, 25.596809, 51.250000
4.919292, 25.787830, 51.375000
4.882852, 25.596809, 51.500000
4.919292, 25.787830, 51.625000
4.919292, 25.787830, 51.750000
4.919292, 25.787830, 51.875000
4.955731, 25.978851, 52.000000
4.955731, 25.978851, 52.125000
4.955731, 25.978851, 52.250000
4.992170, 26.169872, 52.375000
4.992170, 26.169872, 52.500000
4.992170, 26.169872, 52.625000
5.028609, 26.360892, 52.750000
5.028609, 26.360892, 52.875000
5.101488, 26.742934, 53.000000
5.065048, 26.551913, 53.125000
5.065048, 26.551913, 53.250000
5.101488, 26.742934, 53.375000
5.101488, 26.742934, 53.500000
5.137927, 26.933955, 53.625000
5.137927, 26.933955, 53.750000
5.174366, 27.124976, 53.875000
5.174366, 27.124976, 54.000000
5.210805, 27.315997, 54.125000
5.210805, 27.315997, 54.250000
5.210805, 27.315997, 54.375000
5.247244, 27.507018, 54.500000
5.247244, 27.507018, 54.625000
5.247244, 27.507018, 54.750000
5.283684, 27.698039, 54.875000
5.283684, 27.698039, 55.000000
5.283684, 27.698039, 55.125000
5.320123, 27.889060, 55.250000
5.320123, 27.889060, 55.375000
5.320123, 27.889060, 55.500000
5.356562, 28.080081, 55.625000
5.356562, 28.080081, 55.750000
5.393001, 28.271102, 55.875000
5.393001, 28.271102, 56.000000
5.393001, 28.271102, 56.125000
5.429440, 28.462123, 56.250000
5.429440, 28.462123, 56.375000
5.465880, 28.653144, 56.500000
5.502319, 28.844165, 56.625000
5.465880, 28.653144, 56.750000
5.502319, 28.844165, 56.875000
5.502319, 28.844165, 57.000000
5.502319, 28.844165, 57.125000
5.538758, 29.035186, 57.250000
5.538758, 29.035186, 57.375000
5.538758, 29.035186, 57.500000
5.575197, 29.226207, 57.625000
5.575197, 29.226207, 57.750000
5.575197, 29.226207, 57.875000
5.611636, 29.417228, 58.000000
5.611636, 29.417228, 58.125000
5.648076, 29.608249, 58.250000
5.648076, 29.608249, 58.375000
5.648076, 29.608249, 58.500000
5.684515, 29.799270, 58.625000
5.684515, 29.799270, 58.750000
5.720954, 29.990291, 58.875000
5.720954, 29.990291, 59.000000
5.720954, 29.990291, 59.125000
5.757393, 30.181312, 59.250000
5.757393, 30.181312, 59.375000
5.793832, 30.372333, 59.500000
5.793832, 30.372333, 59.625000
5.793832, 30.372333, 59.750000
5.793832, 30.372333, 59.875000
5.830272, 30.563354, 60.000000
5.830272, 30.563354, 60.125000
5.866711, 30.754375, 60.250000
5.866711, 30.754375, 60.375000
5.866711, 30.754375, 60.500000
5.903150, 30.945396, 60.625000
5.903150, 30.945396, 60.750000
5.939589, 31.136416, 60.875000
5.939589, 31.136416, 61.000000
5.939589, 31.136416, 61.125000
5.976028, 31.327437, 61.250000
5.976028, 31.327437, 61.375000
6.048907, 31.709479, 61.500000
6.012468, 31.518458, 61.625000
6.048907, 31.709479, 61.750000
6.048907, 31.709479, 61.875000
6.048907, 31.709479, 62.000000
6.085346, 31.900500, 62.125000
6.121785, 32.091521, 62.250000
6.121785, 32.091521, 62.375000
6.121785, 32.091521, 62.500000
6.121785, 32.091521, 62.625000
6.121785, 32.091521, 62.750000
6.194663, 32.473563, 62.875000
6.158224, 32.282542, 63.000000
6.194663, 32.473563, 63.125000
6.194663, 32.473563, 63.250000
6.194663, 32.473563, 63.375000
6.194663, 32.473563, 63.500000
6.231103, 32.664584, 63.625000
6.231103, 32.664584, 63.750000
6.267542, 32.855605, 63.875000
6.267542, 32.855605, 64.000000
6.267542, 32.855605, 64.125000
6.303981, 33.046626, 64.250000
6.303981, 33.046626, 64.375000
6.340420, 33.237647, 64.500000
6.340420, 33.237647, 64.625000
6.340420, 33.237647, 64.750000
6.376859, 33.428668, 64.875000
6.376859, 33.428668, 65.000000
6.413299, 33.619689, 65.125000
6.413299, 33.619689, 65.250000
6.449738, 33.810710, 65.375000
6.449738, 33.810710, 65.500000
6.449738, 33.810710, 65.625000
6.486177, 34.001731, 65.750000
6.486177, 34.001731, 65.875000
6.486177, 34.001731, 66.000000
6.522616, 34.192752, 66.125000
6.522616, 34.192752, 66.250000
6.559055, 34.383773, 66.375000
6.559055, 34.383773, 66.500000
6.559055, 34.383773, 66.625000
6.559055, 34.383773, 66.750000
6.595495, 34.574794, 66.875000
6.595495, 34.574794, 67.000000
6.631934, 34.765815, 67.125000
6.631934, 34.765815, 67.250000
6.631934, 34.765815, 67.375000
6.668373, 34.956836, 67.500000
6.668373, 34.956836, 67.625000
6.704812, 35.147857, 67.750000
6.704812, 35.147857, 67.875000
6.704812, 35.147857, 68.000000
6.741251, 35.338878, 68.125000
6.741251, 35.338878, 68.250000
6.741251, 35.338878, 68.375000
6.777691, 35.529899, 68.500000
6.777691, 35.529899, 68.625000
6.777691, 35.529899, 68.750000
6.814130, 35.720920, 68.875000
6.814130, 35.720920, 69.000000
6.887008, 36.102961, 69.125000
6.850569, 35.911940, 69.250000
6.850569, 35.911940, 69.375000
6.887008, 36.102961, 69.500000
6.887008, 36.102961, 69.625000
6.923447, 36.293982, 69.750000
6.923447, 36.293982, 69.875000
6.959887, 36.485003, 70.000000
6.959887, 36.485003, 70.125000
6.959887, 36.485003, 70.250000
6.996326, 36.676024, 70.375000
6.996326, 36.676024, 70.500000
6.996326, 36.676024, 70.625000
6.996326, 36.676024, 70.750000
7.032765, 36.867045, 70.875000
7.032765, 36.867045, 71.000000
7.069204, 37.058066, 71.125000
7.069204, 37.058066, 71.250000
7.142083, 37.440108, 71.375000
7.105643, 37.249087, 71.500000
7.142083, 37.440108, 71.625000
7.142083, 37.440108, 71.750000
7.142083, 37.440108, 71.875000
7.142083, 37.440108, 72.000000
7.178522, 37.631129, 72.125000
7.178522, 37.631129, 72.250000
7.251400, 38.013171, 72.375000
7.214961, 37.822150, 72.500000
7.214961, 37.822150, 72.625000
7.287839, 38.204192, 72.750000
7.251400, 38.013171, 72.875000
7.251400, 38.013171, 73.000000
7.287839, 38.204192, 73.125000
7.287839, 38.204192, 73.250000
7.324279, 38.395213, 73.375000
7.324279, 38.395213, 73.500000
7.324279, 38.395213, 73.625000
7.360718, 38.586234, 73.750000
7.360718, 38.586234, 73.875000
7.360718, 38.586234, 74.000000
7.397157, 38.777255, 74.125000
7.433596, 38.968276, 74.250000
7.433596, 38.968276, 74.375000
7.433596, 38.968276, 74.500000
7.470035, 39.159297, 74.625000
7.470035, 39.159297, 74.750000
7.470035, 39.159297, 74.875000
7.470035, 39.159297, 75.000000
7.506475, 39.350318, 75.125000
7.506475, 39.350318, 75.250000
7.542914, 39.541339, 75.375000
7.542914, 39.541339, 75.500000
7.579353, 39.732360, 75.625000
7.579353, 39.732360, 75.750000
7.579353, 39.732360, 75.875000
7.615792, 39.923381, 76.000000
7.615792, 39.923381, 76.125000
7.615792, 39.923381, 76.250000
7.652231, 40.114402, 76.375000
7.652231, 40.114402, 76.500000
7.688671, 40.305423, 76.625000
7.688671, 40.305423, 76.750000
7.688671, 40.305423, 76.875000
7.688671, 40.305423, 77.000000
7.725110, 40.496444, 77.125000
7.725110, 40.496444, 77.250000
7.761549, 40.687465, 77.375000
7.761549, 40.687465, 77.500000
7.761549, 40.687465, 77.625000
7.797988, 40.878485, 77.750000
7.797988, 40.878485, 77.875000
7.834427, 41.069506, 78.000000
7.834427, 41.069506, 78.125000
7.834427, 41.069506, 78.250000
7.834427, 41.069506, 78.375000
7.870867, 41.260527, 78.500000
7.870867, 41.260527, 78.625000
7.907306, 41.451548, 78.750000
7.907306, 41.451548, 78.875000
7.907306, 41.451548, 79.000000
7.943745, 41.642569, 79.125000
7.943745, 41.642569, 79.250000
7.980184, 41.833590, 79.375000
7.980184, 41.833590, 79.500000
7.980184, 41.833590, 79.625000
7.980184, 41.833590, 79.750000
8.053063, 42.215632, 79.875000
8.053063, 42.215632, 80.000000
8.053063, 42.215632, 80.125000
8.089502, 42.406653, 80.250000
8.089502, 42.406653, 80.375000
8.089502, 42.406653, 80.500000
8.125941, 42.597674, 80.625000
8.125941, 42.597674, 80.750000
8.125941, 42.597674, 80.875000
8.125941, 42.597674, 81.000000
8.162380, 42.788695, 81.125000
8.162380, 42.788695, 81.250000
8.198819, 42.979716, 81.375000
8.198819, 42.979716, 81.500000
8.198819, 42.979716, 81.625000
8.198819, 42.979716, 81.750000
8.198819, 42.979716, 81.875000
8.235259, 43.170737, 82.000000
8.198819, 42.979716, 82.125000
8.198819, 42.979716, 82.250000
8.235259, 43.170737, 82.375000
8.235259, 43.170737, 82.500000
8.271698, 43.361758, 82.625000
8.235259, 43.170737, 82.750000
5.719167, 36.109402, 13.125000
5.749588, 36.301473, 13.250000
5.688746, 35.917330, 13.375000
5.688746, 35.917330, 13.500000
5.719167, 36.109402, 13.625000
5.658325, 35.725259, 13.750000
5.658325, 35.725259, 13.875000
5.658325, 35.725259, 14.000000
5.658325, 35.725259, 14.125000
5.627904, 35.533188, 14.250000
5.627904, 35.533188, 14.375000
5.627904, 35.533188, 14.500000
5.627904, 35.533188, 14.625000
5.627904, 35.533188, 14.750000
5.597483, 35.341117, 14.875000
5.567062, 35.149045, 15.000000
5.567062, 35.149045, 15.125000
5.567062, 35.149045, 15.250000
5.567062, 35.149045, 15.375000
5.536641, 34.956974, 15.500000
5.536641, 34.956974, 15.625000
5.536641, 34.956974, 15.750000
5.506220, 34.764903, 15.875000
5.506220, 34.764903, 16.000000
5.506220, 34.764903, 16.125000
5.506220, 34.764903, 16.250000
5.475799, 34.572831, 16.375000
5.506220, 34.764903, 16.500000
5.475799, 34.572831, 16.625000
5.506220, 34.764903, 16.750000
5.475799, 34.572831, 16.875000
5.445377, 34.380760, 17.000000
5.445377, 34.380760, 17.125000
5.445377, 34.380760, 17.250000
5.414956, 34.188689, 17.375000
5.414956, 34.188689, 17.500000
5.414956, 34.188689, 17.625000
5.414956, 34.188689, 17.750000
5.414956, 34.188689, 17.875000
5.384535, 33.996618, 18.000000
5.384535, 33.996618, 18.125000
5.384535, 33.996618, 18.250000
5.384535, 33.996618, 18.375000
5.384535, 33.996618, 18.500000
5.354114, 33.804546, 18.625000
5.354114, 33.804546, 18.750000
5.354114, 33.804546, 18.875000
5.354114, 33.804546, 19.000000
5.354114, 33.804546, 19.125000
5.354114, 33.804546, 19.250000
5.323693, 33.612475, 19.375000
5.323693, 33.612475, 19.500000
5.323693, 33.612475, 19.625000
5.323693, 33.612475, 19.750000
5.293272, 33.420404, 19.875000
5.293272, 33.420404, 20.000000
5.293272, 33.420404, 20.125000
5.293272, 33.420404, 20.250000
5.293272, 33.420404, 20.375000
5.262851, 33.228332, 20.500000
5.262851, 33.228332, 20.625000
5.262851, 33.228332, 20.750000
5.262851, 33.228332, 20.875000
5.262851, 33.228332, 21.000000
5.262851, 33.228332, 21.125000
5.232430, 33.036261, 21.250000
5.232430, 33.036261, 21.375000
5.202009, 32.844190, 21.500000
5.202009, 32.844190, 21.625000
5.202009, 32.844190, 21.750000
5.202009, 32.844190, 21.875000
5.202009, 32.844190, 22.000000
5.171588, 32.652119, 22.125000
5.171588, 32.652119, 22.250000
5.171588, 32.652119, 22.375000
5.171588, 32.652119, 22.500000
5.141166, 32.460047, 22.625000
5.141166, 32.460047, 22.750000
5.141166, 32.460047, 22.875000
5.141166, 32.460047, 23.000000
5.141166, 32.460047, 23.125000
5.110745, 32.267976, 23.250000
5.141166, 32.460047, 23.375000
5.110745, 32.267976, 23.500000
5.110745, 32.267976, 23.625000
5.080324, 32.075905, 23.750000
5.080324, 32.075905, 23.875000
5.080324, 32.075905, 24.000000
5.049903, 31.883833, 24.125000
5.049903, 31.883833, 24.250000
5.080324, 32.075905, 24.375000
5.049903, 31.883833, 24.500000
5.049903, 31.883833, 24.625000
5.019482, 31.691762, 24.750000
5.019482, 31.691762, 24.875000
5.019482, 31.691762, 25.000000
4.989061, 31.499691, 25.125000
4.989061, 31.499691, 25.250000
4.989061, 31.499691, 25.375000
5.019482, 31.691762, 25.500000
4.989061, 31.499691, 25.625000
4.989061, 31.499691, 25.750000
4.958640, 31.307620, 25.875000
4.958640, 31.307620, 26.000000
4.958640, 31.307620, 26.125000
4.958640, 31.307620, 26.250000
4.928219, 31.115548, 26.375000
4.928219, 31.115548, 26.500000
4.928219, 31.115548, 26.625000
4.958640, 31.307620, 26.750000
4.928219, 31.115548, 26.875000
4.928219, 31.115548, 27.000000
4.897798, 30.923477, 27.125000
4.897798, 30.923477, 27.250000
4.928219, 31.115548, 27.375000
4.897798, 30.923477, 27.500000
4.897798, 30.923477, 27.625000
4.867376, 30.731406, 27.750000
4.867376, 30.731406, 27.875000
4.867376, 30.731406, 28.000000
4.867376, 30.731406, 28.125000
4.867376, 30.731406, 28.250000
4.867376, 30.731406, 28.375000
4.867376, 30.731406, 28.500000
4.836955, 30.539334, 28.625000
4.836955, 30.539334, 28.750000
4.806534, 30.347263, 28.875000
4.806534, 30.347263, 29.000000
4.836955, 30.539334, 29.125000
4.806534, 30.347263, 29.250000
4.806534, 30.347263, 29.375000
4.806534, 30.347263, 29.500000
4.806534, 30.347263, 29.625000
4.776113, 30.155192, 29.750000
4.776113, 30.155192, 29.875000
4.776113, 30.155192, 30.000000
4.745692, 29.963121, 30.125000
4.745692, 29.963121, 30.250000
4.745692, 29.963121, 30.375000
4.745692, 29.963121, 30.500000
4.745692, 29.963121, 30.625000
4.715271, 29.771049, 30.750000
4.715271, 29.771049, 30.875000
4.715271, 29.771049, 31.000000
4.715271, 29.771049, 31.125000
4.684850, 29.578978, 31.250000
4.684850, 29.578978, 31.375000
4.684850, 29.578978, 31.500000
4.684850, 29.578978, 31.625000
4.684850, 29.578978, 31.750000
4.684850, 29.578978, 31.875000
4.684850, 29.578978, 32.000000
4.684850, 29.578978, 32.125000
4.654429, 29.386907, 32.250000
4.654429, 29.386907, 32.375000
4.624008, 29.194835, 32.500000
4.624008, 29.194835, 32.625000
4.654429, 29.386907, 32.750000
4.624008, 29.194835, 32.875000
4.624008, 29.194835, 33.000000
4.624008, 29.194835, 33.125000
4.593587, 29.002764, 33.250000
4.593587, 29.002764, 33.375000
4.593587, 29.002764, 33.500000
4.593587, 29.002764, 33.625000
4.593587, 29.002764, 33.750000
4.563165, 28.810693, 33.875000
4.563165, 28.810693, 34.000000
4.563165, 28.810693, 34.125000
4.563165, 28.810693, 34.250000
4.532744, 28.618622, 34.375000
4.563165, 28.810693, 34.500000
4.532744, 28.618622, 34.625000
4.532744, 28.618622, 34.750000
4.532744, 28.618622, 34.875000
4.502323, 28.426550, 35.000000
4.502323, 28.426550, 35.125000
4.502323, 28.426550, 35.250000
4.502323, 28.426550, 35.375000
4.502323, 28.426550, 35.500000
4.502323, 28.426550, 35.625000
4.502323, 28.426550, 35.750000
4.471902, 28.234479, 35.875000
4.471902, 28.234479, 36.000000
4.441481, 28.042408, 36.125000
4.441481, 28.042408, 36.250000
4.441481, 28.042408, 36.375000
4.441481, 28.042408, 36.500000
4.441481, 28.042408, 36.625000
4.441481, 28.042408, 36.750000
4.411060, 27.850336, 36.875000
4.411060, 27.850336, 37.000000
4.411060, 27.850336, 37.125000
4.411060, 27.850336, 37.250000
4.411060, 27.850336, 37.375000
4.380639, 27.658265, 37.500000
4.380639, 27.658265, 37.625000
4.380639, 27.658265, 37.750000
4.380639, 27.658265, 37.875000
4.380639, 27.658265, 38.000000
4.350218, 27.466194, 38.125000
4.350218, 27.466194, 38.250000
4.350218, 27.466194, 38.375000
4.350218, 27.466194, 38.500000
4.319797, 27.274123, 38.625000
4.319797, 27.274123, 38.750000
4.319797, 27.274123, 38.875000
4.319797, 27.274123, 39.000000
4.319797, 27.274123, 39.125000
4.289376, 27.082051, 39.250000
4.289376, 27.082051, 39.375000
4.289376, 27.082051, 39.500000
4.289376, 27.082051, 39.625000
4.289376, 27.082051, 39.750000
4.289376, 27.082051, 39.875000
4.258954, 26.889980, 40.000000
4.258954, 26.889980, 40.125000
4.258954, 26.889980, 40.250000
4.258954, 26.889980, 40.375000
4.228533, 26.697909, 40.500000
4.228533, 26.697909, 40.625000
4.228533, 26.697909, 40.750000
4.198112, 26.505837, 40.875000
4.198112, 26.505837, 41.000000
4.198112, 26.505837, 41.125000
4.198112, 26.505837, 41.250000
4.198112, 26.505837, 41.375000
4.198112, 26.505837, 41.500000
4.198112, 26.505837, 41.625000
4.198112, 26.505837, 41.750000
4.198112, 26.505837, 41.875000
4.198112, 26.505837, 42.000000
4.167691, 26.313766, 42.125000
4.167691, 26.313766, 42.250000
4.137270, 26.121695, 42.375000
4.137270, 26.121695, 42.500000
4.137270, 26.121695, 42.625000
4.137270, 26.121695, 42.750000
4.137270, 26.121695, 42.875000
4.137270, 26.121695, 43.000000
4.106849, 25.929624, 43.125000
4.106849, 25.929624, 43.250000
4.076428, 25.737552, 43.375000
4.076428, 25.737552, 43.500000
4.076428, 25.737552, 43.625000
4.076428, 25.737552, 43.750000
4.076428, 25.737552, 43.875000
4.076428, 25.737552, 44.000000
4.046007, 25.545481, 44.125000
4.046007, 25.545481, 44.250000
4.046007, 25.545481, 44.375000
4.015586, 25.353410, 44.500000
4.015586, 25.353410, 44.625000
4.015586, 25.353410, 44.750000
4.015586, 25.353410, 44.875000
4.046007, 25.545481, 45.000000
4.015586, 25.353410, 45.125000
4.015586, 25.353410, 45.250000
3.985165, 25.161338, 45.375000
3.985165, 25.161338, 45.500000
3.985165, 25.161338, 45.625000
4.015586, 25.353410, 45.750000
3.954743, 24.969267, 45.875000
3.954743, 24.969267, 46.000000
3.954743, 24.969267, 46.125000
3.954743, 24.969267, 46.250000
3.954743, 24.969267, 46.375000
3.954743, 24.969267, 46.500000
3.924322, 24.777196, 46.625000
3.924322, 24.777196, 46.750000
3.954743, 24.969267, 46.875000
3.954743, 24.969267, 47.000000
3.893901, 24.585125, 47.125000
3.893901, 24.585125, 47.250000
3.893901, 24.585125, 47.375000
3.893901, 24.585125, 47.500000
3.893901, 24.585125, 47.625000
3.893901, 24.585125, 47.750000
3.863480, 24.393053, 47.875000
3.863480, 24.393053, 48.000000
3.863480, 24.393053, 48.125000
3.863480, 24.393053, 48.250000
3.863480, 24.393053, 48.375000
3.863480, 24.393053, 48.500000
3.863480, 24.393053, 48.625000
3.893901, 24.585125, 48.750000
3.893901, 24.585125, 48.875000
3.893901, 24.585125, 49.000000
3.893901, 24.585125, 49.125000
3.924322, 24.777196, 49.250000
3.893901, 24.585125, 49.375000
3.954743, 24.969267, 49.500000
3.924322, 24.777196, 49.625000
3.924322, 24.777196, 49.750000
3.924322, 24.777196, 49.875000
3.954743, 24.969267, 50.000000
3.954743, 24.969267, 50.125000
3.985165, 25.161338, 50.250000
3.985165, 25.161338, 50.375000
3.985165, 25.161338, 50.500000
4.015586, 25.353410, 50.625000
4.015586, 25.353410, 50.750000
4.046007, 25.545481, 50.875000
4.046007, 25.545481, 51.000000
4.046007, 25.545481, 51.125000
4.076428, 25.737552, 51.250000
4.076428, 25.737552, 51.375000
4.076428, 25.737552, 51.500000
4.106849, 25.929624, 51.625000
4.106849, 25.929624, 51.750000
4.106849, 25.929624, 51.875000
4.137270, 26.121695, 52.000000
4.137270, 26.121695, 52.125000
4.167691, 26.313766, 52.250000
4.167691, 26.313766, 52.375000
4.167691, 26.313766, 52.500000
4.228533, 26.697909, 52.625000
4.198112, 26.505837, 52.750000
4.228533, 26.697909, 52.875000
4.228533, 26.697909, 53.000000
4.228533, 26.697909, 53.125000
4.228533, 26.697909, 53.250000
4.258954, 26.889980, 53.375000
4.289376, 27.082051, 53.500000
4.289376, 27.082051, 53.625000
4.319797, 27.274123, 53.750000
4.319797, 27.274123, 53.875000
4.350218, 27.466194, 54.000000
4.350218, 27.466194, 54.125000
4.350218, 27.466194, 54.250000
4.350218, 27.466194, 54.375000
4.380639, 27.658265, 54.500000
4.380639, 27.658265, 54.625000
4.411060, 27.850336, 54.750000
4.411060, 27.850336, 54.875000
4.411060, 27.850336, 55.000000
4.441481, 28.042408, 55.125000
4.441481, 28.042408, 55.250000
4.441481, 28.042408, 55.375000
4.471902, 28.234479, 55.500000
4.471902, 28.234479, 55.625000
4.502323, 28.426550, 55.750000
4.502323, 28.426550, 55.875000
4.502323, 28.426550, 56.000000
4.502323, 28.426550, 56.125000
4.563165, 28.810693, 56.250000
4.532744, 28.618622, 56.375000
4.563165, 28.810693, 56.500000
4.563165, 28.810693, 56.625000
4.593587, 29.002764, 56.750000
4.593587, 29.002764, 56.875000
4.593587, 29.002764, 57.000000
4.624008, 29.194835, 57.125000
4.624008, 29.194835, 57.250000
4.654429, 29.386907, 57.375000
4.654429, 29.386907, 57.500000
4.654429, 29.386907, 57.625000
4.654429, 29.386907, 57.750000
4.684850, 29.578978, 57.875000
4.684850, 29.578978, 58.000000
4.715271, 29.771049, 58.125000
4.715271, 29.771049, 58.250000
4.745692, 29.963121, 58.375000
4.745692, 29.963121, 58.500000
4.745692, 29.963121, 58.625000
4.776113, 30.155192, 58.750000
4.776113, 30.155192, 58.875000
4.776113, 30.155192, 59.000000
4.806534, 30.347263, 59.125000
4.806534, 30.347263, 59.250000
4.836955, 30.539334, 59.375000
4.836955, 30.539334, 59.500000
4.836955, 30.539334, 59.625000
4.867376, 30.731406, 59.750000
4.867376, 30.731406, 59.875000
4.867376, 30.731406, 60.000000
4.897798, 30.923477, 60.125000
4.897798, 30.923477, 60.250000
4.897798, 30.923477, 60.375000
4.928219, 31.115548, 60.500000
4.928219, 31.115548, 60.625000
4.928219, 31.115548, 60.750000
4.958640, 31.307620, 60.875000
4.958640, 31.307620, 61.000000
4.989061, 31.499691, 61.125000
4.989061, 31.499691, 61.250000
4.989061, 31.499691, 61.375000
5.049903, 31.883833, 61.500000
5.019482, 31.691762, 61.625000
5.049903, 31.883833, 61.750000
5.049903, 31.883833, 61.875000
5.080324, 32.075905, 62.000000
5.080324, 32.075905, 62.125000
5.080324, 32.075905, 62.250000
5.080324, 32.075905, 62.375000
5.110745, 32.267976, 62.500000
5.110745, 32.267976, 62.625000
5.141166, 32.460047, 62.750000
5.141166, 32.460047, 62.875000
5.171588, 32.652119, 63.000000
5.202009, 32.844190, 63.125000
5.171588, 32.652119, 63.250000
5.202009, 32.844190, 63.375000
5.202009, 32.844190, 63.500000
5.202009, 32.844190, 63.625000
5.262851, 33.228332, 63.750000
5.232430, 33.036261, 63.875000
5.232430, 33.036261, 64.000000
5.262851, 33.228332, 64.125000
5.262851, 33.228332, 64.250000
5.262851, 33.228332, 64.375000
5.293272, 33.420404, 64.500000
5.293272, 33.420404, 64.625000
5.323693, 33.612475, 64.750000
5.323693, 33.612475, 64.875000
5.354114, 33.804546, 65.000000
5.354114, 33.804546, 65.125000
5.354114, 33.804546, 65.250000
5.384535, 33.996618, 65.375000
5.384535, 33.996618, 65.500000
5.384535, 33.996618, 65.625000
5.414956, 34.188689, 65.750000
5.414956, 34.188689, 65.875000
5.414956, 34.188689, 66.000000
5.445377, 34.380760, 66.125000
5.445377, 34.380760, 66.250000
5.475799, 34.572831, 66.375000
5.475799, 34.572831, 66.500000
5.475799, 34.572831, 66.625000
5.506220, 34.764903, 66.750000
5.506220, 34.764903, 66.875000
5.536641, 34.956974, 67.000000
5.536641, 34.956974, 67.125000
5.536641, 34.956974, 67.250000
5.567062, 35.149045, 67.375000
5.567062, 35.149045, 67.500000
5.567062, 35.149045, 67.625000
5.597483, 35.341117, 67.750000
5.597483, 35.341117, 67.875000
5.627904, 35.533188, 68.000000
5.627904, 35.533188, 68.125000
5.627904, 35.533188, 68.250000
5.658325, 35.725259, 68.375000
5.658325, 35.725259, 68.500000
5.658325, 35.725259, 68.625000
5.688746, 35.917330, 68.750000
5.688746, 35.917330, 68.875000
5.688746, 35.917330, 69.000000
5.719167, 36.109402, 69.125000
5.719167, 36.109402, 69.250000
5.719167, 36.109402, 69.375000
5.749588, 36.301473, 69.500000
5.749588, 36.301473, 69.625000
5.780010, 36.493544, 69.750000
5.780010, 36.493544, 69.875000
5.810431, 36.685616, 70.000000
5.810431, 36.685616, 70.125000
5.810431, 36.685616, 70.250000
5.840852, 36.877687, 70.375000
5.840852, 36.877687, 70.500000
5.840852, 36.877687, 70.625000
5.871273, 37.069758, 70.750000
5.871273, 37.069758, 70.875000
5.901694, 37.261829, 71.000000
5.901694, 37.261829, 71.125000
5.901694, 37.261829, 71.250000
5.932115, 37.453901, 71.375000
5.932115, 37.453901, 71.500000
5.932115, 37.453901, 71.625000
5.962536, 37.645972, 71.750000
5.962536, 37.645972, 71.875000
6.023378, 38.030115, 72.000000
5.992957, 37.838043, 72.125000
5.992957, 37.838043, 72.250000
6.023378, 38.030115, 72.375000
6.023378, 38.030115, 72.500000
6.023378, 38.030115, 72.625000
6.084221, 38.414257, 72.750000
6.053800, 38.222186, 72.875000
6.114642, 38.606328, 73.000000
6.084221, 38.414257, 73.125000
6.084221, 38.414257, 73.250000
6.114642, 38.606328, 73.375000
6.114642, 38.606328, 73.500000
6.145063, 38.798400, 73.625000
6.175484, 38.990471, 73.750000
6.145063, 38.798400, 73.875000
6.175484, 38.990471, 74.000000
6.175484, 38.990471, 74.125000
6.205905, 39.182542, 74.250000
6.205905, 39.182542, 74.375000
6.205905, 39.182542, 74.500000
6.236326, 39.374614, 74.625000
6.236326, 39.374614, 74.750000
6.236326, 39.374614, 74.875000
6.266747, 39.566685, 75.000000
6.266747, 39.566685, 75.125000
6.297168, 39.758756, 75.250000
6.297168, 39.758756, 75.375000
6.327589, 39.950827, 75.500000
6.327589, 39.950827, 75.625000
6.327589, 39.950827, 75.750000
