10.325845, 23.861620, 49.000000
10.325845, 23.861620, 49.125000
10.325845, 23.861620, 49.250000
10.425132, 24.091059, 49.375000
10.425132, 24.091059, 49.500000
10.425132, 24.091059, 49.625000
10.524419, 24.320498, 49.750000
10.524419, 24.320498, 49.875000
10.524419, 24.320498, 50.000000
10.524419, 24.320498, 50.125000
10.524419, 24.320498, 50.250000
10.623706, 24.549936, 50.375000
10.623706, 24.549936, 50.500000
10.623706, 24.549936, 50.625000
10.722993, 24.779375, 50.750000
10.822280, 25.008814, 50.875000
10.722993, 24.779375, 51.000000
10.822280, 25.008814, 51.125000
10.822280, 25.008814, 51.250000
10.822280, 25.008814, 51.375000
10.822280, 25.008814, 51.500000
10.921567, 25.238252, 51.625000
10.921567, 25.238252, 51.750000
11.020854, 25.467691, 51.875000
11.120141, 25.697130, 52.000000
11.020854, 25.467691, 52.125000
11.020854, 25.467691, 52.250000
11.120141, 25.697130, 52.375000
11.120141, 25.697130, 52.500000
11.120141, 25.697130, 52.625000
11.219428, 25.926568, 52.750000
11.219428, 25.926568, 52.875000
11.219428, 25.926568, 53.000000
11.318715, 26.156007, 53.125000
11.318715, 26.156007, 53.250000
11.318715, 26.156007, 53.375000
11.418002, 26.385445, 53.500000
11.517289, 26.614884, 53.625000
11.517289, 26.614884, 53.750000
11.517289, 26.614884, 53.875000
11.517289, 26.614884, 54.000000
11.616576, 26.844323, 54.125000
11.616576, 26.844323, 54.250000
11.616576, 26.844323, 54.375000
11.616576, 26.844323, 54.500000
11.715863, 27.073761, 54.625000
11.715863, 27.073761, 54.750000
11.715863, 27.073761, 54.875000
11.914437, 27.532639, 55.000000
11.815150, 27.303200, 55.125000
11.815150, 27.303200, 55.250000
12.013724, 27.762077, 55.375000
11.914437, 27.532639, 55.500000
11.914437, 27.532639, 55.625000
12.113011, 27.991516, 55.750000
12.013724, 27.762077, 55.875000
12.113011, 27.991516, 56.000000
12.113011, 27.991516, 56.125000
12.113011, 27.991516, 56.250000
12.113011, 27.991516, 56.375000
12.212298, 28.220955, 56.500000
12.212298, 28.220955, 56.625000
12.311585, 28.450393, 56.750000
12.311585, 28.450393, 56.875000
12.311585, 28.450393, 57.000000
12.311585, 28.450393, 57.125000
12.311585, 28.450393, 57.250000
12.410872, 28.679832, 57.375000
12.510159, 28.909271, 57.500000
12.510159, 28.909271, 57.625000
12.510159, 28.909271, 57.750000
12.510159, 28.909271, 57.875000
12.609446, 29.138709, 58.000000
12.708733, 29.368148, 58.125000
12.609446, 29.138709, 58.250000
12.708733, 29.368148, 58.375000
12.708733, 29.368148, 58.500000
12.808019, 29.597587, 58.625000
12.708733, 29.368148, 58.750000
12.708733, 29.368148, 58.875000
12.907306, 29.827025, 59.000000
12.907306, 29.827025, 59.125000
12.907306, 29.827025, 59.250000
12.907306, 29.827025, 59.375000
12.907306, 29.827025, 59.500000
12.907306, 29.827025, 59.625000
13.105880, 30.285903, 59.750000
13.006593, 30.056464, 59.875000
13.006593, 30.056464, 60.000000
13.205167, 30.515341, 60.125000
13.105880, 30.285903, 60.250000
13.205167, 30.515341, 60.375000
13.205167, 30.515341, 60.500000
13.205167, 30.515341, 60.625000
13.304454, 30.744780, 60.750000
13.304454, 30.744780, 60.875000
13.304454, 30.744780, 61.000000
13.403741, 30.974219, 61.125000
13.403741, 30.974219, 61.250000
13.403741, 30.974219, 61.375000
13.503028, 31.203657, 61.500000
13.602315, 31.433096, 61.625000
13.503028, 31.203657, 61.750000
13.602315, 31.433096, 61.875000
13.602315, 31.433096, 62.000000
13.701602, 31.662535, 62.125000
13.701602, 31.662535, 62.250000
13.800889, 31.891973, 62.375000
13.701602, 31.662535, 62.500000
13.800889, 31.891973, 62.625000
13.800889, 31.891973, 62.750000
13.800889, 31.891973, 62.875000
13.900176, 32.121412, 63.000000
13.999463, 32.350851, 63.125000
13.900176, 32.121412, 63.250000
13.999463, 32.350851, 63.375000
13.999463, 32.350851, 63.500000
13.999463, 32.350851, 63.625000
14.098750, 32.580289, 63.750000
14.098750, 32.580289, 63.875000
14.098750, 32.580289, 64.000000
14.098750, 32.580289, 64.125000
14.198037, 32.809728, 64.250000
14.198037, 32.809728, 64.375000
14.198037, 32.809728, 64.500000
14.297324, 33.039167, 64.625000
14.297324, 33.039167, 64.750000
14.396611, 33.268605, 64.875000
14.297324, 33.039167, 65.000000
14.396611, 33.268605, 65.125000
14.396611, 33.268605, 65.250000
14.495898, 33.498044, 65.375000
14.495898, 33.498044, 65.500000
14.495898, 33.498044, 65.625000
14.595185, 33.727482, 65.750000
14.595185, 33.727482, 65.875000
14.694472, 33.956921, 66.000000
14.793759, 34.186360, 66.125000
14.694472, 33.956921, 66.250000
14.694472, 33.956921, 66.375000
14.694472, 33.956921, 66.500000
14.793759, 34.186360, 66.625000
14.793759, 34.186360, 66.750000
14.893046, 34.415798, 66.875000
14.893046, 34.415798, 67.000000
14.893046, 34.415798, 67.125000
14.893046, 34.415798, 67.250000
14.992333, 34.645237, 67.375000
14.992333, 34.645237, 67.500000
14.992333, 34.645237, 67.625000
15.091620, 34.874676, 67.750000
15.091620, 34.874676, 67.875000
15.190907, 35.104114, 68.000000
15.190907, 35.104114, 68.125000
15.190907, 35.104114, 68.250000
15.190907, 35.104114, 68.375000
15.290194, 35.333553, 68.500000
15.290194, 35.333553, 68.625000
15.290194, 35.333553, 68.750000
15.389481, 35.562992, 68.875000
15.389481, 35.562992, 69.000000
15.389481, 35.562992, 69.125000
15.588055, 36.021869, 69.250000
15.488768, 35.792430, 69.375000
15.488768, 35.792430, 69.500000
15.588055, 36.021869, 69.625000
15.588055, 36.021869, 69.750000
15.588055, 36.021869, 69.875000
15.687342, 36.251308, 70.000000
15.687342, 36.251308, 70.125000
15.687342, 36.251308, 70.250000
15.786629, 36.480746, 70.375000
15.786629, 36.480746, 70.500000
15.786629, 36.480746, 70.625000
15.885916, 36.710185, 70.750000
15.885916, 36.710185, 70.875000
15.885916, 36.710185, 71.000000
15.985203, 36.939624, 71.125000
15.985203, 36.939624, 71.250000
15.985203, 36.939624, 71.375000
15.985203, 36.939624, 71.500000
16.084490, 37.169062, 71.625000
16.084490, 37.169062, 71.750000
16.283064, 37.627940, 71.875000
16.183777, 37.398501, 72.000000
16.183777, 37.398501, 72.125000
16.283064, 37.627940, 72.250000
16.283064, 37.627940, 72.375000
16.283064, 37.627940, 72.500000
16.283064, 37.627940, 72.625000
16.382350, 37.857378, 72.750000
16.382350, 37.857378, 72.875000
16.481637, 38.086817, 73.000000
16.481637, 38.086817, 73.125000
16.481637, 38.086817, 73.250000
16.580924, 38.316256, 73.375000
16.580924, 38.316256, 73.500000
16.580924, 38.316256, 73.625000
16.680211, 38.545694, 73.750000
16.779498, 38.775133, 73.875000
16.680211, 38.545694, 74.000000
16.680211, 38.545694, 74.125000
16.878785, 39.004572, 74.250000
16.779498, 38.775133, 74.375000
16.878785, 39.004572, 74.500000
16.878785, 39.004572, 74.625000
16.878785, 39.004572, 74.750000
16.878785, 39.004572, 74.875000
16.978072, 39.234010, 75.000000
17.077359, 39.463449, 75.125000
17.077359, 39.463449, 75.250000
17.077359, 39.463449, 75.375000
17.077359, 39.463449, 75.500000
17.077359, 39.463449, 75.625000
17.077359, 39.463449, 75.750000
17.176646, 39.692888, 75.875000
17.275933, 39.922326, 76.000000
17.275933, 39.922326, 76.125000
17.275933, 39.922326, 76.250000
17.275933, 39.922326, 76.375000
17.375220, 40.151765, 76.500000
17.375220, 40.151765, 76.625000
17.375220, 40.151765, 76.750000
17.474507, 40.381204, 76.875000
17.474507, 40.381204, 77.000000
17.474507, 40.381204, 77.125000
17.573794, 40.610642, 77.250000
17.573794, 40.610642, 77.375000
17.573794, 40.610642, 77.500000
17.573794, 40.610642, 77.625000
17.673081, 40.840081, 77.750000
17.673081, 40.840081, 77.875000
17.772368, 41.069519, 78.000000
17.772368, 41.069519, 78.125000
17.772368, 41.069519, 78.250000
17.772368, 41.069519, 78.375000
17.970942, 41.528397, 78.500000
17.871655, 41.298958, 78.625000
17.970942, 41.528397, 78.750000
17.970942, 41.528397, 78.875000
17.970942, 41.528397, 79.000000
17.970942, 41.528397, 79.125000
18.070229, 41.757835, 79.250000
18.070229, 41.757835, 79.375000
18.070229, 41.757835, 79.500000
18.070229, 41.757835, 79.625000
18.169516, 41.987274, 79.750000
18.169516, 41.987274, 79.875000
18.169516, 41.987274, 80.000000
18.268803, 42.216713, 80.125000
18.268803, 42.216713, 80.250000
18.268803, 42.216713, 80.375000
18.368090, 42.446151, 80.500000
18.368090, 42.446151, 80.625000
18.368090, 42.446151, 80.750000
18.467377, 42.675590, 80.875000
18.467377, 42.675590, 81.000000
18.467377, 42.675590, 81.125000
18.566664, 42.905029, 81.250000
18.566664, 42.905029, 81.375000
18.566664, 42.905029, 81.500000
18.665951, 43.134467, 81.625000
18.765238, 43.363906, 81.750000
18.665951, 43.134467, 81.875000
18.665951, 43.134467, 82.000000
18.665951, 43.134467, 82.125000
18.765238, 43.363906, 82.250000
18.765238, 43.363906, 82.375000
18.765238, 43.363906, 82.500000
18.765238, 43.363906, 82.625000
18.864525, 43.593345, 82.750000
18.864525, 43.593345, 82.875000
18.864525, 43.593345, 83.000000
18.864525, 43.593345, 83.125000
18.963812, 43.822783, 83.250000
18.963812, 43.822783, 83.375000
18.963812, 43.822783, 83.500000
18.963812, 43.822783, 83.625000
19.063099, 44.052222, 83.750000
18.963812, 43.822783, 83.875000
19.063099, 44.052222, 84.000000
22.140995, 51.164820, 101.750000
22.240282, 51.394259, 101.875000
21.445986, 49.558750, 102.000000
21.545273, 49.788188, 102.125000
21.545273, 49.788188, 102.250000
22.240282, 51.394259, 102.375000
22.339569, 51.623698, 102.500000
13.528577, 34.169286, 12.375000
13.620608, 34.401730, 12.500000
13.528577, 34.169286, 12.625000
13.620608, 34.401730, 12.750000
13.528577, 34.169286, 12.875000
13.528577, 34.169286, 13.000000
13.436546, 33.936842, 13.125000
13.528577, 34.169286, 13.250000
13.528577, 34.169286, 13.375000
13.528577, 34.169286, 13.500000
13.528577, 34.169286, 13.625000
13.344515, 33.704398, 13.750000
13.344515, 33.704398, 13.875000
13.436546, 33.936842, 14.000000
13.344515, 33.704398, 14.125000
13.252484, 33.471953, 14.250000
13.252484, 33.471953, 14.375000
13.252484, 33.471953, 14.500000
13.252484, 33.471953, 14.625000
13.160453, 33.239509, 14.750000
13.160453, 33.239509, 14.875000
13.160453, 33.239509, 15.000000
13.160453, 33.239509, 15.125000
13.160453, 33.239509, 15.250000
13.160453, 33.239509, 15.375000
13.068422, 33.007065, 15.500000
13.068422, 33.007065, 15.625000
13.160453, 33.239509, 15.750000
13.068422, 33.007065, 15.875000
13.068422, 33.007065, 16.000000
13.160453, 33.239509, 16.125000
13.068422, 33.007065, 16.250000
12.976390, 32.774621, 16.375000
12.976390, 32.774621, 16.500000
12.976390, 32.774621, 16.625000
12.976390, 32.774621, 16.750000
12.976390, 32.774621, 16.875000
12.976390, 32.774621, 17.000000
12.884359, 32.542177, 17.125000
12.976390, 32.774621, 17.250000
12.884359, 32.542177, 17.375000
12.792328, 32.309733, 17.500000
12.792328, 32.309733, 17.625000
12.792328, 32.309733, 17.750000
12.792328, 32.309733, 17.875000
12.792328, 32.309733, 18.000000
12.792328, 32.309733, 18.125000
12.700297, 32.077289, 18.250000
12.700297, 32.077289, 18.375000
12.700297, 32.077289, 18.500000
12.700297, 32.077289, 18.625000
12.700297, 32.077289, 18.750000
12.700297, 32.077289, 18.875000
12.700297, 32.077289, 19.000000
12.700297, 32.077289, 19.125000
12.608266, 31.844845, 19.250000
12.700297, 32.077289, 19.375000
12.700297, 32.077289, 19.500000
12.608266, 31.844845, 19.625000
12.700297, 32.077289, 19.750000
12.608266, 31.844845, 19.875000
12.608266, 31.844845, 20.000000
12.608266, 31.844845, 20.125000
12.608266, 31.844845, 20.250000
12.516235, 31.612401, 20.375000
12.516235, 31.612401, 20.500000
12.516235, 31.612401, 20.625000
12.516235, 31.612401, 20.750000
12.516235, 31.612401, 20.875000
12.424204, 31.379956, 21.000000
12.424204, 31.379956, 21.125000
12.424204, 31.379956, 21.250000
12.424204, 31.379956, 21.375000
12.424204, 31.379956, 21.500000
12.424204, 31.379956, 21.625000
12.332173, 31.147512, 21.750000
12.424204, 31.379956, 21.875000
12.332173, 31.147512, 22.000000
12.332173, 31.147512, 22.125000
12.240141, 30.915068, 22.250000
12.240141, 30.915068, 22.375000
12.240141, 30.915068, 22.500000
12.240141, 30.915068, 22.625000
12.332173, 31.147512, 22.750000
12.240141, 30.915068, 22.875000
12.240141, 30.915068, 23.000000
12.148110, 30.682624, 23.125000
12.148110, 30.682624, 23.250000
12.148110, 30.682624, 23.375000
12.148110, 30.682624, 23.500000
12.148110, 30.682624, 23.625000
12.056079, 30.450180, 23.750000
12.056079, 30.450180, 23.875000
12.148110, 30.682624, 24.000000
12.056079, 30.450180, 24.125000
12.056079, 30.450180, 24.250000
11.964048, 30.217736, 24.375000
11.964048, 30.217736, 24.500000
11.964048, 30.217736, 24.625000
11.964048, 30.217736, 24.750000
11.964048, 30.217736, 24.875000
11.964048, 30.217736, 25.000000
11.964048, 30.217736, 25.125000
11.964048, 30.217736, 25.250000
11.872017, 29.985292, 25.375000
11.872017, 29.985292, 25.500000
11.872017, 29.985292, 25.625000
11.872017, 29.985292, 25.750000
11.872017, 29.985292, 25.875000
11.872017, 29.985292, 26.000000
11.779986, 29.752848, 26.125000
11.779986, 29.752848, 26.250000
11.779986, 29.752848, 26.375000
11.779986, 29.752848, 26.500000
11.779986, 29.752848, 26.625000
11.779986, 29.752848, 26.750000
11.779986, 29.752848, 26.875000
11.779986, 29.752848, 27.000000
11.687955, 29.520403, 27.125000
11.687955, 29.520403, 27.250000
11.687955, 29.520403, 27.375000
11.687955, 29.520403, 27.500000
11.687955, 29.520403, 27.625000
11.595923, 29.287959, 27.750000
11.595923, 29.287959, 27.875000
11.595923, 29.287959, 28.000000
11.595923, 29.287959, 28.125000
11.595923, 29.287959, 28.250000
11.595923, 29.287959, 28.375000
11.595923, 29.287959, 28.500000
11.595923, 29.287959, 28.625000
11.503892, 29.055515, 28.750000
11.503892, 29.055515, 28.875000
11.503892, 29.055515, 29.000000
11.503892, 29.055515, 29.125000
11.503892, 29.055515, 29.250000
11.503892, 29.055515, 29.375000
11.503892, 29.055515, 29.500000
11.411861, 28.823071, 29.625000
11.411861, 28.823071, 29.750000
11.411861, 28.823071, 29.875000
11.411861, 28.823071, 30.000000
11.411861, 28.823071, 30.125000
11.411861, 28.823071, 30.250000
11.319830, 28.590627, 30.375000
11.319830, 28.590627, 30.500000
11.319830, 28.590627, 30.625000
11.319830, 28.590627, 30.750000
11.319830, 28.590627, 30.875000
11.319830, 28.590627, 31.000000
11.319830, 28.590627, 31.125000
11.319830, 28.590627, 31.250000
11.227799, 28.358183, 31.375000
11.227799, 28.358183, 31.500000
11.227799, 28.358183, 31.625000
11.227799, 28.358183, 31.750000
11.227799, 28.358183, 31.875000
11.227799, 28.358183, 32.000000
11.135768, 28.125739, 32.125000
11.135768, 28.125739, 32.250000
11.135768, 28.125739, 32.375000
11.135768, 28.125739, 32.500000
11.135768, 28.125739, 32.625000
11.227799, 28.358183, 32.750000
11.135768, 28.125739, 32.875000
11.135768, 28.125739, 33.000000
11.043737, 27.893295, 33.125000
11.043737, 27.893295, 33.250000
11.043737, 27.893295, 33.375000
11.043737, 27.893295, 33.500000
11.043737, 27.893295, 33.625000
11.043737, 27.893295, 33.750000
11.043737, 27.893295, 33.875000
11.043737, 27.893295, 34.000000
10.951705, 27.660850, 34.125000
10.951705, 27.660850, 34.250000
10.951705, 27.660850, 34.375000
10.951705, 27.660850, 34.500000
11.043737, 27.893295, 34.625000
10.951705, 27.660850, 34.750000
10.951705, 27.660850, 34.875000
10.859674, 27.428406, 35.000000
10.859674, 27.428406, 35.125000
10.859674, 27.428406, 35.250000
10.859674, 27.428406, 35.375000
10.859674, 27.428406, 35.500000
10.859674, 27.428406, 35.625000
10.767643, 27.195962, 35.750000
10.767643, 27.195962, 35.875000
10.767643, 27.195962, 36.000000
10.767643, 27.195962, 36.125000
10.767643, 27.195962, 36.250000
10.767643, 27.195962, 36.375000
10.675612, 26.963518, 36.500000
10.675612, 26.963518, 36.625000
10.767643, 27.195962, 36.750000
10.675612, 26.963518, 36.875000
10.675612, 26.963518, 37.000000
10.675612, 26.963518, 37.125000
10.675612, 26.963518, 37.250000
10.583581, 26.731074, 37.375000
10.583581, 26.731074, 37.500000
10.583581, 26.731074, 37.625000
10.583581, 26.731074, 37.750000
10.583581, 26.731074, 37.875000
10.583581, 26.731074, 38.000000
10.583581, 26.731074, 38.125000
10.583581, 26.731074, 38.250000
10.583581, 26.731074, 38.375000
10.491550, 26.498630, 38.500000
10.491550, 26.498630, 38.625000
10.491550, 26.498630, 38.750000
10.583581, 26.731074, 38.875000
10.491550, 26.498630, 39.000000
10.491550, 26.498630, 39.125000
10.491550, 26.498630, 39.250000
10.399519, 26.266186, 39.375000
10.399519, 26.266186, 39.500000
10.399519, 26.266186, 39.625000
10.399519, 26.266186, 39.750000
10.399519, 26.266186, 39.875000
10.399519, 26.266186, 40.000000
10.399519, 26.266186, 40.125000
10.491550, 26.498630, 40.250000
10.399519, 26.266186, 40.375000
10.307487, 26.033742, 40.500000
10.307487, 26.033742, 40.625000
10.307487, 26.033742, 40.750000
10.307487, 26.033742, 40.875000
10.307487, 26.033742, 41.000000
10.215456, 25.801297, 41.125000
10.215456, 25.801297, 41.250000
10.215456, 25.801297, 41.375000
10.215456, 25.801297, 41.500000
10.215456, 25.801297, 41.625000
10.215456, 25.801297, 41.750000
10.215456, 25.801297, 41.875000
10.123425, 25.568853, 42.000000
10.215456, 25.801297, 42.125000
10.215456, 25.801297, 42.250000
10.123425, 25.568853, 42.375000
10.123425, 25.568853, 42.500000
10.123425, 25.568853, 42.625000
10.123425, 25.568853, 42.750000
10.123425, 25.568853, 42.875000
10.123425, 25.568853, 43.000000
10.031394, 25.336409, 43.125000
10.031394, 25.336409, 43.250000
10.031394, 25.336409, 43.375000
10.031394, 25.336409, 43.500000
10.031394, 25.336409, 43.625000
9.939363, 25.103965, 43.750000
9.939363, 25.103965, 43.875000
9.939363, 25.103965, 44.000000
9.939363, 25.103965, 44.125000
9.939363, 25.103965, 44.250000
9.939363, 25.103965, 44.375000
9.939363, 25.103965, 44.500000
9.939363, 25.103965, 44.625000
9.939363, 25.103965, 44.750000
9.939363, 25.103965, 44.875000
9.847332, 24.871521, 45.000000
9.847332, 24.871521, 45.125000
9.847332, 24.871521, 45.250000
9.847332, 24.871521, 45.375000
9.847332, 24.871521, 45.500000
9.847332, 24.871521, 45.625000
9.755301, 24.639077, 45.750000
9.755301, 24.639077, 45.875000
9.755301, 24.639077, 46.000000
9.755301, 24.639077, 46.125000
9.755301, 24.639077, 46.250000
9.755301, 24.639077, 46.375000
9.755301, 24.639077, 46.500000
9.755301, 24.639077, 46.625000
9.755301, 24.639077, 46.750000
9.755301, 24.639077, 46.875000
9.663270, 24.406633, 47.000000
9.663270, 24.406633, 47.125000
9.663270, 24.406633, 47.250000
9.663270, 24.406633, 47.375000
9.663270, 24.406633, 47.500000
9.663270, 24.406633, 47.625000
9.663270, 24.406633, 47.750000
9.571238, 24.174189, 47.875000
9.571238, 24.174189, 48.000000
9.663270, 24.406633, 48.125000
9.571238, 24.174189, 48.250000
9.571238, 24.174189, 48.375000
9.571238, 24.174189, 48.500000
9.571238, 24.174189, 48.625000
9.571238, 24.174189, 48.750000
9.571238, 24.174189, 48.875000
9.571238, 24.174189, 49.000000
9.571238, 24.174189, 49.125000
9.663270, 24.406633, 49.250000
9.663270, 24.406633, 49.375000
9.755301, 24.639077, 49.500000
9.755301, 24.639077, 49.625000
9.755301, 24.639077, 49.750000
9.755301, 24.639077, 49.875000
9.847332, 24.871521, 50.000000
9.847332, 24.871521, 50.125000
9.939363, 25.103965, 50.250000
9.847332, 24.871521, 50.375000
9.847332, 24.871521, 50.500000
9.939363, 25.103965, 50.625000
9.939363, 25.103965, 50.750000
10.031394, 25.336409, 50.875000
10.031394, 25.336409, 51.000000
10.031394, 25.336409, 51.125000
10.031394, 25.336409, 51.250000
10.031394, 25.336409, 51.375000
10.123425, 25.568853, 51.500000
10.123425, 25.568853, 51.625000
10.215456, 25.801297, 51.750000
10.307487, 26.033742, 51.875000
10.215456, 25.801297, 52.000000
10.307487, 26.033742, 52.125000
10.307487, 26.033742, 52.250000
10.307487, 26.033742, 52.375000
10.399519, 26.266186, 52.500000
10.399519, 26.266186, 52.625000
10.399519, 26.266186, 52.750000
10.491550, 26.498630, 52.875000
10.491550, 26.498630, 53.000000
10.491550, 26.498630, 53.125000
10.583581, 26.731074, 53.250000
10.583581, 26.731074, 53.375000
10.583581, 26.731074, 53.500000
10.675612, 26.963518, 53.625000
10.675612, 26.963518, 53.750000
10.675612, 26.963518, 53.875000
10.675612, 26.963518, 54.000000
10.767643, 27.195962, 54.125000
10.767643, 27.195962, 54.250000
10.767643, 27.195962, 54.375000
10.951705, 27.660850, 54.500000
10.859674, 27.428406, 54.625000
10.859674, 27.428406, 54.750000
10.951705, 27.660850, 54.875000
10.951705, 27.660850, 55.000000
10.951705, 27.660850, 55.125000
11.043737, 27.893295, 55.250000
11.043737, 27.893295, 55.375000
11.043737, 27.893295, 55.500000
11.227799, 28.358183, 55.625000
11.135768, 28.125739, 55.750000
11.227799, 28.358183, 55.875000
11.227799, 28.358183, 56.000000
11.227799, 28.358183, 56.125000
11.227799, 28.358183, 56.250000
11.319830, 28.590627, 56.375000
11.319830, 28.590627, 56.500000
11.411861, 28.823071, 56.625000
11.411861, 28.823071, 56.750000
11.503892, 29.055515, 56.875000
11.503892, 29.055515, 57.000000
11.503892, 29.055515, 57.125000
11.503892, 29.055515, 57.250000
11.503892, 29.055515, 57.375000
11.595923, 29.287959, 57.500000
11.595923, 29.287959, 57.625000
11.687955, 29.520403, 57.750000
11.687955, 29.520403, 57.875000
11.687955, 29.520403, 58.000000
11.687955, 29.520403, 58.125000
11.687955, 29.520403, 58.250000
11.779986, 29.752848, 58.375000
11.779986, 29.752848, 58.500000
11.779986, 29.752848, 58.625000
11.872017, 29.985292, 58.750000
11.964048, 30.217736, 58.875000
11.872017, 29.985292, 59.000000
11.964048, 30.217736, 59.125000
12.056079, 30.450180, 59.250000
11.964048, 30.217736, 59.375000
12.056079, 30.450180, 59.500000
12.056079, 30.450180, 59.625000
12.056079, 30.450180, 59.750000
12.148110, 30.682624, 59.875000
12.148110, 30.682624, 60.000000
12.148110, 30.682624, 60.125000
12.240141, 30.915068, 60.250000
12.240141, 30.915068, 60.375000
12.240141, 30.915068, 60.500000
12.332173, 31.147512, 60.625000
12.332173, 31.147512, 60.750000
12.424204, 31.379956, 60.875000
12.424204, 31.379956, 61.000000
12.516235, 31.612401, 61.125000
12.516235, 31.612401, 61.250000
12.516235, 31.612401, 61.375000
12.516235, 31.612401, 61.500000
12.516235, 31.612401, 61.625000
12.608266, 31.844845, 61.750000
12.608266, 31.844845, 61.875000
12.608266, 31.844845, 62.000000
12.700297, 32.077289, 62.125000
12.700297, 32.077289, 62.250000
12.792328, 32.309733, 62.375000
12.792328, 32.309733, 62.500000
12.884359, 32.542177, 62.625000
12.792328, 32.309733, 62.750000
12.884359, 32.542177, 62.875000
12.976390, 32.774621, 63.000000
12.884359, 32.542177, 63.125000
12.884359, 32.542177, 63.250000
12.976390, 32.774621, 63.375000
12.976390, 32.774621, 63.500000
13.068422, 33.007065, 63.625000
13.068422, 33.007065, 63.750000
13.068422, 33.007065, 63.875000
13.160453, 33.239509, 64.000000
13.160453, 33.239509, 64.125000
13.160453, 33.239509, 64.250000
13.252484, 33.471953, 64.375000
13.252484, 33.471953, 64.500000
13.252484, 33.471953, 64.625000
13.344515, 33.704398, 64.750000
13.344515, 33.704398, 64.875000
13.344515, 33.704398, 65.000000
13.344515, 33.704398, 65.125000
13.436546, 33.936842, 65.250000
13.436546, 33.936842, 65.375000
13.436546, 33.936842, 65.500000
13.528577, 34.169286, 65.625000
13.528577, 34.169286, 65.750000
13.528577, 34.169286, 65.875000
13.620608, 34.401730, 66.000000
13.620608, 34.401730, 66.125000
13.620608, 34.401730, 66.250000
13.712640, 34.634174, 66.375000
13.712640, 34.634174, 66.500000
13.712640, 34.634174, 66.625000
13.712640, 34.634174, 66.750000
13.804671, 34.866618, 66.875000
13.804671, 34.866618, 67.000000
13.804671, 34.866618, 67.125000
13.896702, 35.099062, 67.250000
13.896702, 35.099062, 67.375000
13.896702, 35.099062, 67.500000
13.988733, 35.331506, 67.625000
13.988733, 35.331506, 67.750000
13.988733, 35.331506, 67.875000
14.080764, 35.563951, 68.000000
14.080764, 35.563951, 68.125000
14.080764, 35.563951, 68.250000
14.172795, 35.796395, 68.375000
14.172795, 35.796395, 68.500000
14.172795, 35.796395, 68.625000
14.264826, 36.028839, 68.750000
14.264826, 36.028839, 68.875000
14.264826, 36.028839, 69.000000
14.356858, 36.261283, 69.125000
14.356858, 36.261283, 69.250000
14.356858, 36.261283, 69.375000
14.356858, 36.261283, 69.500000
14.448889, 36.493727, 69.625000
14.448889, 36.493727, 69.750000
14.540920, 36.726171, 69.875000
14.540920, 36.726171, 70.000000
14.540920, 36.726171, 70.125000
14.540920, 36.726171, 70.250000
14.632951, 36.958615, 70.375000
14.632951, 36.958615, 70.500000
14.724982, 37.191059, 70.625000
14.724982, 37.191059, 70.750000
14.724982, 37.191059, 70.875000
14.724982, 37.191059, 71.000000
14.817013, 37.423504, 71.125000
14.817013, 37.423504, 71.250000
14.817013, 37.423504, 71.375000
14.909044, 37.655948, 71.500000
14.909044, 37.655948, 71.625000
14.909044, 37.655948, 71.750000
15.001076, 37.888392, 71.875000
15.001076, 37.888392, 72.000000
15.093107, 38.120836, 72.125000
15.093107, 38.120836, 72.250000
15.093107, 38.120836, 72.375000
15.093107, 38.120836, 72.500000
15.277169, 38.585724, 72.625000
15.185138, 38.353280, 72.750000
15.185138, 38.353280, 72.875000
15.277169, 38.585724, 73.000000
15.277169, 38.585724, 73.125000
15.369200, 38.818168, 73.250000
15.461231, 39.050612, 73.375000
15.369200, 38.818168, 73.500000
15.369200, 38.818168, 73.625000
15.461231, 39.050612, 73.750000
15.461231, 39.050612, 73.875000
15.461231, 39.050612, 74.000000
15.553262, 39.283057, 74.125000
15.645293, 39.515501, 74.250000
15.645293, 39.515501, 74.375000
15.645293, 39.515501, 74.500000
15.645293, 39.515501, 74.625000
15.645293, 39.515501, 74.750000
15.737325, 39.747945, 74.875000
15.737325, 39.747945, 75.000000
15.737325, 39.747945, 75.125000
15.829356, 39.980389, 75.250000
15.829356, 39.980389, 75.375000
15.829356, 39.980389, 75.500000
15.921387, 40.212833, 75.625000
15.921387, 40.212833, 75.750000
15.921387, 40.212833, 75.875000
16.013418, 40.445277, 76.000000
16.013418, 40.445277, 76.125000
16.013418, 40.445277, 76.250000
16.013418, 40.445277, 76.375000
16.105449, 40.677721, 76.500000
16.105449, 40.677721, 76.625000
16.105449, 40.677721, 76.750000
16.105449, 40.677721, 76.875000
16.197480, 40.910165, 77.000000
16.197480, 40.910165, 77.125000
16.289511, 41.142610, 77.250000
16.289511, 41.142610, 77.375000
16.289511, 41.142610, 77.500000
16.381543, 41.375054, 77.625000
16.381543, 41.375054, 77.750000
16.381543, 41.375054, 77.875000
16.381543, 41.375054, 78.000000
16.473574, 41.607498, 78.125000
16.473574, 41.607498, 78.250000
16.473574, 41.607498, 78.375000
16.565605, 41.839942, 78.500000
16.565605, 41.839942, 78.625000
16.657636, 42.072386, 78.750000
16.657636, 42.072386, 78.875000
16.657636, 42.072386, 79.000000
16.657636, 42.072386, 79.125000
16.749667, 42.304830, 79.250000
16.749667, 42.304830, 79.375000
16.749667, 42.304830, 79.500000
16.841698, 42.537274, 79.625000
16.841698, 42.537274, 79.750000
16.841698, 42.537274, 79.875000
16.933729, 42.769718, 80.000000
16.933729, 42.769718, 80.125000
16.933729, 42.769718, 80.250000
17.025761, 43.002162, 80.375000
17.025761, 43.002162, 80.500000
17.025761, 43.002162, 80.625000
17.025761, 43.002162, 80.750000
17.117792, 43.234607, 80.875000
17.117792, 43.234607, 81.000000
17.117792, 43.234607, 81.125000
17.209823, 43.467051, 81.250000
17.209823, 43.467051, 81.375000
17.209823, 43.467051, 81.500000
17.209823, 43.467051, 81.625000
17.301854, 43.699495, 81.750000
17.301854, 43.699495, 81.875000
17.301854, 43.699495, 82.000000
17.393885, 43.931939, 82.125000
17.393885, 43.931939, 82.250000
17.485916, 44.164383, 82.375000
17.485916, 44.164383, 82.500000
17.485916, 44.164383, 82.625000
17.577947, 44.396827, 82.750000
17.485916, 44.164383, 82.875000
17.485916, 44.164383, 83.000000
17.485916, 44.164383, 83.125000
17.577947, 44.396827, 83.250000
17.577947, 44.396827, 83.375000
17.577947, 44.396827, 83.500000
17.669979, 44.629271, 83.625000
17.669979, 44.629271, 83.750000
17.669979, 44.629271, 83.875000
17.762010, 44.861715, 84.000000
20.522944, 51.835039, 101.750000
20.522944, 51.835039, 101.875000
19.878726, 50.207930, 102.000000
19.970757, 50.440374, 102.125000
20.614975, 52.067483, 102.250000
20.614975, 52.067483, 102.375000
12.617988, 35.047809, 12.500000
12.617988, 35.047809, 12.625000
12.533303, 34.812588, 12.750000
12.617988, 35.047809, 12.875000
12.617988, 35.047809, 13.000000
12.533303, 34.812588, 13.125000
12.533303, 34.812588, 13.250000
12.533303, 34.812588, 13.375000
12.448619, 34.577368, 13.500000
12.533303, 34.812588, 13.625000
12.533303, 34.812588, 13.750000
12.448619, 34.577368, 13.875000
12.448619, 34.577368, 14.000000
12.363934, 34.342148, 14.125000
12.363934, 34.342148, 14.250000
12.363934, 34.342148, 14.375000
12.279250, 34.106928, 14.500000
12.279250, 34.106928, 14.625000
12.279250, 34.106928, 14.750000
12.279250, 34.106928, 14.875000
12.194565, 33.871708, 15.000000
12.194565, 33.871708, 15.125000
12.194565, 33.871708, 15.250000
12.194565, 33.871708, 15.375000
12.109881, 33.636487, 15.500000
12.194565, 33.871708, 15.625000
12.109881, 33.636487, 15.750000
12.109881, 33.636487, 15.875000
12.109881, 33.636487, 16.000000
12.109881, 33.636487, 16.125000
12.109881, 33.636487, 16.250000
12.109881, 33.636487, 16.375000
12.025196, 33.401267, 16.500000
12.025196, 33.401267, 16.625000
12.025196, 33.401267, 16.750000
12.025196, 33.401267, 16.875000
12.025196, 33.401267, 17.000000
12.025196, 33.401267, 17.125000
11.940512, 33.166047, 17.250000
11.940512, 33.166047, 17.375000
11.940512, 33.166047, 17.500000
11.940512, 33.166047, 17.625000
11.855827, 32.930827, 17.750000
11.940512, 33.166047, 17.875000
11.940512, 33.166047, 18.000000
11.940512, 33.166047, 18.125000
11.855827, 32.930827, 18.250000
11.771143, 32.695607, 18.375000
11.940512, 33.166047, 18.500000
11.771143, 32.695607, 18.625000
11.771143, 32.695607, 18.750000
11.771143, 32.695607, 18.875000
11.771143, 32.695607, 19.000000
11.771143, 32.695607, 19.125000
11.771143, 32.695607, 19.250000
11.771143, 32.695607, 19.375000
11.771143, 32.695607, 19.500000
11.771143, 32.695607, 19.625000
11.771143, 32.695607, 19.750000
11.686458, 32.460387, 19.875000
11.686458, 32.460387, 20.000000
11.686458, 32.460387, 20.125000
11.686458, 32.460387, 20.250000
11.686458, 32.460387, 20.375000
11.686458, 32.460387, 20.500000
11.601774, 32.225166, 20.625000
11.601774, 32.225166, 20.750000
11.601774, 32.225166, 20.875000
11.517089, 31.989946, 21.000000
11.517089, 31.989946, 21.125000
11.517089, 31.989946, 21.250000
11.517089, 31.989946, 21.375000
11.517089, 31.989946, 21.500000
11.517089, 31.989946, 21.625000
11.432405, 31.754726, 21.750000
11.432405, 31.754726, 21.875000
11.432405, 31.754726, 22.000000
11.517089, 31.989946, 22.125000
11.517089, 31.989946, 22.250000
11.432405, 31.754726, 22.375000
11.432405, 31.754726, 22.500000
11.347720, 31.519506, 22.625000
11.347720, 31.519506, 22.750000
11.432405, 31.754726, 22.875000
11.347720, 31.519506, 23.000000
11.432405, 31.754726, 23.125000
11.263036, 31.284286, 23.250000
11.263036, 31.284286, 23.375000
11.263036, 31.284286, 23.500000
11.347720, 31.519506, 23.625000
11.263036, 31.284286, 23.750000
11.178351, 31.049065, 23.875000
11.263036, 31.284286, 24.000000
11.178351, 31.049065, 24.125000
11.178351, 31.049065, 24.250000
11.178351, 31.049065, 24.375000
11.178351, 31.049065, 24.500000
11.178351, 31.049065, 24.625000
11.093667, 30.813845, 24.750000
11.093667, 30.813845, 24.875000
11.093667, 30.813845, 25.000000
11.093667, 30.813845, 25.125000
11.093667, 30.813845, 25.250000
11.008982, 30.578625, 25.375000
11.008982, 30.578625, 25.500000
11.008982, 30.578625, 25.625000
11.008982, 30.578625, 25.750000
11.008982, 30.578625, 25.875000
11.008982, 30.578625, 26.000000
11.008982, 30.578625, 26.125000
10.924298, 30.343405, 26.250000
10.924298, 30.343405, 26.375000
10.924298, 30.343405, 26.500000
10.924298, 30.343405, 26.625000
10.924298, 30.343405, 26.750000
10.924298, 30.343405, 26.875000
10.924298, 30.343405, 27.000000
10.924298, 30.343405, 27.125000
10.924298, 30.343405, 27.250000
10.924298, 30.343405, 27.375000
10.839613, 30.108185, 27.500000
10.924298, 30.343405, 27.625000
10.839613, 30.108185, 27.750000
10.754929, 29.872964, 27.875000
10.754929, 29.872964, 28.000000
10.754929, 29.872964, 28.125000
10.754929, 29.872964, 28.250000
10.754929, 29.872964, 28.375000
10.754929, 29.872964, 28.500000
10.754929, 29.872964, 28.625000
10.754929, 29.872964, 28.750000
10.670244, 29.637744, 28.875000
10.670244, 29.637744, 29.000000
10.670244, 29.637744, 29.125000
10.670244, 29.637744, 29.250000
10.670244, 29.637744, 29.375000
10.670244, 29.637744, 29.500000
10.670244, 29.637744, 29.625000
10.585560, 29.402524, 29.750000
10.585560, 29.402524, 29.875000
10.585560, 29.402524, 30.000000
10.585560, 29.402524, 30.125000
10.585560, 29.402524, 30.250000
10.670244, 29.637744, 30.375000
10.500876, 29.167304, 30.500000
10.500876, 29.167304, 30.625000
10.500876, 29.167304, 30.750000
10.500876, 29.167304, 30.875000
10.500876, 29.167304, 31.000000
10.416191, 28.932084, 31.125000
10.416191, 28.932084, 31.250000
10.416191, 28.932084, 31.375000
10.416191, 28.932084, 31.500000
10.416191, 28.932084, 31.625000
10.416191, 28.932084, 31.750000
10.416191, 28.932084, 31.875000
10.416191, 28.932084, 32.000000
10.416191, 28.932084, 32.125000
10.416191, 28.932084, 32.250000
10.331507, 28.696863, 32.375000
10.331507, 28.696863, 32.500000
10.331507, 28.696863, 32.625000
10.331507, 28.696863, 32.750000
10.331507, 28.696863, 32.875000
10.246822, 28.461643, 33.000000
10.246822, 28.461643, 33.125000
10.246822, 28.461643, 33.250000
10.246822, 28.461643, 33.375000
10.246822, 28.461643, 33.500000
10.246822, 28.461643, 33.625000
10.246822, 28.461643, 33.750000
10.246822, 28.461643, 33.875000
10.246822, 28.461643, 34.000000
10.162138, 28.226423, 34.125000
10.162138, 28.226423, 34.250000
10.162138, 28.226423, 34.375000
10.162138, 28.226423, 34.500000
10.162138, 28.226423, 34.625000
10.162138, 28.226423, 34.750000
10.162138, 28.226423, 34.875000
10.077453, 27.991203, 35.000000
10.077453, 27.991203, 35.125000
10.077453, 27.991203, 35.250000
10.077453, 27.991203, 35.375000
10.077453, 27.991203, 35.500000
10.077453, 27.991203, 35.625000
10.077453, 27.991203, 35.750000
9.992769, 27.755983, 35.875000
9.992769, 27.755983, 36.000000
9.992769, 27.755983, 36.125000
9.992769, 27.755983, 36.250000
10.077453, 27.991203, 36.375000
9.908084, 27.520762, 36.500000
9.908084, 27.520762, 36.625000
9.908084, 27.520762, 36.750000
9.908084, 27.520762, 36.875000
9.908084, 27.520762, 37.000000
9.992769, 27.755983, 37.125000
9.908084, 27.520762, 37.250000
9.908084, 27.520762, 37.375000
9.823400, 27.285542, 37.500000
9.823400, 27.285542, 37.625000
9.908084, 27.520762, 37.750000
9.823400, 27.285542, 37.875000
9.823400, 27.285542, 38.000000
9.823400, 27.285542, 38.125000
9.738715, 27.050322, 38.250000
9.738715, 27.050322, 38.375000
9.738715, 27.050322, 38.500000
9.738715, 27.050322, 38.625000
9.823400, 27.285542, 38.750000
9.738715, 27.050322, 38.875000
9.738715, 27.050322, 39.000000
9.738715, 27.050322, 39.125000
9.654031, 26.815102, 39.250000
9.654031, 26.815102, 39.375000
9.654031, 26.815102, 39.500000
9.654031, 26.815102, 39.625000
9.654031, 26.815102, 39.750000
9.654031, 26.815102, 39.875000
9.654031, 26.815102, 40.000000
9.654031, 26.815102, 40.125000
9.569346, 26.579882, 40.250000
9.569346, 26.579882, 40.375000
9.569346, 26.579882, 40.500000
9.569346, 26.579882, 40.625000
9.569346, 26.579882, 40.750000
9.484662, 26.344662, 40.875000
9.484662, 26.344662, 41.000000
9.484662, 26.344662, 41.125000
9.484662, 26.344662, 41.250000
9.484662, 26.344662, 41.375000
9.484662, 26.344662, 41.500000
9.399977, 26.109441, 41.625000
9.399977, 26.109441, 41.750000
9.399977, 26.109441, 41.875000
9.399977, 26.109441, 42.000000
9.399977, 26.109441, 42.125000
9.399977, 26.109441, 42.250000
9.399977, 26.109441, 42.375000
9.399977, 26.109441, 42.500000
9.399977, 26.109441, 42.625000
9.315293, 25.874221, 42.750000
9.399977, 26.109441, 42.875000
9.315293, 25.874221, 43.000000
9.315293, 25.874221, 43.125000
9.315293, 25.874221, 43.250000
9.315293, 25.874221, 43.375000
9.315293, 25.874221, 43.500000
9.315293, 25.874221, 43.625000
9.230608, 25.639001, 43.750000
9.315293, 25.874221, 43.875000
9.230608, 25.639001, 44.000000
9.230608, 25.639001, 44.125000
9.230608, 25.639001, 44.250000
9.230608, 25.639001, 44.375000
9.230608, 25.639001, 44.500000
9.230608, 25.639001, 44.625000
9.145924, 25.403781, 44.750000
9.145924, 25.403781, 44.875000
9.145924, 25.403781, 45.000000
9.145924, 25.403781, 45.125000
9.145924, 25.403781, 45.250000
9.145924, 25.403781, 45.375000
9.145924, 25.403781, 45.500000
9.061239, 25.168561, 45.625000
9.061239, 25.168561, 45.750000
9.061239, 25.168561, 45.875000
9.061239, 25.168561, 46.000000
9.061239, 25.168561, 46.125000
9.061239, 25.168561, 46.250000
9.061239, 25.168561, 46.375000
9.061239, 25.168561, 46.500000
9.061239, 25.168561, 46.625000
9.061239, 25.168561, 46.750000
8.976555, 24.933340, 46.875000
8.976555, 24.933340, 47.000000
8.976555, 24.933340, 47.125000
8.976555, 24.933340, 47.250000
8.976555, 24.933340, 47.375000
8.891870, 24.698120, 47.500000
8.891870, 24.698120, 47.625000
8.891870, 24.698120, 47.750000
8.976555, 24.933340, 47.875000
8.891870, 24.698120, 48.000000
8.891870, 24.698120, 48.125000
8.891870, 24.698120, 48.250000
8.891870, 24.698120, 48.375000
8.891870, 24.698120, 48.500000
8.891870, 24.698120, 48.625000
8.976555, 24.933340, 48.750000
8.891870, 24.698120, 48.875000
8.891870, 24.698120, 49.000000
8.891870, 24.698120, 49.125000
8.891870, 24.698120, 49.250000
8.976555, 24.933340, 49.375000
8.976555, 24.933340, 49.500000
8.976555, 24.933340, 49.625000
9.061239, 25.168561, 49.750000
9.061239, 25.168561, 49.875000
9.061239, 25.168561, 50.000000
9.061239, 25.168561, 50.125000
9.145924, 25.403781, 50.250000
9.145924, 25.403781, 50.375000
9.145924, 25.403781, 50.500000
9.145924, 25.403781, 50.625000
9.230608, 25.639001, 50.750000
9.230608, 25.639001, 50.875000
9.230608, 25.639001, 51.000000
9.315293, 25.874221, 51.125000
9.315293, 25.874221, 51.250000
9.399977, 26.109441, 51.375000
9.399977, 26.109441, 51.500000
9.399977, 26.109441, 51.625000
9.399977, 26.109441, 51.750000
9.484662, 26.344662, 51.875000
9.484662, 26.344662, 52.000000
9.484662, 26.344662, 52.125000
9.484662, 26.344662, 52.250000
9.569346, 26.579882, 52.375000
9.569346, 26.579882, 52.500000
9.569346, 26.579882, 52.625000
9.654031, 26.815102, 52.750000
9.654031, 26.815102, 52.875000
9.654031, 26.815102, 53.000000
9.738715, 27.050322, 53.125000
9.738715, 27.050322, 53.250000
9.738715, 27.050322, 53.375000
9.823400, 27.285542, 53.500000
9.823400, 27.285542, 53.625000
9.823400, 27.285542, 53.750000
9.908084, 27.520762, 53.875000
9.908084, 27.520762, 54.000000
9.908084, 27.520762, 54.125000
9.992769, 27.755983, 54.250000
9.992769, 27.755983, 54.375000
9.992769, 27.755983, 54.500000
10.077453, 27.991203, 54.625000
10.077453, 27.991203, 54.750000
10.077453, 27.991203, 54.875000
10.162138, 28.226423, 55.000000
10.162138, 28.226423, 55.125000
10.162138, 28.226423, 55.250000
10.162138, 28.226423, 55.375000
10.246822, 28.461643, 55.500000
10.331507, 28.696863, 55.625000
10.331507, 28.696863, 55.750000
10.331507, 28.696863, 55.875000
10.331507, 28.696863, 56.000000
10.416191, 28.932084, 56.125000
10.416191, 28.932084, 56.250000
10.500876, 29.167304, 56.375000
10.500876, 29.167304, 56.500000
10.500876, 29.167304, 56.625000
10.500876, 29.167304, 56.750000
10.500876, 29.167304, 56.875000
10.585560, 29.402524, 57.000000
10.670244, 29.637744, 57.125000
10.670244, 29.637744, 57.250000
10.670244, 29.637744, 57.375000
10.670244, 29.637744, 57.500000
10.754929, 29.872964, 57.625000
10.754929, 29.872964, 57.750000
10.839613, 30.108185, 57.875000
10.839613, 30.108185, 58.000000
10.839613, 30.108185, 58.125000
10.924298, 30.343405, 58.250000
10.924298, 30.343405, 58.375000
10.924298, 30.343405, 58.500000
10.924298, 30.343405, 58.625000
11.008982, 30.578625, 58.750000
11.008982, 30.578625, 58.875000
11.008982, 30.578625, 59.000000
11.093667, 30.813845, 59.125000
11.008982, 30.578625, 59.250000
11.093667, 30.813845, 59.375000
11.093667, 30.813845, 59.500000
11.093667, 30.813845, 59.625000
11.178351, 31.049065, 59.750000
11.178351, 31.049065, 59.875000
11.178351, 31.049065, 60.000000
11.263036, 31.284286, 60.125000
11.263036, 31.284286, 60.250000
11.263036, 31.284286, 60.375000
11.347720, 31.519506, 60.500000
11.347720, 31.519506, 60.625000
11.347720, 31.519506, 60.750000
11.432405, 31.754726, 60.875000
11.517089, 31.989946, 61.000000
11.517089, 31.989946, 61.125000
11.517089, 31.989946, 61.250000
11.601774, 32.225166, 61.375000
11.517089, 31.989946, 61.500000
11.601774, 32.225166, 61.625000
11.601774, 32.225166, 61.750000
11.686458, 32.460387, 61.875000
11.686458, 32.460387, 62.000000
11.686458, 32.460387, 62.125000
11.686458, 32.460387, 62.250000
11.771143, 32.695607, 62.375000
11.771143, 32.695607, 62.500000
11.855827, 32.930827, 62.625000
11.855827, 32.930827, 62.750000
11.855827, 32.930827, 62.875000
11.855827, 32.930827, 63.000000
11.940512, 33.166047, 63.125000
11.940512, 33.166047, 63.250000
12.025196, 33.401267, 63.375000
12.025196, 33.401267, 63.500000
12.025196, 33.401267, 63.625000
12.109881, 33.636487, 63.750000
12.109881, 33.636487, 63.875000
12.109881, 33.636487, 64.000000
12.194565, 33.871708, 64.125000
12.109881, 33.636487, 64.250000
12.194565, 33.871708, 64.375000
12.194565, 33.871708, 64.500000
12.194565, 33.871708, 64.625000
12.279250, 34.106928, 64.750000
12.279250, 34.106928, 64.875000
12.279250, 34.106928, 65.000000
12.279250, 34.106928, 65.125000
12.363934, 34.342148, 65.250000
12.363934, 34.342148, 65.375000
12.363934, 34.342148, 65.500000
12.448619, 34.577368, 65.625000
12.448619, 34.577368, 65.750000
12.533303, 34.812588, 65.875000
12.533303, 34.812588, 66.000000
12.533303, 34.812588, 66.125000
12.533303, 34.812588, 66.250000
12.617988, 35.047809, 66.375000
12.617988, 35.047809, 66.500000
12.617988, 35.047809, 66.625000
12.702672, 35.283029, 66.750000
12.702672, 35.283029, 66.875000
12.702672, 35.283029, 67.000000
12.702672, 35.283029, 67.125000
12.787356, 35.518249, 67.250000
12.787356, 35.518249, 67.375000
12.872041, 35.753469, 67.500000
12.872041, 35.753469, 67.625000
12.872041, 35.753469, 67.750000
12.872041, 35.753469, 67.875000
12.956725, 35.988689, 68.000000
12.956725, 35.988689, 68.125000
13.041410, 36.223910, 68.250000
13.041410, 36.223910, 68.375000
13.041410, 36.223910, 68.500000
13.041410, 36.223910, 68.625000
13.210779, 36.694350, 68.750000
13.126094, 36.459130, 68.875000
13.126094, 36.459130, 69.000000
13.295463, 36.929570, 69.125000
13.210779, 36.694350, 69.250000
13.210779, 36.694350, 69.375000
13.210779, 36.694350, 69.500000
13.380148, 37.164790, 69.625000
13.380148, 37.164790, 69.750000
13.380148, 37.164790, 69.875000
13.380148, 37.164790, 70.000000
13.380148, 37.164790, 70.125000
13.549517, 37.635231, 70.250000
13.464832, 37.400011, 70.375000
13.464832, 37.400011, 70.500000
13.634201, 37.870451, 70.625000
13.549517, 37.635231, 70.750000
13.634201, 37.870451, 70.875000
13.634201, 37.870451, 71.000000
13.634201, 37.870451, 71.125000
13.634201, 37.870451, 71.250000
13.803570, 38.340891, 71.375000
13.718886, 38.105671, 71.500000
13.803570, 38.340891, 71.625000
13.803570, 38.340891, 71.750000
13.803570, 38.340891, 71.875000
13.888255, 38.576112, 72.000000
13.888255, 38.576112, 72.125000
13.888255, 38.576112, 72.250000
13.888255, 38.576112, 72.375000
13.972939, 38.811332, 72.500000
14.057624, 39.046552, 72.625000
14.057624, 39.046552, 72.750000
14.057624, 39.046552, 72.875000
14.057624, 39.046552, 73.000000
14.057624, 39.046552, 73.125000
14.142308, 39.281772, 73.250000
14.142308, 39.281772, 73.375000
14.142308, 39.281772, 73.500000
14.226993, 39.516992, 73.625000
14.311677, 39.752212, 73.750000
14.311677, 39.752212, 73.875000
14.311677, 39.752212, 74.000000
14.311677, 39.752212, 74.125000
14.311677, 39.752212, 74.250000
14.396362, 39.987433, 74.375000
14.396362, 39.987433, 74.500000
14.481046, 40.222653, 74.625000
14.396362, 39.987433, 74.750000
14.481046, 40.222653, 74.875000
14.481046, 40.222653, 75.000000
14.565731, 40.457873, 75.125000
14.565731, 40.457873, 75.250000
14.565731, 40.457873, 75.375000
14.650415, 40.693093, 75.500000
14.650415, 40.693093, 75.625000
14.650415, 40.693093, 75.750000
14.650415, 40.693093, 75.875000
14.735100, 40.928313, 76.000000
14.735100, 40.928313, 76.125000
14.735100, 40.928313, 76.250000
14.735100, 40.928313, 76.375000
14.819784, 41.163534, 76.500000
14.819784, 41.163534, 76.625000
14.904468, 41.398754, 76.750000
14.989153, 41.633974, 76.875000
14.904468, 41.398754, 77.000000
15.073837, 41.869194, 77.125000
14.989153, 41.633974, 77.250000
14.989153, 41.633974, 77.375000
15.073837, 41.869194, 77.500000
15.158522, 42.104414, 77.625000
15.073837, 41.869194, 77.750000
15.073837, 41.869194, 77.875000
15.158522, 42.104414, 78.000000
15.158522, 42.104414, 78.125000
15.158522, 42.104414, 78.250000
15.243206, 42.339635, 78.375000
15.327891, 42.574855, 78.500000
15.243206, 42.339635, 78.625000
15.327891, 42.574855, 78.750000
15.327891, 42.574855, 78.875000
15.327891, 42.574855, 79.000000
15.327891, 42.574855, 79.125000
15.412575, 42.810075, 79.250000
15.412575, 42.810075, 79.375000
15.412575, 42.810075, 79.500000
15.497260, 43.045295, 79.625000
15.581944, 43.280515, 79.750000
15.581944, 43.280515, 79.875000
15.581944, 43.280515, 80.000000
15.581944, 43.280515, 80.125000
15.666629, 43.515736, 80.250000
15.666629, 43.515736, 80.375000
15.666629, 43.515736, 80.500000
15.751313, 43.750956, 80.625000
15.751313, 43.750956, 80.750000
15.751313, 43.750956, 80.875000
15.751313, 43.750956, 81.000000
15.835998, 43.986176, 81.125000
15.835998, 43.986176, 81.250000
15.835998, 43.986176, 81.375000
15.835998, 43.986176, 81.500000
15.835998, 43.986176, 81.625000
15.920682, 44.221396, 81.750000
15.920682, 44.221396, 81.875000
15.920682, 44.221396, 82.000000
16.005367, 44.456616, 82.125000
16.005367, 44.456616, 82.250000
16.005367, 44.456616, 82.375000
16.090051, 44.691837, 82.500000
16.090051, 44.691837, 82.625000
16.090051, 44.691837, 82.750000
16.090051, 44.691837, 82.875000
16.090051, 44.691837, 83.000000
16.090051, 44.691837, 83.125000
16.174736, 44.927057, 83.250000
16.174736, 44.927057, 83.375000
16.174736, 44.927057, 83.500000
16.174736, 44.927057, 83.625000
16.174736, 44.927057, 83.750000
16.174736, 44.927057, 83.875000
16.259420, 45.162277, 84.000000
16.259420, 45.162277, 84.125000
18.884639, 52.454103, 101.750000
18.884639, 52.454103, 101.875000
18.291848, 50.807562, 102.000000
18.376532, 51.042782, 102.125000
18.884639, 52.454103, 102.250000
18.969324, 52.689323, 102.375000
11.433629, 35.189091, 12.375000
11.433629, 35.189091, 12.500000
11.433629, 35.189091, 12.625000
11.433629, 35.189091, 12.750000
11.433629, 35.189091, 12.875000
11.433629, 35.189091, 13.000000
11.433629, 35.189091, 13.125000
11.356375, 34.951327, 13.250000
11.356375, 34.951327, 13.375000
11.356375, 34.951327, 13.500000
11.356375, 34.951327, 13.625000
11.356375, 34.951327, 13.750000
11.279120, 34.713563, 13.875000
11.279120, 34.713563, 14.000000
11.279120, 34.713563, 14.125000
11.279120, 34.713563, 14.250000
11.201866, 34.475799, 14.375000
11.201866, 34.475799, 14.500000
11.201866, 34.475799, 14.625000
11.124612, 34.238035, 14.750000
11.124612, 34.238035, 14.875000
11.124612, 34.238035, 15.000000
11.124612, 34.238035, 15.125000
11.047358, 34.000270, 15.250000
11.047358, 34.000270, 15.375000
11.047358, 34.000270, 15.500000
11.047358, 34.000270, 15.625000
10.970103, 33.762506, 15.750000
10.970103, 33.762506, 15.875000
11.047358, 34.000270, 16.000000
10.970103, 33.762506, 16.125000
10.970103, 33.762506, 16.250000
10.970103, 33.762506, 16.375000
10.970103, 33.762506, 16.500000
10.970103, 33.762506, 16.625000
10.970103, 33.762506, 16.750000
10.892849, 33.524742, 16.875000
10.892849, 33.524742, 17.000000
10.892849, 33.524742, 17.125000
10.892849, 33.524742, 17.250000
10.815595, 33.286978, 17.375000
10.815595, 33.286978, 17.500000
10.815595, 33.286978, 17.625000
10.815595, 33.286978, 17.750000
10.815595, 33.286978, 17.875000
10.815595, 33.286978, 18.000000
10.738341, 33.049214, 18.125000
10.738341, 33.049214, 18.250000
10.738341, 33.049214, 18.375000
10.738341, 33.049214, 18.500000
10.738341, 33.049214, 18.625000
10.738341, 33.049214, 18.750000
10.738341, 33.049214, 18.875000
10.738341, 33.049214, 19.000000
10.661086, 32.811450, 19.125000
10.661086, 32.811450, 19.250000
10.661086, 32.811450, 19.375000
