-22.996016, -26.083860, 41.250000
-22.996016, -26.083860, 41.375000
-22.996016, -26.083860, 41.500000
-22.996016, -26.083860, 41.625000
-22.996016, -26.083860, 41.750000
-22.996016, -26.083860, 41.875000
-23.315405, -26.446135, 42.000000
-22.676626, -25.721584, 42.125000
-22.676626, -25.721584, 42.250000
-22.676626, -25.721584, 42.375000
-22.676626, -25.721584, 42.500000
-22.676626, -25.721584, 42.625000
-22.676626, -25.721584, 42.750000
-22.676626, -25.721584, 42.875000
-22.676626, -25.721584, 43.000000
-22.676626, -25.721584, 43.125000
-22.676626, -25.721584, 43.250000
-22.676626, -25.721584, 43.375000
-22.676626, -25.721584, 43.500000
-22.676626, -25.721584, 43.625000
-22.676626, -25.721584, 43.750000
-22.676626, -25.721584, 43.875000
-22.676626, -25.721584, 44.000000
-22.676626, -25.721584, 44.125000
-22.676626, -25.721584, 44.250000
-22.676626, -25.721584, 44.375000
-22.676626, -25.721584, 44.500000
-22.676626, -25.721584, 44.625000
-22.357237, -25.359308, 44.750000
-22.357237, -25.359308, 44.875000
-22.357237, -25.359308, 45.000000
-22.676626, -25.721584, 45.125000
-22.676626, -25.721584, 45.250000
-22.676626, -25.721584, 45.375000
-22.357237, -25.359308, 45.500000
-22.357237, -25.359308, 45.625000
-22.357237, -25.359308, 45.750000
-22.357237, -25.359308, 45.875000
-22.357237, -25.359308, 46.000000
-22.357237, -25.359308, 46.125000
-22.357237, -25.359308, 46.250000
-22.357237, -25.359308, 46.375000
-22.357237, -25.359308, 46.500000
-22.357237, -25.359308, 46.625000
-22.357237, -25.359308, 46.750000
-22.357237, -25.359308, 46.875000
-22.357237, -25.359308, 47.000000
-22.357237, -25.359308, 47.125000
-22.357237, -25.359308, 47.250000
-22.357237, -25.359308, 47.375000
-22.357237, -25.359308, 47.500000
-22.357237, -25.359308, 47.625000
-22.357237, -25.359308, 47.750000
-22.357237, -25.359308, 47.875000
-22.357237, -25.359308, 48.000000
-22.357237, -25.359308, 48.125000
-22.037848, -24.997032, 48.250000
-22.037848, -24.997032, 48.375000
-22.037848, -24.997032, 48.500000
-22.357237, -25.359308, 48.625000
-22.357237, -25.359308, 48.750000
-22.357237, -25.359308, 48.875000
-22.037848, -24.997032, 49.000000
-22.037848, -24.997032, 49.125000
-22.037848, -24.997032, 49.250000
-22.357237, -25.359308, 49.375000
-22.037848, -24.997032, 49.500000
-22.037848, -24.997032, 49.625000
-22.037848, -24.997032, 49.750000
-22.357237, -25.359308, 49.875000
-22.357237, -25.359308, 50.000000
-22.357237, -25.359308, 50.125000
-22.357237, -25.359308, 50.250000
-22.357237, -25.359308, 50.375000
-22.676626, -25.721584, 50.500000
-22.676626, -25.721584, 50.625000
-22.676626, -25.721584, 50.750000
-22.676626, -25.721584, 50.875000
-22.676626, -25.721584, 51.000000
-22.996016, -26.083860, 51.125000
-22.996016, -26.083860, 51.250000
-22.996016, -26.083860, 51.375000
-22.996016, -26.083860, 51.500000
-22.996016, -26.083860, 51.625000
-22.996016, -26.083860, 51.750000
-22.996016, -26.083860, 51.875000
-23.315405, -26.446135, 52.000000
-23.315405, -26.446135, 52.125000
-23.634794, -26.808411, 52.250000
-23.315405, -26.446135, 52.375000
-23.315405, -26.446135, 52.500000
-23.315405, -26.446135, 52.625000
-23.634794, -26.808411, 52.750000
-23.634794, -26.808411, 52.875000
-23.954183, -27.170687, 53.000000
-23.954183, -27.170687, 53.125000
-23.634794, -26.808411, 53.250000
-23.954183, -27.170687, 53.375000
-23.954183, -27.170687, 53.500000
-24.273572, -27.532963, 53.625000
-23.954183, -27.170687, 53.750000
-24.273572, -27.532963, 53.875000
-24.273572, -27.532963, 54.000000
-24.273572, -27.532963, 54.125000
-24.273572, -27.532963, 54.250000
-24.592961, -27.895239, 54.375000
-24.592961, -27.895239, 54.500000
-24.592961, -27.895239, 54.625000
-24.592961, -27.895239, 54.750000
-24.592961, -27.895239, 54.875000
-24.912350, -28.257515, 55.000000
-24.912350, -28.257515, 55.125000
-24.912350, -28.257515, 55.250000
-24.912350, -28.257515, 55.375000
-24.912350, -28.257515, 55.500000
-24.912350, -28.257515, 55.625000
-25.231739, -28.619790, 55.750000
-25.231739, -28.619790, 55.875000
-25.231739, -28.619790, 56.000000
-25.551128, -28.982066, 56.125000
-25.551128, -28.982066, 56.250000
-25.551128, -28.982066, 56.375000
-25.551128, -28.982066, 56.500000
-25.551128, -28.982066, 56.625000
-25.870518, -29.344342, 56.750000
-25.870518, -29.344342, 56.875000
-25.870518, -29.344342, 57.000000
-25.870518, -29.344342, 57.125000
-25.870518, -29.344342, 57.250000
-25.870518, -29.344342, 57.375000
-25.870518, -29.344342, 57.500000
-26.189907, -29.706618, 57.625000
-26.189907, -29.706618, 57.750000
-26.189907, -29.706618, 57.875000
-26.189907, -29.706618, 58.000000
-26.509296, -30.068894, 58.125000
-26.509296, -30.068894, 58.250000
-26.509296, -30.068894, 58.375000
-26.509296, -30.068894, 58.500000
-26.509296, -30.068894, 58.625000
-26.509296, -30.068894, 58.750000
-27.148074, -30.793445, 58.875000
-26.828685, -30.431169, 59.000000
-26.828685, -30.431169, 59.125000
-26.828685, -30.431169, 59.250000
-26.828685, -30.431169, 59.375000
-26.828685, -30.431169, 59.500000
-27.148074, -30.793445, 59.625000
-27.148074, -30.793445, 59.750000
-27.148074, -30.793445, 59.875000
-27.148074, -30.793445, 60.000000
-27.148074, -30.793445, 60.125000
-27.148074, -30.793445, 60.250000
-27.467463, -31.155721, 60.375000
-27.467463, -31.155721, 60.500000
-27.467463, -31.155721, 60.625000
-27.786852, -31.517997, 60.750000
-27.786852, -31.517997, 60.875000
-27.786852, -31.517997, 61.000000
-27.786852, -31.517997, 61.125000
-27.786852, -31.517997, 61.250000
-28.106241, -31.880273, 61.375000
-28.106241, -31.880273, 61.500000
-28.106241, -31.880273, 61.625000
-28.106241, -31.880273, 61.750000
-28.106241, -31.880273, 61.875000
-28.425630, -32.242549, 62.000000
-28.425630, -32.242549, 62.125000
-28.425630, -32.242549, 62.250000
-28.425630, -32.242549, 62.375000
-28.745019, -32.604824, 62.500000
-28.745019, -32.604824, 62.625000
-29.064409, -32.967100, 62.750000
-28.745019, -32.604824, 62.875000
-29.064409, -32.967100, 63.000000
-29.064409, -32.967100, 63.125000
-29.064409, -32.967100, 63.250000
-29.064409, -32.967100, 63.375000
-29.064409, -32.967100, 63.500000
-29.383798, -33.329376, 63.625000
-29.383798, -33.329376, 63.750000
-29.064409, -32.967100, 63.875000
-29.703187, -33.691652, 64.000000
-29.703187, -33.691652, 64.125000
-29.383798, -33.329376, 64.250000
-29.703187, -33.691652, 64.375000
-29.703187, -33.691652, 64.500000
-29.703187, -33.691652, 64.625000
-29.703187, -33.691652, 64.750000
-29.703187, -33.691652, 64.875000
-29.703187, -33.691652, 65.000000
-30.022576, -34.053928, 65.125000
-30.022576, -34.053928, 65.250000
-30.022576, -34.053928, 65.375000
-30.022576, -34.053928, 65.500000
-30.022576, -34.053928, 65.625000
-30.022576, -34.053928, 65.750000
-30.661354, -34.778479, 65.875000
-30.341965, -34.416204, 66.000000
-30.341965, -34.416204, 66.125000
-30.661354, -34.778479, 66.250000
-30.661354, -34.778479, 66.375000
-30.661354, -34.778479, 66.500000
-30.661354, -34.778479, 66.625000
-30.661354, -34.778479, 66.750000
-30.980743, -35.140755, 66.875000
-30.980743, -35.140755, 67.000000
-30.980743, -35.140755, 67.125000
-30.980743, -35.140755, 67.250000
-30.980743, -35.140755, 67.375000
-31.300132, -35.503031, 67.500000
-31.300132, -35.503031, 67.625000
-31.300132, -35.503031, 67.750000
-31.300132, -35.503031, 67.875000
-31.300132, -35.503031, 68.000000
-31.300132, -35.503031, 68.125000
-31.619521, -35.865307, 68.250000
-31.619521, -35.865307, 68.375000
-31.619521, -35.865307, 68.500000
-31.619521, -35.865307, 68.625000
-31.938910, -36.227583, 68.750000
-31.938910, -36.227583, 68.875000
-31.938910, -36.227583, 69.000000
-31.938910, -36.227583, 69.125000
-31.938910, -36.227583, 69.250000
-32.258300, -36.589859, 69.375000
-31.938910, -36.227583, 69.500000
-32.258300, -36.589859, 69.625000
-32.258300, -36.589859, 69.750000
-32.258300, -36.589859, 69.875000
-32.577689, -36.952134, 70.000000
-32.577689, -36.952134, 70.125000
-32.577689, -36.952134, 70.250000
-32.577689, -36.952134, 70.375000
-32.577689, -36.952134, 70.500000
-32.577689, -36.952134, 70.625000
-32.897078, -37.314410, 70.750000
-32.897078, -37.314410, 70.875000
-32.897078, -37.314410, 71.000000
-33.216467, -37.676686, 71.125000
-32.897078, -37.314410, 71.250000
-33.216467, -37.676686, 71.375000
-33.535856, -38.038962, 71.500000
-33.216467, -37.676686, 71.625000
-33.216467, -37.676686, 71.750000
-33.216467, -37.676686, 71.875000
-33.535856, -38.038962, 72.000000
-33.535856, -38.038962, 72.125000
-33.535856, -38.038962, 72.250000
-33.535856, -38.038962, 72.375000
-33.855245, -38.401238, 72.500000
-33.855245, -38.401238, 72.625000
-33.855245, -38.401238, 72.750000
-33.855245, -38.401238, 72.875000
-33.855245, -38.401238, 73.000000
-33.855245, -38.401238, 73.125000
-34.174634, -38.763514, 73.250000
-34.174634, -38.763514, 73.375000
-34.494023, -39.125789, 73.500000
-34.174634, -38.763514, 73.625000
-34.494023, -39.125789, 73.750000
-34.494023, -39.125789, 73.875000
-34.494023, -39.125789, 74.000000
-34.494023, -39.125789, 74.125000
-34.813412, -39.488065, 74.250000
-34.813412, -39.488065, 74.375000
-34.813412, -39.488065, 74.500000
-34.813412, -39.488065, 74.625000
-34.813412, -39.488065, 74.750000
-35.132802, -39.850341, 74.875000
-35.132802, -39.850341, 75.000000
-35.132802, -39.850341, 75.125000
-35.132802, -39.850341, 75.250000
-35.132802, -39.850341, 75.375000
-35.132802, -39.850341, 75.500000
-35.452191, -40.212617, 75.625000
-35.452191, -40.212617, 75.750000
-35.452191, -40.212617, 75.875000
-35.452191, -40.212617, 76.000000
-35.771580, -40.574893, 76.125000
-35.771580, -40.574893, 76.250000
-35.771580, -40.574893, 76.375000
-35.771580, -40.574893, 76.500000
-35.771580, -40.574893, 76.625000
-36.090969, -40.937168, 76.750000
-36.410358, -41.299444, 76.875000
-36.090969, -40.937168, 77.000000
-36.090969, -40.937168, 77.125000
-36.090969, -40.937168, 77.250000
-36.090969, -40.937168, 77.375000
-36.410358, -41.299444, 77.500000
-36.410358, -41.299444, 77.625000
-36.410358, -41.299444, 77.750000
-36.410358, -41.299444, 77.875000
-36.410358, -41.299444, 78.000000
-36.729747, -41.661720, 78.125000
-37.049136, -42.023996, 78.250000
-36.729747, -41.661720, 78.375000
-37.049136, -42.023996, 78.500000
-37.049136, -42.023996, 78.625000
-36.729747, -41.661720, 78.750000
-37.049136, -42.023996, 78.875000
-37.049136, -42.023996, 79.000000
-37.049136, -42.023996, 79.125000
-37.049136, -42.023996, 79.250000
-37.368525, -42.386272, 79.375000
-37.368525, -42.386272, 79.500000
-37.368525, -42.386272, 79.625000
-37.368525, -42.386272, 79.750000
-37.368525, -42.386272, 79.875000
-37.687914, -42.748548, 80.000000
-37.687914, -42.748548, 80.125000
-37.368525, -42.386272, 80.250000
-38.007303, -43.110823, 80.375000
-37.687914, -42.748548, 80.500000
-37.687914, -42.748548, 80.625000
-38.007303, -43.110823, 80.750000
-38.326693, -43.473099, 80.875000
-38.007303, -43.110823, 81.000000
-38.007303, -43.110823, 81.125000
-38.007303, -43.110823, 81.250000
-38.007303, -43.110823, 81.375000
-38.326693, -43.473099, 81.500000
-38.646082, -43.835375, 81.625000
-38.326693, -43.473099, 81.750000
-38.326693, -43.473099, 81.875000
-38.326693, -43.473099, 82.000000
-38.326693, -43.473099, 82.125000
-38.646082, -43.835375, 82.250000
-38.965471, -44.197651, 82.375000
-38.646082, -43.835375, 82.500000
-38.646082, -43.835375, 82.625000
-38.646082, -43.835375, 82.750000
-38.965471, -44.197651, 82.875000
-38.965471, -44.197651, 83.000000
-38.965471, -44.197651, 83.125000
-39.284860, -44.559927, 83.250000
-39.284860, -44.559927, 83.375000
-39.284860, -44.559927, 83.500000
-39.284860, -44.559927, 83.625000
-39.284860, -44.559927, 83.750000
-39.284860, -44.559927, 83.875000
-39.284860, -44.559927, 84.000000
-39.284860, -44.559927, 84.125000
-39.923638, -45.284478, 84.250000
-39.604249, -44.922203, 84.375000
-39.604249, -44.922203, 84.500000
-39.604249, -44.922203, 84.625000
-39.604249, -44.922203, 84.750000
-39.604249, -44.922203, 84.875000
-39.923638, -45.284478, 85.000000
-39.923638, -45.284478, 85.125000
-39.923638, -45.284478, 85.250000
-39.923638, -45.284478, 85.375000
-39.923638, -45.284478, 85.500000
-40.243027, -45.646754, 85.625000
-40.243027, -45.646754, 85.750000
-40.562416, -46.009030, 85.875000
-40.562416, -46.009030, 86.000000
-40.243027, -45.646754, 86.125000
-40.562416, -46.009030, 86.250000
-48.866533, -55.428202, 103.750000
-48.547144, -55.065926, 103.875000
-48.547144, -55.065926, 104.000000
-48.227755, -54.703650, 104.125000
-48.547144, -55.065926, 104.250000
-47.908366, -54.341374, 104.375000
-47.908366, -54.341374, 104.500000
-47.908366, -54.341374, 104.625000
-48.227755, -54.703650, 104.750000
-27.398841, -33.119510, 11.750000
-27.090989, -32.747380, 11.875000
-26.783137, -32.375251, 12.000000
-27.090989, -32.747380, 12.125000
-26.783137, -32.375251, 12.250000
-26.783137, -32.375251, 12.375000
-26.783137, -32.375251, 12.500000
-26.475285, -32.003122, 12.625000
-26.475285, -32.003122, 12.750000
-26.783137, -32.375251, 12.875000
-26.475285, -32.003122, 13.000000
-26.475285, -32.003122, 13.125000
-26.475285, -32.003122, 13.250000
-26.475285, -32.003122, 13.375000
-26.475285, -32.003122, 13.500000
-26.475285, -32.003122, 13.625000
-26.167432, -31.630992, 13.750000
-26.167432, -31.630992, 13.875000
-26.167432, -31.630992, 14.000000
-26.167432, -31.630992, 14.125000
-26.167432, -31.630992, 14.250000
-25.859580, -31.258863, 14.375000
-26.167432, -31.630992, 14.500000
-25.859580, -31.258863, 14.625000
-25.859580, -31.258863, 14.750000
-25.859580, -31.258863, 14.875000
-25.859580, -31.258863, 15.000000
-25.859580, -31.258863, 15.125000
-25.859580, -31.258863, 15.250000
-25.859580, -31.258863, 15.375000
-25.859580, -31.258863, 15.500000
-25.859580, -31.258863, 15.625000
-26.167432, -31.630992, 15.750000
-26.167432, -31.630992, 15.875000
-25.859580, -31.258863, 16.000000
-25.859580, -31.258863, 16.125000
-25.551728, -30.886734, 16.250000
-25.859580, -31.258863, 16.375000
-25.551728, -30.886734, 16.500000
-25.859580, -31.258863, 16.625000
-25.859580, -31.258863, 16.750000
-25.551728, -30.886734, 16.875000
-25.551728, -30.886734, 17.000000
-25.551728, -30.886734, 17.125000
-25.551728, -30.886734, 17.250000
-25.551728, -30.886734, 17.375000
-25.243876, -30.514604, 17.500000
-25.243876, -30.514604, 17.625000
-25.243876, -30.514604, 17.750000
-25.243876, -30.514604, 17.875000
-25.243876, -30.514604, 18.000000
-25.243876, -30.514604, 18.125000
-25.243876, -30.514604, 18.250000
-25.243876, -30.514604, 18.375000
-25.243876, -30.514604, 18.500000
-25.243876, -30.514604, 18.625000
-25.243876, -30.514604, 18.750000
-25.243876, -30.514604, 18.875000
-25.243876, -30.514604, 19.000000
-25.243876, -30.514604, 19.125000
-25.243876, -30.514604, 19.250000
-25.243876, -30.514604, 19.375000
-25.243876, -30.514604, 19.500000
-25.243876, -30.514604, 19.625000
-24.936024, -30.142475, 19.750000
-24.936024, -30.142475, 19.875000
-24.936024, -30.142475, 20.000000
-25.243876, -30.514604, 20.125000
-24.936024, -30.142475, 20.250000
-24.936024, -30.142475, 20.375000
-24.936024, -30.142475, 20.500000
-24.936024, -30.142475, 20.625000
-24.936024, -30.142475, 20.750000
-24.936024, -30.142475, 20.875000
-24.628172, -29.770346, 21.000000
-24.628172, -29.770346, 21.125000
-24.628172, -29.770346, 21.250000
-24.628172, -29.770346, 21.375000
-24.628172, -29.770346, 21.500000
-24.628172, -29.770346, 21.625000
-24.628172, -29.770346, 21.750000
-24.628172, -29.770346, 21.875000
-24.628172, -29.770346, 22.000000
-24.628172, -29.770346, 22.125000
-24.628172, -29.770346, 22.250000
-24.628172, -29.770346, 22.375000
-24.628172, -29.770346, 22.500000
-24.628172, -29.770346, 22.625000
-24.320320, -29.398216, 22.750000
-24.320320, -29.398216, 22.875000
-24.320320, -29.398216, 23.000000
-24.320320, -29.398216, 23.125000
-24.320320, -29.398216, 23.250000
-24.320320, -29.398216, 23.375000
-24.320320, -29.398216, 23.500000
-24.320320, -29.398216, 23.625000
-24.320320, -29.398216, 23.750000
-24.320320, -29.398216, 23.875000
-24.012467, -29.026087, 24.000000
-24.012467, -29.026087, 24.125000
-24.012467, -29.026087, 24.250000
-24.012467, -29.026087, 24.375000
-24.012467, -29.026087, 24.500000
-24.012467, -29.026087, 24.625000
-24.012467, -29.026087, 24.750000
-24.320320, -29.398216, 24.875000
-24.012467, -29.026087, 25.000000
-23.704615, -28.653958, 25.125000
-23.704615, -28.653958, 25.250000
-24.012467, -29.026087, 25.375000
-23.704615, -28.653958, 25.500000
-23.704615, -28.653958, 25.625000
-24.012467, -29.026087, 25.750000
-23.704615, -28.653958, 25.875000
-23.704615, -28.653958, 26.000000
-23.704615, -28.653958, 26.125000
-23.704615, -28.653958, 26.250000
-24.012467, -29.026087, 26.375000
-24.012467, -29.026087, 26.500000
-23.704615, -28.653958, 26.625000
-23.704615, -28.653958, 26.750000
-23.704615, -28.653958, 26.875000
-23.704615, -28.653958, 27.000000
-23.704615, -28.653958, 27.125000
-23.704615, -28.653958, 27.250000
-23.704615, -28.653958, 27.375000
-23.704615, -28.653958, 27.500000
-23.704615, -28.653958, 27.625000
-23.704615, -28.653958, 27.750000
-23.704615, -28.653958, 27.875000
-23.704615, -28.653958, 28.000000
-23.704615, -28.653958, 28.125000
-23.704615, -28.653958, 28.250000
-23.704615, -28.653958, 28.375000
-23.704615, -28.653958, 28.500000
-23.704615, -28.653958, 28.625000
-23.704615, -28.653958, 28.750000
-23.396763, -28.281828, 28.875000
-23.396763, -28.281828, 29.000000
-23.704615, -28.653958, 29.125000
-23.704615, -28.653958, 29.250000
-23.396763, -28.281828, 29.375000
-23.396763, -28.281828, 29.500000
-23.396763, -28.281828, 29.625000
-23.396763, -28.281828, 29.750000
-23.396763, -28.281828, 29.875000
-23.704615, -28.653958, 30.000000
-23.396763, -28.281828, 30.125000
-23.396763, -28.281828, 30.250000
-23.396763, -28.281828, 30.375000
-23.396763, -28.281828, 30.500000
-23.088911, -27.909699, 30.625000
-23.396763, -28.281828, 30.750000
-23.088911, -27.909699, 30.875000
-23.396763, -28.281828, 31.000000
-23.088911, -27.909699, 31.125000
-23.088911, -27.909699, 31.250000
-23.088911, -27.909699, 31.375000
-23.088911, -27.909699, 31.500000
-23.088911, -27.909699, 31.625000
-23.088911, -27.909699, 31.750000
-23.088911, -27.909699, 31.875000
-23.088911, -27.909699, 32.000000
-23.088911, -27.909699, 32.125000
-23.088911, -27.909699, 32.250000
-23.088911, -27.909699, 32.375000
-23.088911, -27.909699, 32.500000
-23.088911, -27.909699, 32.625000
-23.088911, -27.909699, 32.750000
-22.781059, -27.537570, 32.875000
-23.088911, -27.909699, 33.000000
-23.088911, -27.909699, 33.125000
-22.781059, -27.537570, 33.250000
-22.781059, -27.537570, 33.375000
-22.781059, -27.537570, 33.500000
-23.088911, -27.909699, 33.625000
-22.781059, -27.537570, 33.750000
-22.781059, -27.537570, 33.875000
-22.781059, -27.537570, 34.000000
-22.781059, -27.537570, 34.125000
-22.781059, -27.537570, 34.250000
-23.088911, -27.909699, 34.375000
-22.781059, -27.537570, 34.500000
-22.781059, -27.537570, 34.625000
-22.781059, -27.537570, 34.750000
-22.781059, -27.537570, 34.875000
-23.088911, -27.909699, 35.000000
-23.088911, -27.909699, 35.125000
-22.781059, -27.537570, 35.250000
-22.781059, -27.537570, 35.375000
-22.781059, -27.537570, 35.500000
-22.781059, -27.537570, 35.625000
-22.473207, -27.165440, 35.750000
-22.473207, -27.165440, 35.875000
-22.781059, -27.537570, 36.000000
-22.473207, -27.165440, 36.125000
-22.473207, -27.165440, 36.250000
-22.473207, -27.165440, 36.375000
-22.473207, -27.165440, 36.500000
-22.473207, -27.165440, 36.625000
-22.473207, -27.165440, 36.750000
-22.473207, -27.165440, 36.875000
-22.781059, -27.537570, 37.000000
-22.781059, -27.537570, 37.125000
-22.473207, -27.165440, 37.250000
-22.473207, -27.165440, 37.375000
-22.473207, -27.165440, 37.500000
-22.781059, -27.537570, 37.625000
-22.473207, -27.165440, 37.750000
-22.473207, -27.165440, 37.875000
-22.473207, -27.165440, 38.000000
-22.473207, -27.165440, 38.125000
-22.165355, -26.793311, 38.250000
-22.165355, -26.793311, 38.375000
-22.165355, -26.793311, 38.500000
-22.165355, -26.793311, 38.625000
-22.165355, -26.793311, 38.750000
-22.165355, -26.793311, 38.875000
-22.165355, -26.793311, 39.000000
-22.165355, -26.793311, 39.125000
-22.165355, -26.793311, 39.250000
-22.165355, -26.793311, 39.375000
-22.473207, -27.165440, 39.500000
-22.165355, -26.793311, 39.625000
-22.473207, -27.165440, 39.750000
-22.165355, -26.793311, 39.875000
-22.165355, -26.793311, 40.000000
-22.165355, -26.793311, 40.125000
-22.165355, -26.793311, 40.250000
-21.857502, -26.421182, 40.375000
-21.857502, -26.421182, 40.500000
-21.857502, -26.421182, 40.625000
-21.857502, -26.421182, 40.750000
-21.857502, -26.421182, 40.875000
-21.857502, -26.421182, 41.000000
-21.857502, -26.421182, 41.125000
-21.857502, -26.421182, 41.250000
-21.857502, -26.421182, 41.375000
-21.857502, -26.421182, 41.500000
-21.857502, -26.421182, 41.625000
-21.857502, -26.421182, 41.750000
-21.857502, -26.421182, 41.875000
-21.857502, -26.421182, 42.000000
-22.165355, -26.793311, 42.125000
-21.857502, -26.421182, 42.250000
-21.857502, -26.421182, 42.375000
-21.857502, -26.421182, 42.500000
-21.857502, -26.421182, 42.625000
-21.857502, -26.421182, 42.750000
-21.857502, -26.421182, 42.875000
-21.857502, -26.421182, 43.000000
-21.549650, -26.049052, 43.125000
-21.549650, -26.049052, 43.250000
-21.549650, -26.049052, 43.375000
-21.857502, -26.421182, 43.500000
-21.549650, -26.049052, 43.625000
-21.549650, -26.049052, 43.750000
-21.549650, -26.049052, 43.875000
-21.549650, -26.049052, 44.000000
-21.549650, -26.049052, 44.125000
-21.549650, -26.049052, 44.250000
-21.549650, -26.049052, 44.375000
-21.549650, -26.049052, 44.500000
-21.549650, -26.049052, 44.625000
-21.549650, -26.049052, 44.750000
-21.549650, -26.049052, 44.875000
-21.549650, -26.049052, 45.000000
-21.549650, -26.049052, 45.125000
-21.549650, -26.049052, 45.250000
-21.549650, -26.049052, 45.375000
-21.549650, -26.049052, 45.500000
-21.549650, -26.049052, 45.625000
-21.241798, -25.676923, 45.750000
-21.549650, -26.049052, 45.875000
-21.241798, -25.676923, 46.000000
-21.241798, -25.676923, 46.125000
-21.241798, -25.676923, 46.250000
-21.241798, -25.676923, 46.375000
-21.241798, -25.676923, 46.500000
-21.241798, -25.676923, 46.625000
-21.241798, -25.676923, 46.750000
-21.241798, -25.676923, 46.875000
-21.549650, -26.049052, 47.000000
-21.241798, -25.676923, 47.125000
-21.549650, -26.049052, 47.250000
-21.241798, -25.676923, 47.375000
-21.241798, -25.676923, 47.500000
-21.241798, -25.676923, 47.625000
-21.241798, -25.676923, 47.750000
-21.241798, -25.676923, 47.875000
-21.241798, -25.676923, 48.000000
-21.241798, -25.676923, 48.125000
-21.241798, -25.676923, 48.250000
-21.241798, -25.676923, 48.375000
-21.241798, -25.676923, 48.500000
-21.241798, -25.676923, 48.625000
-21.241798, -25.676923, 48.750000
-21.241798, -25.676923, 48.875000
-21.241798, -25.676923, 49.000000
-21.241798, -25.676923, 49.125000
-21.241798, -25.676923, 49.250000
-21.241798, -25.676923, 49.375000
-21.241798, -25.676923, 49.500000
-21.241798, -25.676923, 49.625000
-21.241798, -25.676923, 49.750000
-21.241798, -25.676923, 49.875000
-21.549650, -26.049052, 50.000000
-21.241798, -25.676923, 50.125000
-21.549650, -26.049052, 50.250000
-21.549650, -26.049052, 50.375000
-21.857502, -26.421182, 50.500000
-21.857502, -26.421182, 50.625000
-21.857502, -26.421182, 50.750000
-21.549650, -26.049052, 50.875000
-21.857502, -26.421182, 51.000000
-21.857502, -26.421182, 51.125000
-21.857502, -26.421182, 51.250000
-21.857502, -26.421182, 51.375000
-21.857502, -26.421182, 51.500000
-22.165355, -26.793311, 51.625000
-22.165355, -26.793311, 51.750000
-22.165355, -26.793311, 51.875000
-22.165355, -26.793311, 52.000000
-22.473207, -27.165440, 52.125000
-22.165355, -26.793311, 52.250000
-22.473207, -27.165440, 52.375000
-22.473207, -27.165440, 52.500000
-22.473207, -27.165440, 52.625000
-22.781059, -27.537570, 52.750000
-22.781059, -27.537570, 52.875000
-22.781059, -27.537570, 53.000000
-22.781059, -27.537570, 53.125000
-23.088911, -27.909699, 53.250000
-23.088911, -27.909699, 53.375000
-23.088911, -27.909699, 53.500000
-23.088911, -27.909699, 53.625000
-23.088911, -27.909699, 53.750000
-23.396763, -28.281828, 53.875000
-23.088911, -27.909699, 54.000000
-23.396763, -28.281828, 54.125000
-23.396763, -28.281828, 54.250000
-23.396763, -28.281828, 54.375000
-23.704615, -28.653958, 54.500000
-23.704615, -28.653958, 54.625000
-23.396763, -28.281828, 54.750000
-23.704615, -28.653958, 54.875000
-23.704615, -28.653958, 55.000000
-23.704615, -28.653958, 55.125000
-23.704615, -28.653958, 55.250000
-23.704615, -28.653958, 55.375000
-24.012467, -29.026087, 55.500000
-24.012467, -29.026087, 55.625000
-24.320320, -29.398216, 55.750000
-24.320320, -29.398216, 55.875000
-24.320320, -29.398216, 56.000000
-24.628172, -29.770346, 56.125000
-24.320320, -29.398216, 56.250000
-24.320320, -29.398216, 56.375000
-24.320320, -29.398216, 56.500000
-24.628172, -29.770346, 56.625000
-24.936024, -30.142475, 56.750000
-24.628172, -29.770346, 56.875000
-24.628172, -29.770346, 57.000000
-24.936024, -30.142475, 57.125000
-24.936024, -30.142475, 57.250000
-25.243876, -30.514604, 57.375000
-24.936024, -30.142475, 57.500000
-25.243876, -30.514604, 57.625000
-25.243876, -30.514604, 57.750000
-25.243876, -30.514604, 57.875000
-25.551728, -30.886734, 58.000000
-25.243876, -30.514604, 58.125000
-25.243876, -30.514604, 58.250000
-25.859580, -31.258863, 58.375000
-25.551728, -30.886734, 58.500000
-25.551728, -30.886734, 58.625000
-25.551728, -30.886734, 58.750000
-25.551728, -30.886734, 58.875000
-25.859580, -31.258863, 59.000000
-25.859580, -31.258863, 59.125000
-25.859580, -31.258863, 59.250000
-25.859580, -31.258863, 59.375000
-25.859580, -31.258863, 59.500000
-25.859580, -31.258863, 59.625000
-26.167432, -31.630992, 59.750000
-26.167432, -31.630992, 59.875000
-26.167432, -31.630992, 60.000000
-26.167432, -31.630992, 60.125000
-26.167432, -31.630992, 60.250000
-26.475285, -32.003122, 60.375000
-26.167432, -31.630992, 60.500000
-26.475285, -32.003122, 60.625000
-26.475285, -32.003122, 60.750000
-26.475285, -32.003122, 60.875000
-26.783137, -32.375251, 61.000000
-26.783137, -32.375251, 61.125000
-26.783137, -32.375251, 61.250000
-26.783137, -32.375251, 61.375000
-26.783137, -32.375251, 61.500000
-26.783137, -32.375251, 61.625000
-27.398841, -33.119510, 61.750000
-27.090989, -32.747380, 61.875000
-27.398841, -33.119510, 62.000000
-27.090989, -32.747380, 62.125000
-27.398841, -33.119510, 62.250000
-27.706693, -33.491639, 62.375000
-27.398841, -33.119510, 62.500000
-27.706693, -33.491639, 62.625000
-27.706693, -33.491639, 62.750000
-27.706693, -33.491639, 62.875000
-27.706693, -33.491639, 63.000000
-28.014545, -33.863768, 63.125000
-28.014545, -33.863768, 63.250000
-28.014545, -33.863768, 63.375000
-28.014545, -33.863768, 63.500000
-28.014545, -33.863768, 63.625000
-28.014545, -33.863768, 63.750000
-28.014545, -33.863768, 63.875000
-28.014545, -33.863768, 64.000000
-28.322398, -34.235897, 64.125000
-28.322398, -34.235897, 64.250000
-28.322398, -34.235897, 64.375000
-28.322398, -34.235897, 64.500000
-28.630250, -34.608027, 64.625000
-28.938102, -34.980156, 64.750000
-28.630250, -34.608027, 64.875000
-28.630250, -34.608027, 65.000000
-28.630250, -34.608027, 65.125000
-28.630250, -34.608027, 65.250000
-28.938102, -34.980156, 65.375000
-28.938102, -34.980156, 65.500000
-28.938102, -34.980156, 65.625000
-28.938102, -34.980156, 65.750000
-29.245954, -35.352285, 65.875000
-29.245954, -35.352285, 66.000000
-29.245954, -35.352285, 66.125000
-29.245954, -35.352285, 66.250000
-29.245954, -35.352285, 66.375000
-29.553806, -35.724415, 66.500000
-29.553806, -35.724415, 66.625000
-29.553806, -35.724415, 66.750000
-29.861658, -36.096544, 66.875000
-29.861658, -36.096544, 67.000000
-29.861658, -36.096544, 67.125000
-29.861658, -36.096544, 67.250000
-29.861658, -36.096544, 67.375000
-29.861658, -36.096544, 67.500000
-29.861658, -36.096544, 67.625000
-30.169510, -36.468673, 67.750000
-30.169510, -36.468673, 67.875000
-30.169510, -36.468673, 68.000000
-30.169510, -36.468673, 68.125000
-30.169510, -36.468673, 68.250000
-30.169510, -36.468673, 68.375000
-30.169510, -36.468673, 68.500000
-30.477363, -36.840803, 68.625000
-30.477363, -36.840803, 68.750000
-30.477363, -36.840803, 68.875000
-30.785215, -37.212932, 69.000000
-30.785215, -37.212932, 69.125000
-30.785215, -37.212932, 69.250000
-30.785215, -37.212932, 69.375000
-30.785215, -37.212932, 69.500000
-30.785215, -37.212932, 69.625000
-31.093067, -37.585061, 69.750000
-31.093067, -37.585061, 69.875000
-31.093067, -37.585061, 70.000000
-31.093067, -37.585061, 70.125000
-31.400919, -37.957191, 70.250000
-31.400919, -37.957191, 70.375000
-31.400919, -37.957191, 70.500000
-31.400919, -37.957191, 70.625000
-31.400919, -37.957191, 70.750000
-31.400919, -37.957191, 70.875000
-31.400919, -37.957191, 71.000000
-31.708771, -38.329320, 71.125000
-31.708771, -38.329320, 71.250000
-31.708771, -38.329320, 71.375000
-32.016623, -38.701449, 71.500000
-32.016623, -38.701449, 71.625000
-32.016623, -38.701449, 71.750000
-32.016623, -38.701449, 71.875000
-32.016623, -38.701449, 72.000000
-32.324475, -39.073579, 72.125000
-32.324475, -39.073579, 72.250000
-32.324475, -39.073579, 72.375000
-32.324475, -39.073579, 72.500000
-32.632328, -39.445708, 72.625000
-32.632328, -39.445708, 72.750000
-32.632328, -39.445708, 72.875000
-32.632328, -39.445708, 73.000000
-32.632328, -39.445708, 73.125000
-32.940180, -39.817837, 73.250000
-32.940180, -39.817837, 73.375000
-32.940180, -39.817837, 73.500000
-32.940180, -39.817837, 73.625000
-33.248032, -40.189967, 73.750000
-33.248032, -40.189967, 73.875000
-33.248032, -40.189967, 74.000000
-33.248032, -40.189967, 74.125000
-33.248032, -40.189967, 74.250000
-33.555884, -40.562096, 74.375000
-33.863736, -40.934225, 74.500000
-33.555884, -40.562096, 74.625000
-33.555884, -40.562096, 74.750000
-33.555884, -40.562096, 74.875000
-33.555884, -40.562096, 75.000000
-33.863736, -40.934225, 75.125000
-33.863736, -40.934225, 75.250000
-33.863736, -40.934225, 75.375000
-33.863736, -40.934225, 75.500000
-34.171588, -41.306355, 75.625000
-33.863736, -40.934225, 75.750000
-34.171588, -41.306355, 75.875000
-34.171588, -41.306355, 76.000000
-34.171588, -41.306355, 76.125000
-34.479440, -41.678484, 76.250000
-34.479440, -41.678484, 76.375000
-34.479440, -41.678484, 76.500000
-34.479440, -41.678484, 76.625000
-34.479440, -41.678484, 76.750000
-34.479440, -41.678484, 76.875000
-34.787293, -42.050613, 77.000000
-34.787293, -42.050613, 77.125000
-34.787293, -42.050613, 77.250000
-34.787293, -42.050613, 77.375000
-35.095145, -42.422743, 77.500000
-35.095145, -42.422743, 77.625000
-35.095145, -42.422743, 77.750000
-35.095145, -42.422743, 77.875000
-35.095145, -42.422743, 78.000000
-35.095145, -42.422743, 78.125000
-35.402997, -42.794872, 78.250000
-35.402997, -42.794872, 78.375000
-35.402997, -42.794872, 78.500000
-35.402997, -42.794872, 78.625000
-35.710849, -43.167001, 78.750000
-35.710849, -43.167001, 78.875000
-35.710849, -43.167001, 79.000000
-35.710849, -43.167001, 79.125000
-35.710849, -43.167001, 79.250000
-36.018701, -43.539130, 79.375000
-36.018701, -43.539130, 79.500000
-36.018701, -43.539130, 79.625000
-36.018701, -43.539130, 79.750000
-36.326553, -43.911260, 79.875000
-36.326553, -43.911260, 80.000000
-36.326553, -43.911260, 80.125000
-36.018701, -43.539130, 80.250000
-36.326553, -43.911260, 80.375000
-36.326553, -43.911260, 80.500000
-36.326553, -43.911260, 80.625000
-36.326553, -43.911260, 80.750000
-36.634405, -44.283389, 80.875000
-36.326553, -43.911260, 81.000000
-36.634405, -44.283389, 81.125000
-36.634405, -44.283389, 81.250000
-36.634405, -44.283389, 81.375000
-36.942258, -44.655518, 81.500000
-36.942258, -44.655518, 81.625000
-36.942258, -44.655518, 81.750000
-36.942258, -44.655518, 81.875000
-36.942258, -44.655518, 82.000000
-36.942258, -44.655518, 82.125000
-36.942258, -44.655518, 82.250000
-37.250110, -45.027648, 82.375000
-37.250110, -45.027648, 82.500000
-37.250110, -45.027648, 82.625000
-37.250110, -45.027648, 82.750000
-37.557962, -45.399777, 82.875000
-37.865814, -45.771906, 83.000000
-37.557962, -45.399777, 83.125000
-37.557962, -45.399777, 83.250000
-37.557962, -45.399777, 83.375000
-37.865814, -45.771906, 83.500000
-37.865814, -45.771906, 83.625000
-37.865814, -45.771906, 83.750000
-37.865814, -45.771906, 83.875000
-37.865814, -45.771906, 84.000000
-37.865814, -45.771906, 84.125000
-38.173666, -46.144036, 84.250000
-38.173666, -46.144036, 84.375000
-38.173666, -46.144036, 84.500000
-38.173666, -46.144036, 84.625000
-38.173666, -46.144036, 84.750000
-38.173666, -46.144036, 84.875000
-38.173666, -46.144036, 85.000000
-38.481518, -46.516165, 85.125000
-38.481518, -46.516165, 85.250000
-38.481518, -46.516165, 85.375000
-38.481518, -46.516165, 85.500000
-38.481518, -46.516165, 85.625000
-38.789371, -46.888294, 85.750000
-38.481518, -46.516165, 85.875000
-39.097223, -47.260424, 86.000000
-46.793526, -56.563657, 103.750000
-46.793526, -56.563657, 103.875000
-46.793526, -56.563657, 104.000000
-46.177822, -55.819398, 104.125000
-46.793526, -56.563657, 104.250000
-46.177822, -55.819398, 104.375000
-46.485674, -56.191527, 104.500000
-46.177822, -55.819398, 104.625000
-46.485674, -56.191527, 104.750000
-26.345012, -33.963785, 11.875000
-26.345012, -33.963785, 12.000000
-26.345012, -33.963785, 12.125000
-26.049001, -33.582170, 12.250000
-26.345012, -33.963785, 12.375000
-26.345012, -33.963785, 12.500000
-26.049001, -33.582170, 12.625000
-26.345012, -33.963785, 12.750000
-26.345012, -33.963785, 12.875000
-26.049001, -33.582170, 13.000000
-26.049001, -33.582170, 13.125000
-25.752990, -33.200554, 13.250000
-25.752990, -33.200554, 13.375000
-25.752990, -33.200554, 13.500000
-25.752990, -33.200554, 13.625000
-25.752990, -33.200554, 13.750000
-25.456978, -32.818939, 13.875000
-25.456978, -32.818939, 14.000000
-25.456978, -32.818939, 14.125000
-25.456978, -32.818939, 14.250000
-25.456978, -32.818939, 14.375000
-25.456978, -32.818939, 14.500000
-25.456978, -32.818939, 14.625000
-25.456978, -32.818939, 14.750000
-25.456978, -32.818939, 14.875000
-25.160967, -32.437323, 15.000000
-25.160967, -32.437323, 15.125000
-25.160967, -32.437323, 15.250000
-25.160967, -32.437323, 15.375000
-25.160967, -32.437323, 15.500000
-25.160967, -32.437323, 15.625000
-25.160967, -32.437323, 15.750000
-25.160967, -32.437323, 15.875000
-25.160967, -32.437323, 16.000000
-25.160967, -32.437323, 16.125000
-25.160967, -32.437323, 16.250000
-25.160967, -32.437323, 16.375000
-25.456978, -32.818939, 16.500000
-25.456978, -32.818939, 16.625000
-24.864956, -32.055708, 16.750000
-25.160967, -32.437323, 16.875000
-25.160967, -32.437323, 17.000000
-24.864956, -32.055708, 17.125000
-24.864956, -32.055708, 17.250000
-25.160967, -32.437323, 17.375000
-24.864956, -32.055708, 17.500000
-24.864956, -32.055708, 17.625000
-24.864956, -32.055708, 17.750000
-24.864956, -32.055708, 17.875000
-24.864956, -32.055708, 18.000000
-24.864956, -32.055708, 18.125000
-24.568944, -31.674092, 18.250000
-24.864956, -32.055708, 18.375000
-24.864956, -32.055708, 18.500000
-24.864956, -32.055708, 18.625000
-24.864956, -32.055708, 18.750000
-24.864956, -32.055708, 18.875000
-24.568944, -31.674092, 19.000000
-24.864956, -32.055708, 19.125000
-24.864956, -32.055708, 19.250000
-24.864956, -32.055708, 19.375000
-24.864956, -32.055708, 19.500000
-24.568944, -31.674092, 19.625000
-24.568944, -31.674092, 19.750000
-24.568944, -31.674092, 19.875000
-24.568944, -31.674092, 20.000000
-24.568944, -31.674092, 20.125000
-24.272933, -31.292476, 20.250000
-24.272933, -31.292476, 20.375000
-24.272933, -31.292476, 20.500000
-24.568944, -31.674092, 20.625000
-24.272933, -31.292476, 20.750000
-24.272933, -31.292476, 20.875000
-24.272933, -31.292476, 21.000000
-24.272933, -31.292476, 21.125000
-24.272933, -31.292476, 21.250000
-24.272933, -31.292476, 21.375000
-24.272933, -31.292476, 21.500000
-23.976921, -30.910861, 21.625000
-23.976921, -30.910861, 21.750000
-23.976921, -30.910861, 21.875000
-24.272933, -31.292476, 22.000000
-23.976921, -30.910861, 22.125000
-23.976921, -30.910861, 22.250000
-23.976921, -30.910861, 22.375000
-23.976921, -30.910861, 22.500000
-23.976921, -30.910861, 22.625000
-23.976921, -30.910861, 22.750000
-23.976921, -30.910861, 22.875000
-23.976921, -30.910861, 23.000000
-23.680910, -30.529245, 23.125000
-23.976921, -30.910861, 23.250000
-23.976921, -30.910861, 23.375000
-23.680910, -30.529245, 23.500000
-23.680910, -30.529245, 23.625000
-23.976921, -30.910861, 23.750000
-23.680910, -30.529245, 23.875000
-23.680910, -30.529245, 24.000000
-23.384899, -30.147630, 24.125000
-23.384899, -30.147630, 24.250000
-23.384899, -30.147630, 24.375000
-23.384899, -30.147630, 24.500000
-23.384899, -30.147630, 24.625000
-23.384899, -30.147630, 24.750000
-23.384899, -30.147630, 24.875000
-23.384899, -30.147630, 25.000000
-23.384899, -30.147630, 25.125000
-23.384899, -30.147630, 25.250000
-23.384899, -30.147630, 25.375000
-23.384899, -30.147630, 25.500000
-23.384899, -30.147630, 25.625000
-23.384899, -30.147630, 25.750000
-23.384899, -30.147630, 25.875000
-23.088887, -29.766014, 26.000000
-23.384899, -30.147630, 26.125000
-23.384899, -30.147630, 26.250000
-23.088887, -29.766014, 26.375000
-23.088887, -29.766014, 26.500000
-23.088887, -29.766014, 26.625000
-23.088887, -29.766014, 26.750000
-23.088887, -29.766014, 26.875000
-23.088887, -29.766014, 27.000000
-23.384899, -30.147630, 27.125000
-23.088887, -29.766014, 27.250000
-23.088887, -29.766014, 27.375000
-23.088887, -29.766014, 27.500000
-23.088887, -29.766014, 27.625000
-23.088887, -29.766014, 27.750000
-23.088887, -29.766014, 27.875000
-23.088887, -29.766014, 28.000000
-23.088887, -29.766014, 28.125000
-23.088887, -29.766014, 28.250000
-23.088887, -29.766014, 28.375000
-23.088887, -29.766014, 28.500000
-22.792876, -29.384399, 28.625000
-22.792876, -29.384399, 28.750000
-22.792876, -29.384399, 28.875000
-22.792876, -29.384399, 29.000000
-22.792876, -29.384399, 29.125000
-23.088887, -29.766014, 29.250000
-22.792876, -29.384399, 29.375000
-22.792876, -29.384399, 29.500000
-22.792876, -29.384399, 29.625000
-22.792876, -29.384399, 29.750000
-22.792876, -29.384399, 29.875000
-22.792876, -29.384399, 30.000000
-22.792876, -29.384399, 30.125000
-22.792876, -29.384399, 30.250000
-22.792876, -29.384399, 30.375000
-22.792876, -29.384399, 30.500000
-22.792876, -29.384399, 30.625000
-22.792876, -29.384399, 30.750000
-22.792876, -29.384399, 30.875000
-22.792876, -29.384399, 31.000000
-22.792876, -29.384399, 31.125000
-22.496865, -29.002783, 31.250000
-22.792876, -29.384399, 31.375000
-22.792876, -29.384399, 31.500000
-22.792876, -29.384399, 31.625000
-22.792876, -29.384399, 31.750000
-22.496865, -29.002783, 31.875000
-22.496865, -29.002783, 32.000000
-22.496865, -29.002783, 32.125000
-22.496865, -29.002783, 32.250000
-22.496865, -29.002783, 32.375000
-22.496865, -29.002783, 32.500000
-22.496865, -29.002783, 32.625000
-22.496865, -29.002783, 32.750000
-22.200853, -28.621167, 32.875000
-22.200853, -28.621167, 33.000000
-22.496865, -29.002783, 33.125000
-22.200853, -28.621167, 33.250000
-22.200853, -28.621167, 33.375000
-22.200853, -28.621167, 33.500000
-22.200853, -28.621167, 33.625000
-22.200853, -28.621167, 33.750000
-22.200853, -28.621167, 33.875000
-22.200853, -28.621167, 34.000000
-22.200853, -28.621167, 34.125000
-22.200853, -28.621167, 34.250000
-22.200853, -28.621167, 34.375000
-22.200853, -28.621167, 34.500000
-22.200853, -28.621167, 34.625000
-22.200853, -28.621167, 34.750000
-22.200853, -28.621167, 34.875000
-22.200853, -28.621167, 35.000000
-22.200853, -28.621167, 35.125000
-22.200853, -28.621167, 35.250000
-22.200853, -28.621167, 35.375000
-22.200853, -28.621167, 35.500000
-22.200853, -28.621167, 35.625000
-22.200853, -28.621167, 35.750000
-21.904842, -28.239552, 35.875000
-21.904842, -28.239552, 36.000000
-21.904842, -28.239552, 36.125000
-21.904842, -28.239552, 36.250000
-21.904842, -28.239552, 36.375000
-21.904842, -28.239552, 36.500000
-21.904842, -28.239552, 36.625000
-21.904842, -28.239552, 36.750000
-21.904842, -28.239552, 36.875000
-21.904842, -28.239552, 37.000000
-21.904842, -28.239552, 37.125000
-21.904842, -28.239552, 37.250000
-21.904842, -28.239552, 37.375000
-21.904842, -28.239552, 37.500000
-21.904842, -28.239552, 37.625000
-21.608830, -27.857936, 37.750000
-21.608830, -27.857936, 37.875000
-21.608830, -27.857936, 38.000000
-21.608830, -27.857936, 38.125000
-21.608830, -27.857936, 38.250000
-21.608830, -27.857936, 38.375000
-21.608830, -27.857936, 38.500000
-21.608830, -27.857936, 38.625000
-21.608830, -27.857936, 38.750000
-21.608830, -27.857936, 38.875000
-21.608830, -27.857936, 39.000000
-21.904842, -28.239552, 39.125000
-21.312819, -27.476321, 39.250000
-21.608830, -27.857936, 39.375000
-21.608830, -27.857936, 39.500000
-21.608830, -27.857936, 39.625000
-21.312819, -27.476321, 39.750000
-21.312819, -27.476321, 39.875000
-21.608830, -27.857936, 40.000000
-21.608830, -27.857936, 40.125000
-21.312819, -27.476321, 40.250000
-21.312819, -27.476321, 40.375000
-21.312819, -27.476321, 40.500000
-21.312819, -27.476321, 40.625000
-21.312819, -27.476321, 40.750000
-21.312819, -27.476321, 40.875000
-21.312819, -27.476321, 41.000000
-21.312819, -27.476321, 41.125000
-21.312819, -27.476321, 41.250000
-21.608830, -27.857936, 41.375000
-21.312819, -27.476321, 41.500000
-21.312819, -27.476321, 41.625000
-21.312819, -27.476321, 41.750000
-21.312819, -27.476321, 41.875000
-21.312819, -27.476321, 42.000000
-21.312819, -27.476321, 42.125000
-21.312819, -27.476321, 42.250000
-21.312819, -27.476321, 42.375000
-21.312819, -27.476321, 42.500000
-21.312819, -27.476321, 42.625000
-21.312819, -27.476321, 42.750000
-21.016808, -27.094705, 42.875000
-21.016808, -27.094705, 43.000000
-21.016808, -27.094705, 43.125000
-21.016808, -27.094705, 43.250000
-21.312819, -27.476321, 43.375000
-21.016808, -27.094705, 43.500000
-21.016808, -27.094705, 43.625000
-21.016808, -27.094705, 43.750000
-21.016808, -27.094705, 43.875000
-21.016808, -27.094705, 44.000000
-21.016808, -27.094705, 44.125000
-21.016808, -27.094705, 44.250000
-21.016808, -27.094705, 44.375000
-21.016808, -27.094705, 44.500000
-21.016808, -27.094705, 44.625000
-21.016808, -27.094705, 44.750000
-21.016808, -27.094705, 44.875000
-21.016808, -27.094705, 45.000000
-21.016808, -27.094705, 45.125000
-21.016808, -27.094705, 45.250000
-21.016808, -27.094705, 45.375000
-21.016808, -27.094705, 45.500000
-21.016808, -27.094705, 45.625000
-20.720796, -26.713090, 45.750000
-20.720796, -26.713090, 45.875000
-21.016808, -27.094705, 46.000000
-20.720796, -26.713090, 46.125000
-20.720796, -26.713090, 46.250000
-20.720796, -26.713090, 46.375000
-20.720796, -26.713090, 46.500000
-20.720796, -26.713090, 46.625000
-20.720796, -26.713090, 46.750000
-20.720796, -26.713090, 46.875000
-20.720796, -26.713090, 47.000000
-20.720796, -26.713090, 47.125000
-20.720796, -26.713090, 47.250000
-20.720796, -26.713090, 47.375000
-20.720796, -26.713090, 47.500000
-20.720796, -26.713090, 47.625000
-20.720796, -26.713090, 47.750000
-20.720796, -26.713090, 47.875000
-20.720796, -26.713090, 48.000000
-20.720796, -26.713090, 48.125000
-20.720796, -26.713090, 48.250000
-20.424785, -26.331474, 48.375000
-20.720796, -26.713090, 48.500000
-20.720796, -26.713090, 48.625000
-20.720796, -26.713090, 48.750000
-20.720796, -26.713090, 48.875000
-20.424785, -26.331474, 49.000000
-20.424785, -26.331474, 49.125000
-20.424785, -26.331474, 49.250000
-20.424785, -26.331474, 49.375000
-20.424785, -26.331474, 49.500000
-20.424785, -26.331474, 49.625000
-20.720796, -26.713090, 49.750000
-20.720796, -26.713090, 49.875000
-20.720796, -26.713090, 50.000000
-20.720796, -26.713090, 50.125000
-20.720796, -26.713090, 50.250000
-21.016808, -27.094705, 50.375000
-21.016808, -27.094705, 50.500000
-21.016808, -27.094705, 50.625000
-21.016808, -27.094705, 50.750000
-21.312819, -27.476321, 50.875000
-21.016808, -27.094705, 51.000000
-21.016808, -27.094705, 51.125000
-21.312819, -27.476321, 51.250000
-21.016808, -27.094705, 51.375000
-21.312819, -27.476321, 51.500000
-21.312819, -27.476321, 51.625000
-21.312819, -27.476321, 51.750000
-21.312819, -27.476321, 51.875000
-21.904842, -28.239552, 52.000000
-21.608830, -27.857936, 52.125000
-21.608830, -27.857936, 52.250000
-21.608830, -27.857936, 52.375000
-21.608830, -27.857936, 52.500000
-21.608830, -27.857936, 52.625000
-21.904842, -28.239552, 52.750000
-21.904842, -28.239552, 52.875000
-21.904842, -28.239552, 53.000000
-21.904842, -28.239552, 53.125000
-21.904842, -28.239552, 53.250000
-21.904842, -28.239552, 53.375000
-22.200853, -28.621167, 53.500000
-22.200853, -28.621167, 53.625000
-22.200853, -28.621167, 53.750000
-22.200853, -28.621167, 53.875000
-22.496865, -29.002783, 54.000000
-22.792876, -29.384399, 54.125000
-22.496865, -29.002783, 54.250000
-22.792876, -29.384399, 54.375000
-22.792876, -29.384399, 54.500000
-22.496865, -29.002783, 54.625000
-22.792876, -29.384399, 54.750000
-22.792876, -29.384399, 54.875000
-23.088887, -29.766014, 55.000000
-23.088887, -29.766014, 55.125000
-23.088887, -29.766014, 55.250000
-23.088887, -29.766014, 55.375000
-23.088887, -29.766014, 55.500000
-23.088887, -29.766014, 55.625000
-23.384899, -30.147630, 55.750000
-23.384899, -30.147630, 55.875000
-23.384899, -30.147630, 56.000000
-23.384899, -30.147630, 56.125000
-23.384899, -30.147630, 56.250000
-23.680910, -30.529245, 56.375000
-23.680910, -30.529245, 56.500000
-23.680910, -30.529245, 56.625000
-23.680910, -30.529245, 56.750000
-23.976921, -30.910861, 56.875000
-23.976921, -30.910861, 57.000000
-24.272933, -31.292476, 57.125000
-23.976921, -30.910861, 57.250000
-23.976921, -30.910861, 57.375000
-24.272933, -31.292476, 57.500000
-24.272933, -31.292476, 57.625000
-24.272933, -31.292476, 57.750000
-24.272933, -31.292476, 57.875000
-24.272933, -31.292476, 58.000000
-24.272933, -31.292476, 58.125000
-24.568944, -31.674092, 58.250000
-24.568944, -31.674092, 58.375000
-24.568944, -31.674092, 58.500000
-24.568944, -31.674092, 58.625000
-24.568944, -31.674092, 58.750000
-24.568944, -31.674092, 58.875000
-24.864956, -32.055708, 59.000000
-24.864956, -32.055708, 59.125000
-24.864956, -32.055708, 59.250000
-24.864956, -32.055708, 59.375000
-25.160967, -32.437323, 59.500000
-24.864956, -32.055708, 59.625000
-25.160967, -32.437323, 59.750000
-25.160967, -32.437323, 59.875000
-25.160967, -32.437323, 60.000000
-25.160967, -32.437323, 60.125000
-25.456978, -32.818939, 60.250000
-25.456978, -32.818939, 60.375000
-25.456978, -32.818939, 60.500000
-25.752990, -33.200554, 60.625000
-25.752990, -33.200554, 60.750000
-25.752990, -33.200554, 60.875000
-26.049001, -33.582170, 61.000000
-25.752990, -33.200554, 61.125000
-26.049001, -33.582170, 61.250000
-25.752990, -33.200554, 61.375000
-26.049001, -33.582170, 61.500000
-26.049001, -33.582170, 61.625000
-26.049001, -33.582170, 61.750000
-26.049001, -33.582170, 61.875000
-26.049001, -33.582170, 62.000000
-26.345012, -33.963785, 62.125000
-26.345012, -33.963785, 62.250000
-26.345012, -33.963785, 62.375000
-26.641024, -34.345401, 62.500000
-26.641024, -34.345401, 62.625000
-26.641024, -34.345401, 62.750000
-26.937035, -34.727017, 62.875000
-26.641024, -34.345401, 63.000000
-26.937035, -34.727017, 63.125000
-27.233047, -35.108632, 63.250000
-27.233047, -35.108632, 63.375000
-26.937035, -34.727017, 63.500000
-26.937035, -34.727017, 63.625000
-26.937035, -34.727017, 63.750000
-27.233047, -35.108632, 63.875000
-27.233047, -35.108632, 64.000000
-27.233047, -35.108632, 64.125000
-27.233047, -35.108632, 64.250000
-27.233047, -35.108632, 64.375000
-27.529058, -35.490248, 64.500000
-27.529058, -35.490248, 64.625000
-27.529058, -35.490248, 64.750000
-27.529058, -35.490248, 64.875000
-27.825069, -35.871863, 65.000000
-27.825069, -35.871863, 65.125000
-27.825069, -35.871863, 65.250000
-27.825069, -35.871863, 65.375000
-27.825069, -35.871863, 65.500000
-27.825069, -35.871863, 65.625000
-28.121081, -36.253479, 65.750000
-28.121081, -36.253479, 65.875000
-28.121081, -36.253479, 66.000000
-28.121081, -36.253479, 66.125000
-28.121081, -36.253479, 66.250000
-28.417092, -36.635094, 66.375000
