6.617260, -29.603918, 40.125000
6.617260, -29.603918, 40.250000
6.696986, -29.960592, 40.375000
6.617260, -29.603918, 40.500000
6.617260, -29.603918, 40.625000
6.537534, -29.247245, 40.750000
6.537534, -29.247245, 40.875000
6.537534, -29.247245, 41.000000
6.537534, -29.247245, 41.125000
6.537534, -29.247245, 41.250000
6.537534, -29.247245, 41.375000
6.537534, -29.247245, 41.500000
6.537534, -29.247245, 41.625000
6.537534, -29.247245, 41.750000
6.537534, -29.247245, 41.875000
6.537534, -29.247245, 42.000000
6.537534, -29.247245, 42.125000
6.537534, -29.247245, 42.250000
6.457808, -28.890571, 42.375000
6.457808, -28.890571, 42.500000
6.457808, -28.890571, 42.625000
6.537534, -29.247245, 42.750000
6.457808, -28.890571, 42.875000
6.457808, -28.890571, 43.000000
6.457808, -28.890571, 43.125000
6.378082, -28.533897, 43.250000
6.378082, -28.533897, 43.375000
6.457808, -28.890571, 43.500000
6.378082, -28.533897, 43.625000
6.457808, -28.890571, 43.750000
6.378082, -28.533897, 43.875000
6.378082, -28.533897, 44.000000
6.378082, -28.533897, 44.125000
6.378082, -28.533897, 44.250000
6.378082, -28.533897, 44.375000
6.298356, -28.177224, 44.500000
6.378082, -28.533897, 44.625000
6.378082, -28.533897, 44.750000
6.298356, -28.177224, 44.875000
6.378082, -28.533897, 45.000000
6.378082, -28.533897, 45.125000
6.298356, -28.177224, 45.250000
6.298356, -28.177224, 45.375000
6.298356, -28.177224, 45.500000
6.298356, -28.177224, 45.625000
6.298356, -28.177224, 45.750000
6.298356, -28.177224, 45.875000
6.298356, -28.177224, 46.000000
6.378082, -28.533897, 46.125000
6.298356, -28.177224, 46.250000
6.298356, -28.177224, 46.375000
6.298356, -28.177224, 46.500000
6.298356, -28.177224, 46.625000
6.218630, -27.820550, 46.750000
6.218630, -27.820550, 46.875000
6.298356, -28.177224, 47.000000
6.218630, -27.820550, 47.125000
6.218630, -27.820550, 47.250000
6.218630, -27.820550, 47.375000
6.218630, -27.820550, 47.500000
6.218630, -27.820550, 47.625000
6.218630, -27.820550, 47.750000
6.218630, -27.820550, 47.875000
6.218630, -27.820550, 48.000000
6.138904, -27.463876, 48.125000
6.218630, -27.820550, 48.250000
6.138904, -27.463876, 48.375000
6.138904, -27.463876, 48.500000
6.138904, -27.463876, 48.625000
6.138904, -27.463876, 48.750000
6.138904, -27.463876, 48.875000
6.138904, -27.463876, 49.000000
6.138904, -27.463876, 49.125000
6.138904, -27.463876, 49.250000
6.138904, -27.463876, 49.375000
6.138904, -27.463876, 49.500000
6.138904, -27.463876, 49.625000
6.138904, -27.463876, 49.750000
6.138904, -27.463876, 49.875000
6.218630, -27.820550, 50.000000
6.218630, -27.820550, 50.125000
6.218630, -27.820550, 50.250000
6.298356, -28.177224, 50.375000
6.218630, -27.820550, 50.500000
6.218630, -27.820550, 50.625000
6.298356, -28.177224, 50.750000
6.378082, -28.533897, 50.875000
6.298356, -28.177224, 51.000000
6.378082, -28.533897, 51.125000
6.378082, -28.533897, 51.250000
6.457808, -28.890571, 51.375000
6.378082, -28.533897, 51.500000
6.457808, -28.890571, 51.625000
6.378082, -28.533897, 51.750000
6.378082, -28.533897, 51.875000
6.537534, -29.247245, 52.000000
6.457808, -28.890571, 52.125000
6.537534, -29.247245, 52.250000
6.537534, -29.247245, 52.375000
6.537534, -29.247245, 52.500000
6.537534, -29.247245, 52.625000
6.537534, -29.247245, 52.750000
6.617260, -29.603918, 52.875000
6.617260, -29.603918, 53.000000
6.617260, -29.603918, 53.125000
6.617260, -29.603918, 53.250000
6.617260, -29.603918, 53.375000
6.696986, -29.960592, 53.500000
6.696986, -29.960592, 53.625000
6.696986, -29.960592, 53.750000
6.696986, -29.960592, 53.875000
6.776712, -30.317266, 54.000000
6.776712, -30.317266, 54.125000
6.856438, -30.673940, 54.250000
6.776712, -30.317266, 54.375000
6.856438, -30.673940, 54.500000
6.856438, -30.673940, 54.625000
6.856438, -30.673940, 54.750000
6.856438, -30.673940, 54.875000
6.936164, -31.030613, 55.000000
6.936164, -31.030613, 55.125000
7.015890, -31.387287, 55.250000
7.015890, -31.387287, 55.375000
6.936164, -31.030613, 55.500000
7.015890, -31.387287, 55.625000
7.015890, -31.387287, 55.750000
7.015890, -31.387287, 55.875000
7.015890, -31.387287, 56.000000
7.095616, -31.743961, 56.125000
7.095616, -31.743961, 56.250000
7.095616, -31.743961, 56.375000
7.175342, -32.100634, 56.500000
7.175342, -32.100634, 56.625000
7.175342, -32.100634, 56.750000
7.255068, -32.457308, 56.875000
7.255068, -32.457308, 57.000000
7.255068, -32.457308, 57.125000
7.255068, -32.457308, 57.250000
7.255068, -32.457308, 57.375000
7.255068, -32.457308, 57.500000
7.255068, -32.457308, 57.625000
7.414520, -33.170656, 57.750000
7.334794, -32.813982, 57.875000
7.414520, -33.170656, 58.000000
7.414520, -33.170656, 58.125000
7.414520, -33.170656, 58.250000
7.414520, -33.170656, 58.375000
7.494246, -33.527329, 58.500000
7.494246, -33.527329, 58.625000
7.494246, -33.527329, 58.750000
7.494246, -33.527329, 58.875000
7.494246, -33.527329, 59.000000
7.573972, -33.884003, 59.125000
7.573972, -33.884003, 59.250000
7.573972, -33.884003, 59.375000
7.573972, -33.884003, 59.500000
7.653698, -34.240677, 59.625000
7.653698, -34.240677, 59.750000
7.653698, -34.240677, 59.875000
7.653698, -34.240677, 60.000000
7.653698, -34.240677, 60.125000
7.733424, -34.597350, 60.250000
7.733424, -34.597350, 60.375000
7.733424, -34.597350, 60.500000
7.733424, -34.597350, 60.625000
7.733424, -34.597350, 60.750000
7.733424, -34.597350, 60.875000
7.813150, -34.954024, 61.000000
7.813150, -34.954024, 61.125000
7.813150, -34.954024, 61.250000
7.813150, -34.954024, 61.375000
7.892876, -35.310698, 61.500000
7.892876, -35.310698, 61.625000
7.892876, -35.310698, 61.750000
7.972602, -35.667372, 61.875000
7.972602, -35.667372, 62.000000
8.052328, -36.024045, 62.125000
7.972602, -35.667372, 62.250000
8.052328, -36.024045, 62.375000
8.052328, -36.024045, 62.500000
8.052328, -36.024045, 62.625000
8.052328, -36.024045, 62.750000
8.132054, -36.380719, 62.875000
8.132054, -36.380719, 63.000000
8.211780, -36.737393, 63.125000
8.132054, -36.380719, 63.250000
8.211780, -36.737393, 63.375000
8.211780, -36.737393, 63.500000
8.211780, -36.737393, 63.625000
8.211780, -36.737393, 63.750000
8.291506, -37.094066, 63.875000
8.291506, -37.094066, 64.000000
8.371232, -37.450740, 64.125000
8.291506, -37.094066, 64.250000
8.291506, -37.094066, 64.375000
8.371232, -37.450740, 64.500000
8.371232, -37.450740, 64.625000
8.371232, -37.450740, 64.750000
8.371232, -37.450740, 64.875000
8.450958, -37.807414, 65.000000
8.450958, -37.807414, 65.125000
8.450958, -37.807414, 65.250000
8.450958, -37.807414, 65.375000
8.530684, -38.164088, 65.500000
8.530684, -38.164088, 65.625000
8.610410, -38.520761, 65.750000
8.610410, -38.520761, 65.875000
8.530684, -38.164088, 66.000000
8.610410, -38.520761, 66.125000
8.690136, -38.877435, 66.250000
8.690136, -38.877435, 66.375000
8.690136, -38.877435, 66.500000
8.690136, -38.877435, 66.625000
8.690136, -38.877435, 66.750000
8.769862, -39.234109, 66.875000
8.769862, -39.234109, 67.000000
8.769862, -39.234109, 67.125000
8.769862, -39.234109, 67.250000
8.769862, -39.234109, 67.375000
8.769862, -39.234109, 67.500000
8.849588, -39.590782, 67.625000
8.849588, -39.590782, 67.750000
8.849588, -39.590782, 67.875000
8.849588, -39.590782, 68.000000
8.929314, -39.947456, 68.125000
8.929314, -39.947456, 68.250000
8.929314, -39.947456, 68.375000
9.009040, -40.304130, 68.500000
9.009040, -40.304130, 68.625000
9.009040, -40.304130, 68.750000
9.009040, -40.304130, 68.875000
9.009040, -40.304130, 69.000000
9.009040, -40.304130, 69.125000
9.088766, -40.660804, 69.250000
9.088766, -40.660804, 69.375000
9.088766, -40.660804, 69.500000
9.168492, -41.017477, 69.625000
9.168492, -41.017477, 69.750000
9.248218, -41.374151, 69.875000
9.168492, -41.017477, 70.000000
9.168492, -41.017477, 70.125000
9.168492, -41.017477, 70.250000
9.248218, -41.374151, 70.375000
9.248218, -41.374151, 70.500000
9.248218, -41.374151, 70.625000
9.327944, -41.730825, 70.750000
9.327944, -41.730825, 70.875000
9.327944, -41.730825, 71.000000
9.327944, -41.730825, 71.125000
9.407670, -42.087498, 71.250000
9.407670, -42.087498, 71.375000
9.407670, -42.087498, 71.500000
9.407670, -42.087498, 71.625000
9.487397, -42.444172, 71.750000
9.487397, -42.444172, 71.875000
9.487397, -42.444172, 72.000000
9.567123, -42.800846, 72.125000
9.567123, -42.800846, 72.250000
9.567123, -42.800846, 72.375000
9.567123, -42.800846, 72.500000
9.567123, -42.800846, 72.625000
9.646849, -43.157520, 72.750000
9.646849, -43.157520, 72.875000
9.646849, -43.157520, 73.000000
9.646849, -43.157520, 73.125000
9.646849, -43.157520, 73.250000
9.726575, -43.514193, 73.375000
9.726575, -43.514193, 73.500000
9.726575, -43.514193, 73.625000
9.806301, -43.870867, 73.750000
9.726575, -43.514193, 73.875000
9.806301, -43.870867, 74.000000
9.806301, -43.870867, 74.125000
9.806301, -43.870867, 74.250000
9.886027, -44.227541, 74.375000
9.886027, -44.227541, 74.500000
9.965753, -44.584214, 74.625000
9.886027, -44.227541, 74.750000
9.965753, -44.584214, 74.875000
9.965753, -44.584214, 75.000000
9.965753, -44.584214, 75.125000
9.965753, -44.584214, 75.250000
9.965753, -44.584214, 75.375000
10.045479, -44.940888, 75.500000
10.045479, -44.940888, 75.625000
10.045479, -44.940888, 75.750000
10.045479, -44.940888, 75.875000
10.125205, -45.297562, 76.000000
10.204931, -45.654236, 76.125000
10.125205, -45.297562, 76.250000
10.125205, -45.297562, 76.375000
10.125205, -45.297562, 76.500000
10.204931, -45.654236, 76.625000
10.204931, -45.654236, 76.750000
10.204931, -45.654236, 76.875000
10.284657, -46.010909, 77.000000
10.284657, -46.010909, 77.125000
10.284657, -46.010909, 77.250000
10.284657, -46.010909, 77.375000
10.284657, -46.010909, 77.500000
10.364383, -46.367583, 77.625000
10.364383, -46.367583, 77.750000
10.364383, -46.367583, 77.875000
10.364383, -46.367583, 78.000000
10.364383, -46.367583, 78.125000
10.444109, -46.724257, 78.250000
10.444109, -46.724257, 78.375000
10.444109, -46.724257, 78.500000
10.444109, -46.724257, 78.625000
10.523835, -47.080930, 78.750000
10.523835, -47.080930, 78.875000
10.523835, -47.080930, 79.000000
10.523835, -47.080930, 79.125000
10.603561, -47.437604, 79.250000
10.603561, -47.437604, 79.375000
10.603561, -47.437604, 79.500000
10.603561, -47.437604, 79.625000
10.603561, -47.437604, 79.750000
10.683287, -47.794278, 79.875000
10.683287, -47.794278, 80.000000
10.683287, -47.794278, 80.125000
10.763013, -48.150952, 80.250000
10.763013, -48.150952, 80.375000
10.763013, -48.150952, 80.500000
10.763013, -48.150952, 80.625000
10.763013, -48.150952, 80.750000
10.842739, -48.507625, 80.875000
10.842739, -48.507625, 81.000000
10.842739, -48.507625, 81.125000
10.842739, -48.507625, 81.250000
10.922465, -48.864299, 81.375000
10.922465, -48.864299, 81.500000
10.922465, -48.864299, 81.625000
11.002191, -49.220973, 81.750000
10.922465, -48.864299, 81.875000
10.922465, -48.864299, 82.000000
11.002191, -49.220973, 82.125000
11.002191, -49.220973, 82.250000
11.002191, -49.220973, 82.375000
11.081917, -49.577646, 82.500000
11.002191, -49.220973, 82.625000
11.081917, -49.577646, 82.750000
11.081917, -49.577646, 82.875000
11.081917, -49.577646, 83.000000
11.161643, -49.934320, 83.125000
11.081917, -49.577646, 83.250000
11.161643, -49.934320, 83.375000
11.161643, -49.934320, 83.500000
11.161643, -49.934320, 83.625000
11.161643, -49.934320, 83.750000
11.241369, -50.290994, 83.875000
11.321095, -50.647668, 84.000000
11.321095, -50.647668, 84.125000
11.241369, -50.290994, 84.250000
11.241369, -50.290994, 84.375000
11.321095, -50.647668, 84.500000
11.321095, -50.647668, 84.625000
11.400821, -51.004341, 84.750000
11.321095, -50.647668, 84.875000
11.321095, -50.647668, 85.000000
11.321095, -50.647668, 85.125000
11.400821, -51.004341, 85.250000
11.321095, -50.647668, 85.375000
11.400821, -51.004341, 85.500000
11.480547, -51.361015, 85.625000
11.400821, -51.004341, 85.750000
13.075067, -58.494489, 103.000000
13.075067, -58.494489, 103.125000
13.154793, -58.851163, 103.375000
13.154793, -58.851163, 103.500000
13.473698, -60.277858, 103.625000
13.473698, -60.277858, 103.750000
13.553424, -60.634532, 104.000000
9.634348, -37.523307, 11.750000
9.634348, -37.523307, 11.875000
9.634348, -37.523307, 12.000000
9.634348, -37.523307, 12.125000
9.634348, -37.523307, 12.250000
9.634348, -37.523307, 12.375000
9.634348, -37.523307, 12.500000
9.543458, -37.169314, 12.625000
9.634348, -37.523307, 12.750000
9.634348, -37.523307, 12.875000
9.543458, -37.169314, 13.000000
9.543458, -37.169314, 13.125000
9.543458, -37.169314, 13.250000
9.452568, -36.815320, 13.375000
9.452568, -36.815320, 13.500000
9.452568, -36.815320, 13.625000
9.452568, -36.815320, 13.750000
9.361678, -36.461327, 13.875000
9.361678, -36.461327, 14.000000
9.361678, -36.461327, 14.125000
9.361678, -36.461327, 14.250000
9.361678, -36.461327, 14.375000
9.270787, -36.107333, 14.500000
9.270787, -36.107333, 14.625000
9.270787, -36.107333, 14.750000
9.270787, -36.107333, 14.875000
9.270787, -36.107333, 15.000000
9.270787, -36.107333, 15.125000
9.270787, -36.107333, 15.250000
9.179897, -35.753340, 15.375000
9.270787, -36.107333, 15.500000
9.270787, -36.107333, 15.625000
9.270787, -36.107333, 15.750000
9.179897, -35.753340, 15.875000
9.179897, -35.753340, 16.000000
9.179897, -35.753340, 16.125000
9.179897, -35.753340, 16.250000
9.179897, -35.753340, 16.375000
9.179897, -35.753340, 16.500000
9.179897, -35.753340, 16.625000
9.179897, -35.753340, 16.750000
9.179897, -35.753340, 16.875000
9.089007, -35.399346, 17.000000
9.089007, -35.399346, 17.125000
9.089007, -35.399346, 17.250000
9.089007, -35.399346, 17.375000
9.089007, -35.399346, 17.500000
8.998117, -35.045353, 17.625000
8.998117, -35.045353, 17.750000
8.998117, -35.045353, 17.875000
8.998117, -35.045353, 18.000000
8.998117, -35.045353, 18.125000
8.998117, -35.045353, 18.250000
8.998117, -35.045353, 18.375000
8.998117, -35.045353, 18.500000
8.998117, -35.045353, 18.625000
8.907227, -34.691359, 18.750000
8.907227, -34.691359, 18.875000
8.907227, -34.691359, 19.000000
8.907227, -34.691359, 19.125000
8.907227, -34.691359, 19.250000
8.907227, -34.691359, 19.375000
8.907227, -34.691359, 19.500000
8.907227, -34.691359, 19.625000
8.907227, -34.691359, 19.750000
8.907227, -34.691359, 19.875000
8.907227, -34.691359, 20.000000
8.816337, -34.337366, 20.125000
8.816337, -34.337366, 20.250000
8.816337, -34.337366, 20.375000
8.816337, -34.337366, 20.500000
8.816337, -34.337366, 20.625000
8.816337, -34.337366, 20.750000
8.816337, -34.337366, 20.875000
8.816337, -34.337366, 21.000000
8.816337, -34.337366, 21.125000
8.725447, -33.983373, 21.250000
8.725447, -33.983373, 21.375000
8.725447, -33.983373, 21.500000
8.725447, -33.983373, 21.625000
8.725447, -33.983373, 21.750000
8.725447, -33.983373, 21.875000
8.725447, -33.983373, 22.000000
8.634557, -33.629379, 22.125000
8.634557, -33.629379, 22.250000
8.634557, -33.629379, 22.375000
8.634557, -33.629379, 22.500000
8.725447, -33.983373, 22.625000
8.634557, -33.629379, 22.750000
8.634557, -33.629379, 22.875000
8.543667, -33.275386, 23.000000
8.543667, -33.275386, 23.125000
8.543667, -33.275386, 23.250000
8.543667, -33.275386, 23.375000
8.543667, -33.275386, 23.500000
8.543667, -33.275386, 23.625000
8.543667, -33.275386, 23.750000
8.543667, -33.275386, 23.875000
8.543667, -33.275386, 24.000000
8.452777, -32.921392, 24.125000
8.452777, -32.921392, 24.250000
8.452777, -32.921392, 24.375000
8.543667, -33.275386, 24.500000
8.452777, -32.921392, 24.625000
8.452777, -32.921392, 24.750000
8.361887, -32.567399, 24.875000
8.361887, -32.567399, 25.000000
8.452777, -32.921392, 25.125000
8.361887, -32.567399, 25.250000
8.361887, -32.567399, 25.375000
8.361887, -32.567399, 25.500000
8.361887, -32.567399, 25.625000
8.361887, -32.567399, 25.750000
8.361887, -32.567399, 25.875000
8.452777, -32.921392, 26.000000
8.270997, -32.213405, 26.125000
8.361887, -32.567399, 26.250000
8.270997, -32.213405, 26.375000
8.361887, -32.567399, 26.500000
8.270997, -32.213405, 26.625000
8.270997, -32.213405, 26.750000
8.270997, -32.213405, 26.875000
8.270997, -32.213405, 27.000000
8.270997, -32.213405, 27.125000
8.270997, -32.213405, 27.250000
8.270997, -32.213405, 27.375000
8.270997, -32.213405, 27.500000
8.270997, -32.213405, 27.625000
8.270997, -32.213405, 27.750000
8.270997, -32.213405, 27.875000
8.270997, -32.213405, 28.000000
8.180107, -31.859412, 28.125000
8.180107, -31.859412, 28.250000
8.180107, -31.859412, 28.375000
8.180107, -31.859412, 28.500000
8.180107, -31.859412, 28.625000
8.180107, -31.859412, 28.750000
8.180107, -31.859412, 28.875000
8.180107, -31.859412, 29.000000
8.180107, -31.859412, 29.125000
8.180107, -31.859412, 29.250000
8.089217, -31.505418, 29.375000
8.089217, -31.505418, 29.500000
8.089217, -31.505418, 29.625000
8.089217, -31.505418, 29.750000
8.089217, -31.505418, 29.875000
8.089217, -31.505418, 30.000000
8.089217, -31.505418, 30.125000
8.089217, -31.505418, 30.250000
8.089217, -31.505418, 30.375000
7.998326, -31.151425, 30.500000
7.998326, -31.151425, 30.625000
7.998326, -31.151425, 30.750000
7.998326, -31.151425, 30.875000
7.998326, -31.151425, 31.000000
7.998326, -31.151425, 31.125000
7.998326, -31.151425, 31.250000
7.998326, -31.151425, 31.375000
7.998326, -31.151425, 31.500000
7.998326, -31.151425, 31.625000
7.907436, -30.797431, 31.750000
7.907436, -30.797431, 31.875000
7.907436, -30.797431, 32.000000
7.907436, -30.797431, 32.125000
7.907436, -30.797431, 32.250000
7.907436, -30.797431, 32.375000
7.907436, -30.797431, 32.500000
7.907436, -30.797431, 32.625000
7.816546, -30.443438, 32.750000
7.907436, -30.797431, 32.875000
7.816546, -30.443438, 33.000000
7.816546, -30.443438, 33.125000
7.816546, -30.443438, 33.250000
7.816546, -30.443438, 33.375000
7.816546, -30.443438, 33.500000
7.907436, -30.797431, 33.625000
7.816546, -30.443438, 33.750000
7.907436, -30.797431, 33.875000
7.816546, -30.443438, 34.000000
7.816546, -30.443438, 34.125000
7.816546, -30.443438, 34.250000
7.725656, -30.089444, 34.375000
7.816546, -30.443438, 34.500000
7.816546, -30.443438, 34.625000
7.816546, -30.443438, 34.750000
7.816546, -30.443438, 34.875000
7.816546, -30.443438, 35.000000
7.725656, -30.089444, 35.125000
7.725656, -30.089444, 35.250000
7.725656, -30.089444, 35.375000
7.725656, -30.089444, 35.500000
7.725656, -30.089444, 35.625000
7.725656, -30.089444, 35.750000
7.725656, -30.089444, 35.875000
7.725656, -30.089444, 36.000000
7.634766, -29.735451, 36.125000
7.634766, -29.735451, 36.250000
7.634766, -29.735451, 36.375000
7.634766, -29.735451, 36.500000
7.634766, -29.735451, 36.625000
7.634766, -29.735451, 36.750000
7.634766, -29.735451, 36.875000
7.634766, -29.735451, 37.000000
7.634766, -29.735451, 37.125000
7.634766, -29.735451, 37.250000
7.634766, -29.735451, 37.375000
7.543876, -29.381457, 37.500000
7.543876, -29.381457, 37.625000
7.543876, -29.381457, 37.750000
7.543876, -29.381457, 37.875000
7.634766, -29.735451, 38.000000
7.543876, -29.381457, 38.125000
7.543876, -29.381457, 38.250000
7.543876, -29.381457, 38.375000
7.452986, -29.027464, 38.500000
7.634766, -29.735451, 38.625000
7.452986, -29.027464, 38.750000
7.452986, -29.027464, 38.875000
7.452986, -29.027464, 39.000000
7.452986, -29.027464, 39.125000
7.452986, -29.027464, 39.250000
7.452986, -29.027464, 39.375000
7.452986, -29.027464, 39.500000
7.452986, -29.027464, 39.625000
7.452986, -29.027464, 39.750000
7.543876, -29.381457, 39.875000
7.362096, -28.673471, 40.000000
7.362096, -28.673471, 40.125000
7.362096, -28.673471, 40.250000
7.362096, -28.673471, 40.375000
7.362096, -28.673471, 40.500000
7.362096, -28.673471, 40.625000
7.362096, -28.673471, 40.750000
7.362096, -28.673471, 40.875000
7.362096, -28.673471, 41.000000
7.362096, -28.673471, 41.125000
7.271206, -28.319477, 41.250000
7.362096, -28.673471, 41.375000
7.271206, -28.319477, 41.500000
7.271206, -28.319477, 41.625000
7.271206, -28.319477, 41.750000
7.271206, -28.319477, 41.875000
7.271206, -28.319477, 42.000000
7.271206, -28.319477, 42.125000
7.271206, -28.319477, 42.250000
7.271206, -28.319477, 42.375000
7.271206, -28.319477, 42.500000
7.271206, -28.319477, 42.625000
7.271206, -28.319477, 42.750000
7.271206, -28.319477, 42.875000
7.180316, -27.965484, 43.000000
7.180316, -27.965484, 43.125000
7.271206, -28.319477, 43.250000
7.271206, -28.319477, 43.375000
7.180316, -27.965484, 43.500000
7.180316, -27.965484, 43.625000
7.180316, -27.965484, 43.750000
7.180316, -27.965484, 43.875000
7.180316, -27.965484, 44.000000
7.180316, -27.965484, 44.125000
7.180316, -27.965484, 44.250000
7.089426, -27.611490, 44.375000
7.180316, -27.965484, 44.500000
7.089426, -27.611490, 44.625000
7.089426, -27.611490, 44.750000
7.180316, -27.965484, 44.875000
7.089426, -27.611490, 45.000000
7.180316, -27.965484, 45.125000
7.089426, -27.611490, 45.250000
7.089426, -27.611490, 45.375000
7.089426, -27.611490, 45.500000
7.089426, -27.611490, 45.625000
7.089426, -27.611490, 45.750000
7.089426, -27.611490, 45.875000
7.089426, -27.611490, 46.000000
6.998536, -27.257497, 46.125000
7.089426, -27.611490, 46.250000
6.998536, -27.257497, 46.375000
6.998536, -27.257497, 46.500000
6.998536, -27.257497, 46.625000
6.998536, -27.257497, 46.750000
6.998536, -27.257497, 46.875000
6.998536, -27.257497, 47.000000
6.998536, -27.257497, 47.125000
6.998536, -27.257497, 47.250000
6.998536, -27.257497, 47.375000
6.998536, -27.257497, 47.500000
6.998536, -27.257497, 47.625000
6.998536, -27.257497, 47.750000
6.907646, -26.903503, 47.875000
6.998536, -27.257497, 48.000000
6.998536, -27.257497, 48.125000
6.907646, -26.903503, 48.250000
6.998536, -27.257497, 48.375000
6.907646, -26.903503, 48.500000
6.998536, -27.257497, 48.625000
6.998536, -27.257497, 48.750000
6.907646, -26.903503, 48.875000
6.998536, -27.257497, 49.000000
6.907646, -26.903503, 49.125000
6.907646, -26.903503, 49.250000
6.907646, -26.903503, 49.375000
6.998536, -27.257497, 49.500000
6.907646, -26.903503, 49.625000
6.998536, -27.257497, 49.750000
6.998536, -27.257497, 49.875000
6.998536, -27.257497, 50.000000
6.998536, -27.257497, 50.125000
6.998536, -27.257497, 50.250000
7.089426, -27.611490, 50.375000
7.089426, -27.611490, 50.500000
7.180316, -27.965484, 50.625000
7.180316, -27.965484, 50.750000
7.089426, -27.611490, 50.875000
7.089426, -27.611490, 51.000000
7.180316, -27.965484, 51.125000
7.271206, -28.319477, 51.250000
7.180316, -27.965484, 51.375000
7.271206, -28.319477, 51.500000
7.180316, -27.965484, 51.625000
7.362096, -28.673471, 51.750000
7.271206, -28.319477, 51.875000
7.271206, -28.319477, 52.000000
7.362096, -28.673471, 52.125000
7.362096, -28.673471, 52.250000
7.362096, -28.673471, 52.375000
7.362096, -28.673471, 52.500000
7.362096, -28.673471, 52.625000
7.543876, -29.381457, 52.750000
7.452986, -29.027464, 52.875000
7.452986, -29.027464, 53.000000
7.452986, -29.027464, 53.125000
7.452986, -29.027464, 53.250000
7.543876, -29.381457, 53.375000
7.634766, -29.735451, 53.500000
7.543876, -29.381457, 53.625000
7.634766, -29.735451, 53.750000
7.634766, -29.735451, 53.875000
7.634766, -29.735451, 54.000000
7.634766, -29.735451, 54.125000
7.725656, -30.089444, 54.250000
7.725656, -30.089444, 54.375000
7.725656, -30.089444, 54.500000
7.816546, -30.443438, 54.625000
7.816546, -30.443438, 54.750000
7.816546, -30.443438, 54.875000
7.816546, -30.443438, 55.000000
7.816546, -30.443438, 55.125000
7.816546, -30.443438, 55.250000
7.907436, -30.797431, 55.375000
7.907436, -30.797431, 55.500000
7.907436, -30.797431, 55.625000
7.998326, -31.151425, 55.750000
7.998326, -31.151425, 55.875000
7.998326, -31.151425, 56.000000
7.998326, -31.151425, 56.125000
7.998326, -31.151425, 56.250000
8.089217, -31.505418, 56.375000
8.089217, -31.505418, 56.500000
8.089217, -31.505418, 56.625000
8.089217, -31.505418, 56.750000
8.180107, -31.859412, 56.875000
8.180107, -31.859412, 57.000000
8.180107, -31.859412, 57.125000
8.270997, -32.213405, 57.250000
8.270997, -32.213405, 57.375000
8.270997, -32.213405, 57.500000
8.270997, -32.213405, 57.625000
8.270997, -32.213405, 57.750000
8.361887, -32.567399, 57.875000
8.452777, -32.921392, 58.000000
8.361887, -32.567399, 58.125000
8.452777, -32.921392, 58.250000
8.452777, -32.921392, 58.375000
8.543667, -33.275386, 58.500000
8.452777, -32.921392, 58.625000
8.452777, -32.921392, 58.750000
8.452777, -32.921392, 58.875000
8.452777, -32.921392, 59.000000
8.543667, -33.275386, 59.125000
8.543667, -33.275386, 59.250000
8.634557, -33.629379, 59.375000
8.725447, -33.983373, 59.500000
8.634557, -33.629379, 59.625000
8.634557, -33.629379, 59.750000
8.634557, -33.629379, 59.875000
8.634557, -33.629379, 60.000000
8.725447, -33.983373, 60.125000
8.725447, -33.983373, 60.250000
8.725447, -33.983373, 60.375000
8.725447, -33.983373, 60.500000
8.816337, -34.337366, 60.625000
8.816337, -34.337366, 60.750000
8.816337, -34.337366, 60.875000
8.816337, -34.337366, 61.000000
8.907227, -34.691359, 61.125000
8.998117, -35.045353, 61.250000
8.998117, -35.045353, 61.375000
8.907227, -34.691359, 61.500000
8.907227, -34.691359, 61.625000
8.998117, -35.045353, 61.750000
8.998117, -35.045353, 61.875000
8.998117, -35.045353, 62.000000
8.998117, -35.045353, 62.125000
9.179897, -35.753340, 62.250000
9.089007, -35.399346, 62.375000
9.179897, -35.753340, 62.500000
9.270787, -36.107333, 62.625000
9.179897, -35.753340, 62.750000
9.179897, -35.753340, 62.875000
9.179897, -35.753340, 63.000000
9.270787, -36.107333, 63.125000
9.270787, -36.107333, 63.250000
9.270787, -36.107333, 63.375000
9.361678, -36.461327, 63.500000
9.452568, -36.815320, 63.625000
9.361678, -36.461327, 63.750000
9.361678, -36.461327, 63.875000
9.361678, -36.461327, 64.000000
9.452568, -36.815320, 64.125000
9.543458, -37.169314, 64.250000
9.452568, -36.815320, 64.375000
9.452568, -36.815320, 64.500000
9.543458, -37.169314, 64.625000
9.634348, -37.523307, 64.750000
9.634348, -37.523307, 64.875000
9.543458, -37.169314, 65.000000
9.543458, -37.169314, 65.125000
9.543458, -37.169314, 65.250000
9.725238, -37.877301, 65.375000
9.634348, -37.523307, 65.500000
9.634348, -37.523307, 65.625000
9.725238, -37.877301, 65.750000
9.725238, -37.877301, 65.875000
9.725238, -37.877301, 66.000000
9.816128, -38.231294, 66.125000
9.816128, -38.231294, 66.250000
9.816128, -38.231294, 66.375000
9.816128, -38.231294, 66.500000
9.816128, -38.231294, 66.625000
9.907018, -38.585288, 66.750000
9.907018, -38.585288, 66.875000
9.907018, -38.585288, 67.000000
9.907018, -38.585288, 67.125000
9.997908, -38.939281, 67.250000
9.997908, -38.939281, 67.375000
9.997908, -38.939281, 67.500000
9.997908, -38.939281, 67.625000
9.997908, -38.939281, 67.750000
9.997908, -38.939281, 67.875000
10.088798, -39.293274, 68.000000
10.088798, -39.293274, 68.125000
10.088798, -39.293274, 68.250000
10.179688, -39.647268, 68.375000
10.179688, -39.647268, 68.500000
10.179688, -39.647268, 68.625000
10.179688, -39.647268, 68.750000
10.179688, -39.647268, 68.875000
10.270578, -40.001261, 69.000000
10.270578, -40.001261, 69.125000
10.270578, -40.001261, 69.250000
10.361468, -40.355255, 69.375000
10.361468, -40.355255, 69.500000
10.361468, -40.355255, 69.625000
10.361468, -40.355255, 69.750000
10.452358, -40.709248, 69.875000
10.452358, -40.709248, 70.000000
10.452358, -40.709248, 70.125000
10.452358, -40.709248, 70.250000
10.543249, -41.063242, 70.375000
10.543249, -41.063242, 70.500000
10.543249, -41.063242, 70.625000
10.634139, -41.417235, 70.750000
10.543249, -41.063242, 70.875000
10.634139, -41.417235, 71.000000
10.634139, -41.417235, 71.125000
10.634139, -41.417235, 71.250000
10.725029, -41.771229, 71.375000
10.725029, -41.771229, 71.500000
10.725029, -41.771229, 71.625000
10.725029, -41.771229, 71.750000
10.815919, -42.125222, 71.875000
10.815919, -42.125222, 72.000000
10.815919, -42.125222, 72.125000
10.815919, -42.125222, 72.250000
10.906809, -42.479216, 72.375000
10.906809, -42.479216, 72.500000
10.906809, -42.479216, 72.625000
10.906809, -42.479216, 72.750000
10.906809, -42.479216, 72.875000
10.997699, -42.833209, 73.000000
10.997699, -42.833209, 73.125000
10.997699, -42.833209, 73.250000
10.997699, -42.833209, 73.375000
11.088589, -43.187203, 73.500000
11.088589, -43.187203, 73.625000
11.088589, -43.187203, 73.750000
11.088589, -43.187203, 73.875000
11.179479, -43.541196, 74.000000
11.179479, -43.541196, 74.125000
11.179479, -43.541196, 74.250000
11.270369, -43.895189, 74.375000
11.270369, -43.895189, 74.500000
11.179479, -43.541196, 74.625000
11.270369, -43.895189, 74.750000
11.270369, -43.895189, 74.875000
11.361259, -44.249183, 75.000000
11.361259, -44.249183, 75.125000
11.361259, -44.249183, 75.250000
11.361259, -44.249183, 75.375000
11.361259, -44.249183, 75.500000
11.452149, -44.603176, 75.625000
11.452149, -44.603176, 75.750000
11.452149, -44.603176, 75.875000
11.452149, -44.603176, 76.000000
11.452149, -44.603176, 76.125000
11.543039, -44.957170, 76.250000
11.543039, -44.957170, 76.375000
11.543039, -44.957170, 76.500000
11.633929, -45.311163, 76.625000
11.633929, -45.311163, 76.750000
11.633929, -45.311163, 76.875000
11.724819, -45.665157, 77.000000
11.724819, -45.665157, 77.125000
11.724819, -45.665157, 77.250000
11.724819, -45.665157, 77.375000
11.724819, -45.665157, 77.500000
11.815710, -46.019150, 77.625000
11.815710, -46.019150, 77.750000
11.815710, -46.019150, 77.875000
11.906600, -46.373144, 78.000000
11.906600, -46.373144, 78.125000
11.906600, -46.373144, 78.250000
11.906600, -46.373144, 78.375000
11.906600, -46.373144, 78.500000
11.906600, -46.373144, 78.625000
11.906600, -46.373144, 78.750000
11.997490, -46.727137, 78.875000
11.997490, -46.727137, 79.000000
11.997490, -46.727137, 79.125000
11.997490, -46.727137, 79.250000
11.997490, -46.727137, 79.375000
12.088380, -47.081131, 79.500000
12.088380, -47.081131, 79.625000
12.088380, -47.081131, 79.750000
12.179270, -47.435124, 79.875000
12.179270, -47.435124, 80.000000
12.179270, -47.435124, 80.125000
12.179270, -47.435124, 80.250000
12.179270, -47.435124, 80.375000
12.270160, -47.789118, 80.500000
12.270160, -47.789118, 80.625000
12.270160, -47.789118, 80.750000
12.270160, -47.789118, 80.875000
12.270160, -47.789118, 81.000000
12.361050, -48.143111, 81.125000
12.361050, -48.143111, 81.250000
12.361050, -48.143111, 81.375000
12.361050, -48.143111, 81.500000
12.451940, -48.497105, 81.625000
12.451940, -48.497105, 81.750000
12.451940, -48.497105, 81.875000
12.451940, -48.497105, 82.000000
12.542830, -48.851098, 82.125000
12.542830, -48.851098, 82.250000
12.542830, -48.851098, 82.375000
12.542830, -48.851098, 82.500000
12.633720, -49.205091, 82.625000
12.633720, -49.205091, 82.750000
12.633720, -49.205091, 82.875000
12.633720, -49.205091, 83.000000
12.633720, -49.205091, 83.125000
12.633720, -49.205091, 83.250000
12.633720, -49.205091, 83.375000
12.724610, -49.559085, 83.500000
12.724610, -49.559085, 83.625000
12.815500, -49.913078, 83.750000
12.815500, -49.913078, 83.875000
12.815500, -49.913078, 84.000000
12.815500, -49.913078, 84.125000
12.815500, -49.913078, 84.250000
12.815500, -49.913078, 84.375000
12.815500, -49.913078, 84.500000
12.906390, -50.267072, 84.625000
12.906390, -50.267072, 84.750000
12.815500, -49.913078, 84.875000
12.906390, -50.267072, 85.000000
12.906390, -50.267072, 85.125000
12.906390, -50.267072, 85.250000
12.997280, -50.621065, 85.375000
12.997280, -50.621065, 85.500000
14.905972, -58.054928, 102.875000
14.905972, -58.054928, 103.000000
14.905972, -58.054928, 103.125000
14.996862, -58.408921, 103.375000
14.996862, -58.408921, 103.500000
15.360422, -59.824895, 103.750000
15.451312, -60.178889, 103.875000
15.451312, -60.178889, 104.000000
10.808229, -37.202169, 11.750000
10.808229, -37.202169, 11.875000
10.910194, -37.553133, 12.000000
10.910194, -37.553133, 12.125000
10.910194, -37.553133, 12.250000
10.910194, -37.553133, 12.375000
10.910194, -37.553133, 12.500000
10.910194, -37.553133, 12.625000
10.808229, -37.202169, 12.750000
10.808229, -37.202169, 12.875000
10.808229, -37.202169, 13.000000
10.706265, -36.851206, 13.125000
10.706265, -36.851206, 13.250000
10.706265, -36.851206, 13.375000
10.604301, -36.500242, 13.500000
10.604301, -36.500242, 13.625000
10.706265, -36.851206, 13.750000
10.604301, -36.500242, 13.875000
10.604301, -36.500242, 14.000000
10.604301, -36.500242, 14.125000
10.502336, -36.149278, 14.250000
10.604301, -36.500242, 14.375000
10.502336, -36.149278, 14.500000
10.502336, -36.149278, 14.625000
10.502336, -36.149278, 14.750000
10.502336, -36.149278, 14.875000
10.502336, -36.149278, 15.000000
10.502336, -36.149278, 15.125000
10.400372, -35.798314, 15.250000
10.400372, -35.798314, 15.375000
10.502336, -36.149278, 15.500000
10.502336, -36.149278, 15.625000
10.400372, -35.798314, 15.750000
10.400372, -35.798314, 15.875000
10.400372, -35.798314, 16.000000
10.400372, -35.798314, 16.125000
10.298407, -35.447350, 16.250000
10.298407, -35.447350, 16.375000
10.298407, -35.447350, 16.500000
10.298407, -35.447350, 16.625000
10.298407, -35.447350, 16.750000
10.298407, -35.447350, 16.875000
10.196443, -35.096386, 17.000000
10.196443, -35.096386, 17.125000
10.196443, -35.096386, 17.250000
10.196443, -35.096386, 17.375000
10.196443, -35.096386, 17.500000
10.196443, -35.096386, 17.625000
10.196443, -35.096386, 17.750000
10.196443, -35.096386, 17.875000
10.094478, -34.745422, 18.000000
10.094478, -34.745422, 18.125000
10.094478, -34.745422, 18.250000
10.094478, -34.745422, 18.375000
10.094478, -34.745422, 18.500000
10.094478, -34.745422, 18.625000
10.094478, -34.745422, 18.750000
10.094478, -34.745422, 18.875000
10.196443, -35.096386, 19.000000
10.094478, -34.745422, 19.125000
10.094478, -34.745422, 19.250000
10.094478, -34.745422, 19.375000
10.094478, -34.745422, 19.500000
10.094478, -34.745422, 19.625000
10.094478, -34.745422, 19.750000
10.094478, -34.745422, 19.875000
9.992514, -34.394459, 20.000000
9.992514, -34.394459, 20.125000
9.992514, -34.394459, 20.250000
9.890550, -34.043495, 20.375000
9.890550, -34.043495, 20.500000
9.890550, -34.043495, 20.625000
9.890550, -34.043495, 20.750000
9.890550, -34.043495, 20.875000
9.890550, -34.043495, 21.000000
9.788585, -33.692531, 21.125000
9.788585, -33.692531, 21.250000
9.788585, -33.692531, 21.375000
9.788585, -33.692531, 21.500000
9.788585, -33.692531, 21.625000
9.788585, -33.692531, 21.750000
9.788585, -33.692531, 21.875000
9.788585, -33.692531, 22.000000
9.788585, -33.692531, 22.125000
9.788585, -33.692531, 22.250000
9.686621, -33.341567, 22.375000
9.686621, -33.341567, 22.500000
9.686621, -33.341567, 22.625000
9.686621, -33.341567, 22.750000
9.686621, -33.341567, 22.875000
9.686621, -33.341567, 23.000000
9.686621, -33.341567, 23.125000
9.686621, -33.341567, 23.250000
9.686621, -33.341567, 23.375000
9.686621, -33.341567, 23.500000
9.584656, -32.990603, 23.625000
9.584656, -32.990603, 23.750000
9.584656, -32.990603, 23.875000
9.584656, -32.990603, 24.000000
9.584656, -32.990603, 24.125000
9.482692, -32.639639, 24.250000
9.482692, -32.639639, 24.375000
9.482692, -32.639639, 24.500000
9.482692, -32.639639, 24.625000
9.584656, -32.990603, 24.750000
9.482692, -32.639639, 24.875000
9.482692, -32.639639, 25.000000
9.482692, -32.639639, 25.125000
9.482692, -32.639639, 25.250000
9.482692, -32.639639, 25.375000
9.482692, -32.639639, 25.500000
9.482692, -32.639639, 25.625000
9.482692, -32.639639, 25.750000
9.380727, -32.288675, 25.875000
9.380727, -32.288675, 26.000000
9.380727, -32.288675, 26.125000
9.380727, -32.288675, 26.250000
9.380727, -32.288675, 26.375000
9.380727, -32.288675, 26.500000
9.380727, -32.288675, 26.625000
9.380727, -32.288675, 26.750000
9.278763, -31.937712, 26.875000
9.380727, -32.288675, 27.000000
9.380727, -32.288675, 27.125000
9.380727, -32.288675, 27.250000
9.278763, -31.937712, 27.375000
9.278763, -31.937712, 27.500000
9.278763, -31.937712, 27.625000
9.380727, -32.288675, 27.750000
9.278763, -31.937712, 27.875000
9.278763, -31.937712, 28.000000
9.278763, -31.937712, 28.125000
9.278763, -31.937712, 28.250000
9.176799, -31.586748, 28.375000
9.278763, -31.937712, 28.500000
9.176799, -31.586748, 28.625000
9.176799, -31.586748, 28.750000
9.176799, -31.586748, 28.875000
9.176799, -31.586748, 29.000000
9.176799, -31.586748, 29.125000
9.176799, -31.586748, 29.250000
9.176799, -31.586748, 29.375000
9.278763, -31.937712, 29.500000
9.176799, -31.586748, 29.625000
9.176799, -31.586748, 29.750000
9.176799, -31.586748, 29.875000
9.176799, -31.586748, 30.000000
9.074834, -31.235784, 30.125000
9.074834, -31.235784, 30.250000
9.074834, -31.235784, 30.375000
9.074834, -31.235784, 30.500000
9.074834, -31.235784, 30.625000
9.074834, -31.235784, 30.750000
9.074834, -31.235784, 30.875000
9.074834, -31.235784, 31.000000
9.074834, -31.235784, 31.125000
8.972870, -30.884820, 31.250000
8.972870, -30.884820, 31.375000
8.972870, -30.884820, 31.500000
8.972870, -30.884820, 31.625000
8.972870, -30.884820, 31.750000
8.972870, -30.884820, 31.875000
8.870905, -30.533856, 32.000000
8.972870, -30.884820, 32.125000
8.972870, -30.884820, 32.250000
8.972870, -30.884820, 32.375000
8.972870, -30.884820, 32.500000
8.870905, -30.533856, 32.625000
8.870905, -30.533856, 32.750000
8.870905, -30.533856, 32.875000
8.870905, -30.533856, 33.000000
8.870905, -30.533856, 33.125000
8.870905, -30.533856, 33.250000
8.870905, -30.533856, 33.375000
8.870905, -30.533856, 33.500000
8.870905, -30.533856, 33.625000
8.972870, -30.884820, 33.750000
8.768941, -30.182892, 33.875000
8.768941, -30.182892, 34.000000
8.870905, -30.533856, 34.125000
8.768941, -30.182892, 34.250000
8.768941, -30.182892, 34.375000
8.768941, -30.182892, 34.500000
8.768941, -30.182892, 34.625000
8.768941, -30.182892, 34.750000
8.768941, -30.182892, 34.875000
8.768941, -30.182892, 35.000000
8.768941, -30.182892, 35.125000
8.768941, -30.182892, 35.250000
8.768941, -30.182892, 35.375000
8.768941, -30.182892, 35.500000
8.666976, -29.831928, 35.625000
8.666976, -29.831928, 35.750000
8.666976, -29.831928, 35.875000
8.666976, -29.831928, 36.000000
8.666976, -29.831928, 36.125000
8.768941, -30.182892, 36.250000
8.666976, -29.831928, 36.375000
8.666976, -29.831928, 36.500000
8.565012, -29.480964, 36.625000
8.565012, -29.480964, 36.750000
8.565012, -29.480964, 36.875000
8.565012, -29.480964, 37.000000
8.565012, -29.480964, 37.125000
8.565012, -29.480964, 37.250000
8.565012, -29.480964, 37.375000
8.565012, -29.480964, 37.500000
8.565012, -29.480964, 37.625000
8.666976, -29.831928, 37.750000
8.565012, -29.480964, 37.875000
8.463048, -29.130001, 38.000000
8.565012, -29.480964, 38.125000
8.565012, -29.480964, 38.250000
8.565012, -29.480964, 38.375000
8.463048, -29.130001, 38.500000
8.463048, -29.130001, 38.625000
8.463048, -29.130001, 38.750000
8.463048, -29.130001, 38.875000
8.463048, -29.130001, 39.000000
8.463048, -29.130001, 39.125000
8.463048, -29.130001, 39.250000
8.463048, -29.130001, 39.375000
8.463048, -29.130001, 39.500000
8.463048, -29.130001, 39.625000
8.361083, -28.779037, 39.750000
8.361083, -28.779037, 39.875000
8.361083, -28.779037, 40.000000
8.463048, -29.130001, 40.125000
8.361083, -28.779037, 40.250000
8.361083, -28.779037, 40.375000
8.361083, -28.779037, 40.500000
8.361083, -28.779037, 40.625000
8.361083, -28.779037, 40.750000
8.361083, -28.779037, 40.875000
8.259119, -28.428073, 41.000000
8.259119, -28.428073, 41.125000
8.259119, -28.428073, 41.250000
8.259119, -28.428073, 41.375000
8.259119, -28.428073, 41.500000
8.259119, -28.428073, 41.625000
8.259119, -28.428073, 41.750000
8.259119, -28.428073, 41.875000
8.259119, -28.428073, 42.000000
8.259119, -28.428073, 42.125000
8.157154, -28.077109, 42.250000
8.157154, -28.077109, 42.375000
8.157154, -28.077109, 42.500000
8.157154, -28.077109, 42.625000
8.157154, -28.077109, 42.750000
8.157154, -28.077109, 42.875000
8.157154, -28.077109, 43.000000
8.157154, -28.077109, 43.125000
8.055190, -27.726145, 43.250000
8.055190, -27.726145, 43.375000
8.055190, -27.726145, 43.500000
8.055190, -27.726145, 43.625000
8.055190, -27.726145, 43.750000
8.055190, -27.726145, 43.875000
8.157154, -28.077109, 44.000000
8.157154, -28.077109, 44.125000
8.055190, -27.726145, 44.250000
8.055190, -27.726145, 44.375000
8.055190, -27.726145, 44.500000
8.055190, -27.726145, 44.625000
8.055190, -27.726145, 44.750000
8.055190, -27.726145, 44.875000
8.055190, -27.726145, 45.000000
8.055190, -27.726145, 45.125000
8.055190, -27.726145, 45.250000
8.055190, -27.726145, 45.375000
7.953225, -27.375181, 45.500000
7.953225, -27.375181, 45.625000
7.953225, -27.375181, 45.750000
7.953225, -27.375181, 45.875000
7.953225, -27.375181, 46.000000
7.953225, -27.375181, 46.125000
7.953225, -27.375181, 46.250000
7.953225, -27.375181, 46.375000
7.953225, -27.375181, 46.500000
7.851261, -27.024217, 46.625000
7.953225, -27.375181, 46.750000
7.953225, -27.375181, 46.875000
7.851261, -27.024217, 47.000000
7.851261, -27.024217, 47.125000
7.851261, -27.024217, 47.250000
7.851261, -27.024217, 47.375000
7.953225, -27.375181, 47.500000
7.851261, -27.024217, 47.625000
7.851261, -27.024217, 47.750000
7.851261, -27.024217, 47.875000
7.851261, -27.024217, 48.000000
7.851261, -27.024217, 48.125000
7.851261, -27.024217, 48.250000
7.749297, -26.673254, 48.375000
7.851261, -27.024217, 48.500000
7.851261, -27.024217, 48.625000
7.851261, -27.024217, 48.750000
7.749297, -26.673254, 48.875000
7.851261, -27.024217, 49.000000
7.851261, -27.024217, 49.125000
7.851261, -27.024217, 49.250000
7.749297, -26.673254, 49.375000
7.749297, -26.673254, 49.500000
7.851261, -27.024217, 49.625000
7.851261, -27.024217, 49.750000
7.851261, -27.024217, 49.875000
7.851261, -27.024217, 50.000000
7.851261, -27.024217, 50.125000
7.953225, -27.375181, 50.250000
7.953225, -27.375181, 50.375000
7.953225, -27.375181, 50.500000
7.953225, -27.375181, 50.625000
7.953225, -27.375181, 50.750000
7.953225, -27.375181, 50.875000
8.055190, -27.726145, 51.000000
8.055190, -27.726145, 51.125000
8.157154, -28.077109, 51.250000
8.157154, -28.077109, 51.375000
8.157154, -28.077109, 51.500000
8.259119, -28.428073, 51.625000
8.157154, -28.077109, 51.750000
8.259119, -28.428073, 51.875000
8.259119, -28.428073, 52.000000
8.259119, -28.428073, 52.125000
8.361083, -28.779037, 52.250000
8.259119, -28.428073, 52.375000
8.361083, -28.779037, 52.500000
8.361083, -28.779037, 52.625000
8.361083, -28.779037, 52.750000
8.361083, -28.779037, 52.875000
8.361083, -28.779037, 53.000000
8.361083, -28.779037, 53.125000
8.463048, -29.130001, 53.250000
8.463048, -29.130001, 53.375000
8.463048, -29.130001, 53.500000
8.565012, -29.480964, 53.625000
8.565012, -29.480964, 53.750000
8.565012, -29.480964, 53.875000
8.565012, -29.480964, 54.000000
8.666976, -29.831928, 54.125000
8.768941, -30.182892, 54.250000
8.768941, -30.182892, 54.375000
8.666976, -29.831928, 54.500000
8.768941, -30.182892, 54.625000
8.768941, -30.182892, 54.750000
8.768941, -30.182892, 54.875000
8.870905, -30.533856, 55.000000
8.870905, -30.533856, 55.125000
8.870905, -30.533856, 55.250000
8.870905, -30.533856, 55.375000
8.870905, -30.533856, 55.500000
8.972870, -30.884820, 55.625000
8.972870, -30.884820, 55.750000
8.972870, -30.884820, 55.875000
8.972870, -30.884820, 56.000000
8.972870, -30.884820, 56.125000
8.972870, -30.884820, 56.250000
9.074834, -31.235784, 56.375000
9.074834, -31.235784, 56.500000
9.176799, -31.586748, 56.625000
9.176799, -31.586748, 56.750000
9.176799, -31.586748, 56.875000
9.176799, -31.586748, 57.000000
9.176799, -31.586748, 57.125000
9.278763, -31.937712, 57.250000
9.380727, -32.288675, 57.375000
9.278763, -31.937712, 57.500000
9.278763, -31.937712, 57.625000
9.278763, -31.937712, 57.750000
9.380727, -32.288675, 57.875000
9.380727, -32.288675, 58.000000
9.482692, -32.639639, 58.125000
9.482692, -32.639639, 58.250000
9.482692, -32.639639, 58.375000
9.482692, -32.639639, 58.500000
9.482692, -32.639639, 58.625000
9.482692, -32.639639, 58.750000
9.482692, -32.639639, 58.875000
9.584656, -32.990603, 59.000000
9.584656, -32.990603, 59.125000
9.686621, -33.341567, 59.250000
9.686621, -33.341567, 59.375000
9.686621, -33.341567, 59.500000
9.686621, -33.341567, 59.625000
9.788585, -33.692531, 59.750000
9.788585, -33.692531, 59.875000
9.686621, -33.341567, 60.000000
9.788585, -33.692531, 60.125000
9.788585, -33.692531, 60.250000
9.890550, -34.043495, 60.375000
9.890550, -34.043495, 60.500000
9.890550, -34.043495, 60.625000
9.890550, -34.043495, 60.750000
9.890550, -34.043495, 60.875000
9.890550, -34.043495, 61.000000
9.992514, -34.394459, 61.125000
9.992514, -34.394459, 61.250000
9.992514, -34.394459, 61.375000
9.992514, -34.394459, 61.500000
9.992514, -34.394459, 61.625000
10.196443, -35.096386, 61.750000
10.196443, -35.096386, 61.875000
10.298407, -35.447350, 62.000000
10.196443, -35.096386, 62.125000
10.298407, -35.447350, 62.250000
10.298407, -35.447350, 62.375000
10.298407, -35.447350, 62.500000
10.400372, -35.798314, 62.625000
10.400372, -35.798314, 62.750000
10.400372, -35.798314, 62.875000
10.400372, -35.798314, 63.000000
10.400372, -35.798314, 63.125000
10.502336, -36.149278, 63.250000
10.400372, -35.798314, 63.375000
10.502336, -36.149278, 63.500000
10.502336, -36.149278, 63.625000
10.502336, -36.149278, 63.750000
10.604301, -36.500242, 63.875000
10.502336, -36.149278, 64.000000
10.604301, -36.500242, 64.125000
10.604301, -36.500242, 64.250000
10.706265, -36.851206, 64.375000
10.706265, -36.851206, 64.500000
10.706265, -36.851206, 64.625000
10.706265, -36.851206, 64.750000
10.706265, -36.851206, 64.875000
10.808229, -37.202169, 65.000000
10.808229, -37.202169, 65.125000
10.910194, -37.553133, 65.250000
10.808229, -37.202169, 65.375000
10.910194, -37.553133, 65.500000
10.910194, -37.553133, 65.625000
10.910194, -37.553133, 65.750000
10.910194, -37.553133, 65.875000
11.012158, -37.904097, 66.000000
11.012158, -37.904097, 66.125000
11.012158, -37.904097, 66.250000
11.114123, -38.255061, 66.375000
11.114123, -38.255061, 66.500000
11.114123, -38.255061, 66.625000
11.114123, -38.255061, 66.750000
11.216087, -38.606025, 66.875000
11.114123, -38.255061, 67.000000
11.114123, -38.255061, 67.125000
11.216087, -38.606025, 67.250000
11.216087, -38.606025, 67.375000
11.216087, -38.606025, 67.500000
11.216087, -38.606025, 67.625000
11.318052, -38.956989, 67.750000
11.318052, -38.956989, 67.875000
11.318052, -38.956989, 68.000000
11.318052, -38.956989, 68.125000
11.318052, -38.956989, 68.250000
11.420016, -39.307953, 68.375000
11.420016, -39.307953, 68.500000
11.420016, -39.307953, 68.625000
11.420016, -39.307953, 68.750000
11.420016, -39.307953, 68.875000
11.521980, -39.658917, 69.000000
11.623945, -40.009880, 69.125000
11.623945, -40.009880, 69.250000
11.623945, -40.009880, 69.375000
11.623945, -40.009880, 69.500000
11.725909, -40.360844, 69.625000
11.725909, -40.360844, 69.750000
11.725909, -40.360844, 69.875000
11.725909, -40.360844, 70.000000
11.827874, -40.711808, 70.125000
11.725909, -40.360844, 70.250000
11.827874, -40.711808, 70.375000
11.827874, -40.711808, 70.500000
11.929838, -41.062772, 70.625000
11.929838, -41.062772, 70.750000
11.929838, -41.062772, 70.875000
11.929838, -41.062772, 71.000000
11.929838, -41.062772, 71.125000
12.031802, -41.413736, 71.250000
12.031802, -41.413736, 71.375000
12.031802, -41.413736, 71.500000
12.133767, -41.764700, 71.625000
12.031802, -41.413736, 71.750000
12.031802, -41.413736, 71.875000
12.133767, -41.764700, 72.000000
12.235731, -42.115664, 72.125000
12.235731, -42.115664, 72.250000
12.235731, -42.115664, 72.375000
12.235731, -42.115664, 72.500000
12.235731, -42.115664, 72.625000
12.235731, -42.115664, 72.750000
12.337696, -42.466627, 72.875000
12.337696, -42.466627, 73.000000
12.337696, -42.466627, 73.125000
12.337696, -42.466627, 73.250000
12.439660, -42.817591, 73.375000
12.439660, -42.817591, 73.500000
12.439660, -42.817591, 73.625000
12.439660, -42.817591, 73.750000
12.541625, -43.168555, 73.875000
12.541625, -43.168555, 74.000000
12.541625, -43.168555, 74.125000
12.541625, -43.168555, 74.250000
12.541625, -43.168555, 74.375000
12.541625, -43.168555, 74.500000
12.643589, -43.519519, 74.625000
12.643589, -43.519519, 74.750000
12.643589, -43.519519, 74.875000
12.745553, -43.870483, 75.000000
12.745553, -43.870483, 75.125000
12.745553, -43.870483, 75.250000
12.745553, -43.870483, 75.375000
12.847518, -44.221447, 75.500000
12.847518, -44.221447, 75.625000
12.847518, -44.221447, 75.750000
12.847518, -44.221447, 75.875000
