28.382598, 20.621165, 14.875000
28.250586, 20.525252, 15.000000
28.250586, 20.525252, 15.125000
28.250586, 20.525252, 15.250000
27.986562, 20.333428, 15.375000
27.986562, 20.333428, 15.500000
28.118574, 20.429340, 15.625000
27.854550, 20.237515, 15.750000
27.986562, 20.333428, 15.875000
27.854550, 20.237515, 16.000000
27.854550, 20.237515, 16.125000
27.854550, 20.237515, 16.250000
27.854550, 20.237515, 16.375000
27.722538, 20.141603, 16.500000
27.722538, 20.141603, 16.625000
27.722538, 20.141603, 16.750000
27.590526, 20.045690, 16.875000
27.590526, 20.045690, 17.000000
27.590526, 20.045690, 17.125000
27.458514, 19.949778, 17.250000
27.458514, 19.949778, 17.375000
27.458514, 19.949778, 17.500000
27.458514, 19.949778, 17.625000
27.326502, 19.853866, 17.750000
27.326502, 19.853866, 17.875000
27.326502, 19.853866, 18.000000
27.194490, 19.757953, 18.125000
27.194490, 19.757953, 18.250000
27.194490, 19.757953, 18.375000
27.062477, 19.662041, 18.500000
27.062477, 19.662041, 18.625000
27.062477, 19.662041, 18.750000
26.930465, 19.566128, 18.875000
26.930465, 19.566128, 19.000000
26.930465, 19.566128, 19.125000
26.930465, 19.566128, 19.250000
26.930465, 19.566128, 19.375000
26.798453, 19.470216, 19.500000
26.798453, 19.470216, 19.625000
26.798453, 19.470216, 19.750000
26.666441, 19.374304, 19.875000
26.666441, 19.374304, 20.000000
26.666441, 19.374304, 20.125000
26.666441, 19.374304, 20.250000
26.534429, 19.278391, 20.375000
26.534429, 19.278391, 20.500000
26.534429, 19.278391, 20.625000
26.534429, 19.278391, 20.750000
26.402417, 19.182479, 20.875000
26.402417, 19.182479, 21.000000
26.402417, 19.182479, 21.125000
26.402417, 19.182479, 21.250000
26.270405, 19.086566, 21.375000
26.270405, 19.086566, 21.500000
26.270405, 19.086566, 21.625000
26.270405, 19.086566, 21.750000
26.270405, 19.086566, 21.875000
26.138393, 18.990654, 22.000000
26.006381, 18.894742, 22.125000
26.138393, 18.990654, 22.250000
26.138393, 18.990654, 22.375000
26.006381, 18.894742, 22.500000
25.874369, 18.798829, 22.625000
25.874369, 18.798829, 22.750000
25.874369, 18.798829, 22.875000
25.742357, 18.702917, 23.000000
25.742357, 18.702917, 23.125000
25.742357, 18.702917, 23.250000
25.742357, 18.702917, 23.375000
25.610345, 18.607004, 23.500000
25.610345, 18.607004, 23.625000
25.610345, 18.607004, 23.750000
25.610345, 18.607004, 23.875000
25.478332, 18.511092, 24.000000
25.478332, 18.511092, 24.125000
25.346320, 18.415180, 24.250000
25.346320, 18.415180, 24.375000
25.346320, 18.415180, 24.500000
25.346320, 18.415180, 24.625000
25.346320, 18.415180, 24.750000
25.214308, 18.319267, 24.875000
25.214308, 18.319267, 25.000000
25.214308, 18.319267, 25.125000
25.214308, 18.319267, 25.250000
25.082296, 18.223355, 25.375000
25.082296, 18.223355, 25.500000
25.082296, 18.223355, 25.625000
24.950284, 18.127442, 25.750000
24.950284, 18.127442, 25.875000
24.950284, 18.127442, 26.000000
24.818272, 18.031530, 26.125000
24.818272, 18.031530, 26.250000
24.818272, 18.031530, 26.375000
24.818272, 18.031530, 26.500000
24.818272, 18.031530, 26.625000
24.686260, 17.935618, 26.750000
24.686260, 17.935618, 26.875000
24.686260, 17.935618, 27.000000
24.686260, 17.935618, 27.125000
24.554248, 17.839705, 27.250000
24.554248, 17.839705, 27.375000
24.554248, 17.839705, 27.500000
24.554248, 17.839705, 27.625000
24.422236, 17.743793, 27.750000
24.422236, 17.743793, 27.875000
24.422236, 17.743793, 28.000000
24.422236, 17.743793, 28.125000
24.290224, 17.647881, 28.250000
24.290224, 17.647881, 28.375000
24.290224, 17.647881, 28.500000
24.290224, 17.647881, 28.625000
24.158212, 17.551968, 28.750000
24.158212, 17.551968, 28.875000
24.158212, 17.551968, 29.000000
24.158212, 17.551968, 29.125000
24.026200, 17.456056, 29.250000
24.026200, 17.456056, 29.375000
24.026200, 17.456056, 29.500000
23.894187, 17.360143, 29.625000
23.894187, 17.360143, 29.750000
23.894187, 17.360143, 29.875000
23.894187, 17.360143, 30.000000
23.894187, 17.360143, 30.125000
23.762175, 17.264231, 30.250000
23.762175, 17.264231, 30.375000
23.630163, 17.168319, 30.500000
23.630163, 17.168319, 30.625000
23.630163, 17.168319, 30.750000
23.630163, 17.168319, 30.875000
23.630163, 17.168319, 31.000000
23.498151, 17.072406, 31.125000
23.498151, 17.072406, 31.250000
23.498151, 17.072406, 31.375000
23.366139, 16.976494, 31.500000
23.366139, 16.976494, 31.625000
23.366139, 16.976494, 31.750000
23.366139, 16.976494, 31.875000
23.366139, 16.976494, 32.000000
23.234127, 16.880581, 32.125000
23.234127, 16.880581, 32.250000
23.234127, 16.880581, 32.375000
23.102115, 16.784669, 32.500000
23.102115, 16.784669, 32.625000
23.102115, 16.784669, 32.750000
23.102115, 16.784669, 32.875000
22.970103, 16.688757, 33.000000
22.970103, 16.688757, 33.125000
22.970103, 16.688757, 33.250000
22.838091, 16.592844, 33.375000
22.838091, 16.592844, 33.500000
22.838091, 16.592844, 33.625000
22.838091, 16.592844, 33.750000
22.706079, 16.496932, 33.875000
22.706079, 16.496932, 34.000000
22.706079, 16.496932, 34.125000
22.706079, 16.496932, 34.250000
22.574067, 16.401019, 34.375000
22.574067, 16.401019, 34.500000
22.574067, 16.401019, 34.625000
22.574067, 16.401019, 34.750000
22.442054, 16.305107, 34.875000
22.442054, 16.305107, 35.000000
22.442054, 16.305107, 35.125000
22.310042, 16.209195, 35.250000
22.310042, 16.209195, 35.375000
22.310042, 16.209195, 35.500000
22.310042, 16.209195, 35.625000
22.310042, 16.209195, 35.750000
22.178030, 16.113282, 35.875000
22.178030, 16.113282, 36.000000
22.178030, 16.113282, 36.125000
22.178030, 16.113282, 36.250000
22.046018, 16.017370, 36.375000
22.046018, 16.017370, 36.500000
22.046018, 16.017370, 36.625000
21.914006, 15.921457, 36.750000
21.914006, 15.921457, 36.875000
21.914006, 15.921457, 37.000000
21.781994, 15.825545, 37.125000
21.781994, 15.825545, 37.250000
21.781994, 15.825545, 37.375000
21.781994, 15.825545, 37.500000
21.649982, 15.729633, 37.625000
21.649982, 15.729633, 37.750000
21.649982, 15.729633, 37.875000
21.649982, 15.729633, 38.000000
21.517970, 15.633720, 38.125000
21.517970, 15.633720, 38.250000
21.517970, 15.633720, 38.375000
21.517970, 15.633720, 38.500000
21.385958, 15.537808, 38.625000
21.385958, 15.537808, 38.750000
21.385958, 15.537808, 38.875000
21.253946, 15.441895, 39.000000
21.253946, 15.441895, 39.125000
21.253946, 15.441895, 39.250000
21.253946, 15.441895, 39.375000
21.121934, 15.345983, 39.500000
21.121934, 15.345983, 39.625000
21.121934, 15.345983, 39.750000
21.121934, 15.345983, 39.875000
20.989922, 15.250071, 40.000000
20.989922, 15.250071, 40.125000
20.989922, 15.250071, 40.250000
20.989922, 15.250071, 40.375000
20.857909, 15.154158, 40.500000
20.857909, 15.154158, 40.625000
20.857909, 15.154158, 40.750000
20.857909, 15.154158, 40.875000
20.857909, 15.154158, 41.000000
20.725897, 15.058246, 41.125000
20.725897, 15.058246, 41.250000
20.725897, 15.058246, 41.375000
20.725897, 15.058246, 41.500000
20.593885, 14.962333, 41.625000
20.593885, 14.962333, 41.750000
20.593885, 14.962333, 41.875000
20.593885, 14.962333, 42.000000
20.461873, 14.866421, 42.125000
20.461873, 14.866421, 42.250000
20.461873, 14.866421, 42.375000
20.329861, 14.770509, 42.500000
20.329861, 14.770509, 42.625000
20.329861, 14.770509, 42.750000
20.329861, 14.770509, 42.875000
20.329861, 14.770509, 43.000000
20.197849, 14.674596, 43.125000
20.197849, 14.674596, 43.250000
20.197849, 14.674596, 43.375000
20.065837, 14.578684, 43.500000
20.065837, 14.578684, 43.625000
20.065837, 14.578684, 43.750000
19.933825, 14.482772, 43.875000
19.933825, 14.482772, 44.000000
19.933825, 14.482772, 44.125000
19.933825, 14.482772, 44.250000
19.933825, 14.482772, 44.375000
19.801813, 14.386859, 44.500000
19.801813, 14.386859, 44.625000
19.801813, 14.386859, 44.750000
19.801813, 14.386859, 44.875000
19.801813, 14.386859, 45.000000
19.669801, 14.290947, 45.125000
19.669801, 14.290947, 45.250000
19.669801, 14.290947, 45.375000
19.669801, 14.290947, 45.500000
19.537789, 14.195034, 45.625000
19.537789, 14.195034, 45.750000
19.537789, 14.195034, 45.875000
19.405777, 14.099122, 46.000000
19.405777, 14.099122, 46.125000
19.405777, 14.099122, 46.250000
19.405777, 14.099122, 46.375000
19.273764, 14.003210, 46.500000
19.273764, 14.003210, 46.625000
19.273764, 14.003210, 46.750000
19.273764, 14.003210, 46.875000
19.141752, 13.907297, 47.000000
19.141752, 13.907297, 47.125000
19.141752, 13.907297, 47.250000
19.009740, 13.811385, 47.375000
19.009740, 13.811385, 47.500000
19.009740, 13.811385, 47.625000
19.009740, 13.811385, 47.750000
18.877728, 13.715472, 47.875000
18.877728, 13.715472, 48.000000
18.877728, 13.715472, 48.125000
18.877728, 13.715472, 48.250000
18.877728, 13.715472, 48.375000
18.877728, 13.715472, 48.500000
18.877728, 13.715472, 48.625000
19.009740, 13.811385, 48.750000
19.009740, 13.811385, 48.875000
19.141752, 13.907297, 49.000000
19.141752, 13.907297, 49.125000
19.141752, 13.907297, 49.250000
19.273764, 14.003210, 49.375000
19.273764, 14.003210, 49.500000
19.273764, 14.003210, 49.625000
19.405777, 14.099122, 49.750000
19.405777, 14.099122, 49.875000
19.405777, 14.099122, 50.000000
19.537789, 14.195034, 50.125000
19.537789, 14.195034, 50.250000
19.669801, 14.290947, 50.375000
19.669801, 14.290947, 50.500000
19.801813, 14.386859, 50.625000
19.801813, 14.386859, 50.750000
19.933825, 14.482772, 50.875000
19.933825, 14.482772, 51.000000
19.933825, 14.482772, 51.125000
20.065837, 14.578684, 51.250000
20.065837, 14.578684, 51.375000
20.197849, 14.674596, 51.500000
20.197849, 14.674596, 51.625000
20.197849, 14.674596, 51.750000
20.329861, 14.770509, 51.875000
20.329861, 14.770509, 52.000000
20.461873, 14.866421, 52.125000
20.461873, 14.866421, 52.250000
20.593885, 14.962333, 52.375000
20.593885, 14.962333, 52.500000
20.593885, 14.962333, 52.625000
20.725897, 15.058246, 52.750000
20.725897, 15.058246, 52.875000
20.857909, 15.154158, 53.000000
20.857909, 15.154158, 53.125000
20.857909, 15.154158, 53.250000
20.989922, 15.250071, 53.375000
20.989922, 15.250071, 53.500000
21.121934, 15.345983, 53.625000
21.121934, 15.345983, 53.750000
21.121934, 15.345983, 53.875000
21.253946, 15.441895, 54.000000
21.253946, 15.441895, 54.125000
21.385958, 15.537808, 54.250000
21.385958, 15.537808, 54.375000
21.517970, 15.633720, 54.500000
21.517970, 15.633720, 54.625000
21.517970, 15.633720, 54.750000
21.649982, 15.729633, 54.875000
21.649982, 15.729633, 55.000000
21.781994, 15.825545, 55.125000
21.781994, 15.825545, 55.250000
21.781994, 15.825545, 55.375000
21.914006, 15.921457, 55.500000
22.046018, 16.017370, 55.625000
22.046018, 16.017370, 55.750000
22.046018, 16.017370, 55.875000
22.178030, 16.113282, 56.000000
22.178030, 16.113282, 56.125000
22.178030, 16.113282, 56.250000
22.310042, 16.209195, 56.375000
22.442054, 16.305107, 56.500000
22.442054, 16.305107, 56.625000
22.574067, 16.401019, 56.750000
22.574067, 16.401019, 56.875000
22.574067, 16.401019, 57.000000
22.706079, 16.496932, 57.125000
22.706079, 16.496932, 57.250000
22.706079, 16.496932, 57.375000
22.838091, 16.592844, 57.500000
22.838091, 16.592844, 57.625000
22.838091, 16.592844, 57.750000
22.970103, 16.688757, 57.875000
22.970103, 16.688757, 58.000000
22.970103, 16.688757, 58.125000
23.102115, 16.784669, 58.250000
23.234127, 16.880581, 58.375000
23.234127, 16.880581, 58.500000
23.234127, 16.880581, 58.625000
23.366139, 16.976494, 58.750000
23.366139, 16.976494, 58.875000
23.498151, 17.072406, 59.000000
23.498151, 17.072406, 59.125000
23.498151, 17.072406, 59.250000
23.630163, 17.168319, 59.375000
23.630163, 17.168319, 59.500000
23.762175, 17.264231, 59.625000
23.762175, 17.264231, 59.750000
23.762175, 17.264231, 59.875000
23.894187, 17.360143, 60.000000
23.894187, 17.360143, 60.125000
24.026200, 17.456056, 60.250000
24.158212, 17.551968, 60.375000
24.158212, 17.551968, 60.500000
24.158212, 17.551968, 60.625000
24.290224, 17.647881, 60.750000
24.290224, 17.647881, 60.875000
24.422236, 17.743793, 61.000000
24.422236, 17.743793, 61.125000
24.554248, 17.839705, 61.250000
24.554248, 17.839705, 61.375000
24.686260, 17.935618, 61.500000
24.686260, 17.935618, 61.625000
24.686260, 17.935618, 61.750000
24.818272, 18.031530, 61.875000
24.818272, 18.031530, 62.000000
24.818272, 18.031530, 62.125000
24.950284, 18.127442, 62.250000
24.950284, 18.127442, 62.375000
25.214308, 18.319267, 62.500000
25.082296, 18.223355, 62.625000
25.214308, 18.319267, 62.750000
25.214308, 18.319267, 62.875000
25.214308, 18.319267, 63.000000
25.346320, 18.415180, 63.125000
25.346320, 18.415180, 63.250000
25.478332, 18.511092, 63.375000
25.478332, 18.511092, 63.500000
25.478332, 18.511092, 63.625000
25.610345, 18.607004, 63.750000
25.610345, 18.607004, 63.875000
25.610345, 18.607004, 64.000000
25.742357, 18.702917, 64.125000
26.006381, 18.894742, 64.250000
25.874369, 18.798829, 64.375000
25.874369, 18.798829, 64.500000
26.138393, 18.990654, 64.625000
26.006381, 18.894742, 64.750000
26.138393, 18.990654, 64.875000
26.138393, 18.990654, 65.000000
26.138393, 18.990654, 65.125000
26.270405, 19.086566, 65.250000
26.270405, 19.086566, 65.375000
26.402417, 19.182479, 65.500000
26.402417, 19.182479, 65.625000
26.534429, 19.278391, 65.750000
26.534429, 19.278391, 65.875000
26.666441, 19.374304, 66.000000
26.666441, 19.374304, 66.125000
26.666441, 19.374304, 66.250000
26.798453, 19.470216, 66.375000
26.798453, 19.470216, 66.500000
26.798453, 19.470216, 66.625000
26.930465, 19.566128, 66.750000
26.930465, 19.566128, 66.875000
27.062477, 19.662041, 67.000000
27.062477, 19.662041, 67.125000
27.194490, 19.757953, 67.250000
27.194490, 19.757953, 67.375000
27.326502, 19.853866, 67.500000
27.326502, 19.853866, 67.625000
27.458514, 19.949778, 67.750000
27.590526, 20.045690, 67.875000
27.590526, 20.045690, 68.000000
27.590526, 20.045690, 68.125000
27.590526, 20.045690, 68.250000
27.722538, 20.141603, 68.375000
27.722538, 20.141603, 68.500000
27.854550, 20.237515, 68.625000
27.854550, 20.237515, 68.750000
27.986562, 20.333428, 68.875000
27.986562, 20.333428, 69.000000
27.986562, 20.333428, 69.125000
27.986562, 20.333428, 69.250000
28.118574, 20.429340, 69.375000
28.250586, 20.525252, 69.500000
28.250586, 20.525252, 69.625000
28.382598, 20.621165, 69.750000
28.382598, 20.621165, 69.875000
28.382598, 20.621165, 70.000000
28.514610, 20.717077, 70.125000
28.514610, 20.717077, 70.250000
28.646622, 20.812990, 70.375000
28.646622, 20.812990, 70.500000
28.646622, 20.812990, 70.625000
28.910647, 21.004814, 70.750000
28.778635, 20.908902, 70.875000
28.910647, 21.004814, 71.000000
28.910647, 21.004814, 71.125000
29.042659, 21.100727, 71.250000
29.042659, 21.100727, 71.375000
29.042659, 21.100727, 71.500000
29.174671, 21.196639, 71.625000
29.174671, 21.196639, 71.750000
29.306683, 21.292551, 71.875000
29.306683, 21.292551, 72.000000
29.306683, 21.292551, 72.125000
29.438695, 21.388464, 72.250000
29.570707, 21.484376, 72.375000
29.570707, 21.484376, 72.500000
29.570707, 21.484376, 72.625000
29.702719, 21.580289, 72.750000
29.702719, 21.580289, 72.875000
29.834731, 21.676201, 73.000000
29.834731, 21.676201, 73.125000
29.834731, 21.676201, 73.250000
29.966743, 21.772113, 73.375000
29.966743, 21.772113, 73.500000
30.098755, 21.868026, 73.625000
30.098755, 21.868026, 73.750000
30.098755, 21.868026, 73.875000
30.230768, 21.963938, 74.000000
30.230768, 21.963938, 74.125000
30.362780, 22.059851, 74.250000
30.362780, 22.059851, 74.375000
30.362780, 22.059851, 74.500000
30.494792, 22.155763, 74.625000
30.494792, 22.155763, 74.750000
30.626804, 22.251675, 74.875000
30.626804, 22.251675, 75.000000
30.626804, 22.251675, 75.125000
30.758816, 22.347588, 75.250000
30.890828, 22.443500, 75.375000
30.890828, 22.443500, 75.500000
30.890828, 22.443500, 75.625000
30.890828, 22.443500, 75.750000
31.022840, 22.539413, 75.875000
31.022840, 22.539413, 76.000000
31.154852, 22.635325, 76.125000
31.154852, 22.635325, 76.250000
31.286864, 22.731237, 76.375000
31.286864, 22.731237, 76.500000
31.286864, 22.731237, 76.625000
31.418876, 22.827150, 76.750000
31.418876, 22.827150, 76.875000
31.550888, 22.923062, 77.000000
31.550888, 22.923062, 77.125000
31.682900, 23.018975, 77.250000
31.682900, 23.018975, 77.375000
31.682900, 23.018975, 77.500000
31.814913, 23.114887, 77.625000
31.946925, 23.210799, 77.750000
31.946925, 23.210799, 77.875000
31.946925, 23.210799, 78.000000
31.946925, 23.210799, 78.125000
32.078937, 23.306712, 78.250000
32.210949, 23.402624, 78.375000
32.210949, 23.402624, 78.500000
32.210949, 23.402624, 78.625000
32.210949, 23.402624, 78.750000
32.342961, 23.498537, 78.875000
32.474973, 23.594449, 79.000000
32.474973, 23.594449, 79.125000
32.474973, 23.594449, 79.250000
32.606985, 23.690361, 79.375000
32.606985, 23.690361, 79.500000
32.606985, 23.690361, 79.625000
32.606985, 23.690361, 79.750000
32.738997, 23.786274, 79.875000
32.738997, 23.786274, 80.000000
32.871009, 23.882186, 80.125000
32.871009, 23.882186, 80.250000
32.871009, 23.882186, 80.375000
33.003021, 23.978099, 80.500000
33.003021, 23.978099, 80.625000
33.135033, 24.074011, 80.750000
33.003021, 23.978099, 80.875000
33.003021, 23.978099, 81.000000
33.135033, 24.074011, 81.125000
33.003021, 23.978099, 81.250000
27.978735, 21.702532, 14.250000
27.978735, 21.702532, 14.375000
28.107670, 21.802543, 14.500000
28.107670, 21.802543, 14.625000
27.849801, 21.602520, 14.750000
27.849801, 21.602520, 14.875000
27.849801, 21.602520, 15.000000
27.849801, 21.602520, 15.125000
27.720867, 21.502508, 15.250000
27.591933, 21.402497, 15.375000
27.591933, 21.402497, 15.500000
27.720867, 21.502508, 15.625000
27.591933, 21.402497, 15.750000
27.462998, 21.302485, 15.875000
27.462998, 21.302485, 16.000000
27.462998, 21.302485, 16.125000
27.334064, 21.202473, 16.250000
27.334064, 21.202473, 16.375000
27.334064, 21.202473, 16.500000
27.334064, 21.202473, 16.625000
27.205130, 21.102462, 16.750000
27.334064, 21.202473, 16.875000
27.205130, 21.102462, 17.000000
27.205130, 21.102462, 17.125000
27.076195, 21.002450, 17.250000
27.076195, 21.002450, 17.375000
26.947261, 20.902438, 17.500000
26.947261, 20.902438, 17.625000
26.947261, 20.902438, 17.750000
26.947261, 20.902438, 17.875000
26.947261, 20.902438, 18.000000
26.818327, 20.802427, 18.125000
26.818327, 20.802427, 18.250000
26.689393, 20.702415, 18.375000
26.689393, 20.702415, 18.500000
26.689393, 20.702415, 18.625000
26.560458, 20.602403, 18.750000
26.560458, 20.602403, 18.875000
26.560458, 20.602403, 19.000000
26.560458, 20.602403, 19.125000
26.431524, 20.502392, 19.250000
26.431524, 20.502392, 19.375000
26.431524, 20.502392, 19.500000
26.431524, 20.502392, 19.625000
26.302590, 20.402380, 19.750000
26.302590, 20.402380, 19.875000
26.431524, 20.502392, 20.000000
26.302590, 20.402380, 20.125000
26.173656, 20.302368, 20.250000
26.173656, 20.302368, 20.375000
26.173656, 20.302368, 20.500000
26.044721, 20.202357, 20.625000
26.044721, 20.202357, 20.750000
26.173656, 20.302368, 20.875000
26.044721, 20.202357, 21.000000
25.915787, 20.102345, 21.125000
25.915787, 20.102345, 21.250000
25.915787, 20.102345, 21.375000
25.915787, 20.102345, 21.500000
25.915787, 20.102345, 21.625000
25.786853, 20.002333, 21.750000
25.786853, 20.002333, 21.875000
25.657919, 19.902322, 22.000000
25.657919, 19.902322, 22.125000
25.657919, 19.902322, 22.250000
25.657919, 19.902322, 22.375000
25.657919, 19.902322, 22.500000
25.528984, 19.802310, 22.625000
25.528984, 19.802310, 22.750000
25.528984, 19.802310, 22.875000
25.400050, 19.702298, 23.000000
25.400050, 19.702298, 23.125000
25.400050, 19.702298, 23.250000
25.271116, 19.602287, 23.375000
25.271116, 19.602287, 23.500000
25.271116, 19.602287, 23.625000
25.271116, 19.602287, 23.750000
25.142182, 19.502275, 23.875000
25.142182, 19.502275, 24.000000
25.142182, 19.502275, 24.125000
25.013247, 19.402263, 24.250000
25.013247, 19.402263, 24.375000
25.013247, 19.402263, 24.500000
25.013247, 19.402263, 24.625000
25.013247, 19.402263, 24.750000
24.884313, 19.302252, 24.875000
24.884313, 19.302252, 25.000000
24.755379, 19.202240, 25.125000
24.755379, 19.202240, 25.250000
24.755379, 19.202240, 25.375000
24.755379, 19.202240, 25.500000
24.755379, 19.202240, 25.625000
24.626444, 19.102228, 25.750000
24.626444, 19.102228, 25.875000
24.626444, 19.102228, 26.000000
24.497510, 19.002217, 26.125000
24.497510, 19.002217, 26.250000
24.497510, 19.002217, 26.375000
24.368576, 18.902205, 26.500000
24.368576, 18.902205, 26.625000
24.368576, 18.902205, 26.750000
24.368576, 18.902205, 26.875000
24.239642, 18.802193, 27.000000
24.239642, 18.802193, 27.125000
24.239642, 18.802193, 27.250000
24.239642, 18.802193, 27.375000
24.110707, 18.702182, 27.500000
24.110707, 18.702182, 27.625000
24.110707, 18.702182, 27.750000
24.110707, 18.702182, 27.875000
24.110707, 18.702182, 28.000000
23.981773, 18.602170, 28.125000
23.981773, 18.602170, 28.250000
23.981773, 18.602170, 28.375000
23.852839, 18.502158, 28.500000
23.852839, 18.502158, 28.625000
23.852839, 18.502158, 28.750000
23.852839, 18.502158, 28.875000
23.723905, 18.402147, 29.000000
23.723905, 18.402147, 29.125000
23.723905, 18.402147, 29.250000
23.723905, 18.402147, 29.375000
23.723905, 18.402147, 29.500000
23.594970, 18.302135, 29.625000
23.594970, 18.302135, 29.750000
23.594970, 18.302135, 29.875000
23.466036, 18.202123, 30.000000
23.466036, 18.202123, 30.125000
23.337102, 18.102112, 30.250000
23.337102, 18.102112, 30.375000
23.337102, 18.102112, 30.500000
23.337102, 18.102112, 30.625000
23.337102, 18.102112, 30.750000
23.208168, 18.002100, 30.875000
23.208168, 18.002100, 31.000000
23.208168, 18.002100, 31.125000
23.208168, 18.002100, 31.250000
23.208168, 18.002100, 31.375000
23.079233, 17.902088, 31.500000
23.079233, 17.902088, 31.625000
23.079233, 17.902088, 31.750000
22.950299, 17.802077, 31.875000
22.950299, 17.802077, 32.000000
22.950299, 17.802077, 32.125000
22.950299, 17.802077, 32.250000
22.950299, 17.802077, 32.375000
22.821365, 17.702065, 32.500000
22.821365, 17.702065, 32.625000
22.821365, 17.702065, 32.750000
22.692430, 17.602053, 32.875000
22.692430, 17.602053, 33.000000
22.692430, 17.602053, 33.125000
22.563496, 17.502042, 33.250000
22.563496, 17.502042, 33.375000
22.563496, 17.502042, 33.500000
22.563496, 17.502042, 33.625000
22.563496, 17.502042, 33.750000
22.434562, 17.402030, 33.875000
22.434562, 17.402030, 34.000000
22.305628, 17.302018, 34.125000
22.305628, 17.302018, 34.250000
22.305628, 17.302018, 34.375000
22.305628, 17.302018, 34.500000
22.176693, 17.202007, 34.625000
22.176693, 17.202007, 34.750000
22.176693, 17.202007, 34.875000
22.176693, 17.202007, 35.000000
22.047759, 17.101995, 35.125000
22.047759, 17.101995, 35.250000
22.047759, 17.101995, 35.375000
22.047759, 17.101995, 35.500000
22.047759, 17.101995, 35.625000
21.918825, 17.001983, 35.750000
21.918825, 17.001983, 35.875000
21.918825, 17.001983, 36.000000
21.789891, 16.901972, 36.125000
21.789891, 16.901972, 36.250000
21.789891, 16.901972, 36.375000
21.660956, 16.801960, 36.500000
21.660956, 16.801960, 36.625000
21.660956, 16.801960, 36.750000
21.660956, 16.801960, 36.875000
21.660956, 16.801960, 37.000000
21.532022, 16.701948, 37.125000
21.532022, 16.701948, 37.250000
21.532022, 16.701948, 37.375000
21.403088, 16.601937, 37.500000
21.403088, 16.601937, 37.625000
21.403088, 16.601937, 37.750000
21.274154, 16.501925, 37.875000
21.274154, 16.501925, 38.000000
21.274154, 16.501925, 38.125000
21.274154, 16.501925, 38.250000
21.145219, 16.401913, 38.375000
21.145219, 16.401913, 38.500000
21.145219, 16.401913, 38.625000
21.145219, 16.401913, 38.750000
21.145219, 16.401913, 38.875000
21.016285, 16.301902, 39.000000
21.016285, 16.301902, 39.125000
21.016285, 16.301902, 39.250000
20.887351, 16.201890, 39.375000
20.887351, 16.201890, 39.500000
20.887351, 16.201890, 39.625000
20.758417, 16.101878, 39.750000
20.758417, 16.101878, 39.875000
20.758417, 16.101878, 40.000000
20.758417, 16.101878, 40.125000
20.629482, 16.001867, 40.250000
20.629482, 16.001867, 40.375000
20.629482, 16.001867, 40.500000
20.629482, 16.001867, 40.625000
20.629482, 16.001867, 40.750000
20.500548, 15.901855, 40.875000
20.500548, 15.901855, 41.000000
20.500548, 15.901855, 41.125000
20.371614, 15.801843, 41.250000
20.371614, 15.801843, 41.375000
20.371614, 15.801843, 41.500000
20.371614, 15.801843, 41.625000
20.242679, 15.701832, 41.750000
20.242679, 15.701832, 41.875000
20.242679, 15.701832, 42.000000
20.242679, 15.701832, 42.125000
20.113745, 15.601820, 42.250000
20.113745, 15.601820, 42.375000
20.113745, 15.601820, 42.500000
20.113745, 15.601820, 42.625000
19.984811, 15.501808, 42.750000
19.984811, 15.501808, 42.875000
19.984811, 15.501808, 43.000000
19.984811, 15.501808, 43.125000
19.855877, 15.401797, 43.250000
19.855877, 15.401797, 43.375000
19.855877, 15.401797, 43.500000
19.855877, 15.401797, 43.625000
19.726942, 15.301785, 43.750000
19.726942, 15.301785, 43.875000
19.598008, 15.201773, 44.000000
19.598008, 15.201773, 44.125000
19.598008, 15.201773, 44.250000
19.598008, 15.201773, 44.375000
19.598008, 15.201773, 44.500000
19.469074, 15.101762, 44.625000
19.469074, 15.101762, 44.750000
19.469074, 15.101762, 44.875000
19.469074, 15.101762, 45.000000
19.340140, 15.001750, 45.125000
19.340140, 15.001750, 45.250000
19.340140, 15.001750, 45.375000
19.340140, 15.001750, 45.500000
19.211205, 14.901738, 45.625000
19.211205, 14.901738, 45.750000
19.211205, 14.901738, 45.875000
19.211205, 14.901738, 46.000000
19.082271, 14.801727, 46.125000
19.082271, 14.801727, 46.250000
19.082271, 14.801727, 46.375000
19.082271, 14.801727, 46.500000
18.953337, 14.701715, 46.625000
18.953337, 14.701715, 46.750000
18.953337, 14.701715, 46.875000
18.824403, 14.601703, 47.000000
18.824403, 14.601703, 47.125000
18.824403, 14.601703, 47.250000
18.824403, 14.601703, 47.375000
18.695468, 14.501692, 47.500000
18.824403, 14.601703, 47.625000
18.695468, 14.501692, 47.750000
18.566534, 14.401680, 47.875000
18.566534, 14.401680, 48.000000
18.566534, 14.401680, 48.125000
18.566534, 14.401680, 48.250000
18.566534, 14.401680, 48.375000
18.566534, 14.401680, 48.500000
18.566534, 14.401680, 48.625000
18.695468, 14.501692, 48.750000
18.695468, 14.501692, 48.875000
18.695468, 14.501692, 49.000000
18.824403, 14.601703, 49.125000
18.824403, 14.601703, 49.250000
18.953337, 14.701715, 49.375000
18.953337, 14.701715, 49.500000
19.082271, 14.801727, 49.625000
18.953337, 14.701715, 49.750000
19.082271, 14.801727, 49.875000
19.082271, 14.801727, 50.000000
19.211205, 14.901738, 50.125000
19.211205, 14.901738, 50.250000
19.340140, 15.001750, 50.375000
19.340140, 15.001750, 50.500000
19.469074, 15.101762, 50.625000
19.469074, 15.101762, 50.750000
19.469074, 15.101762, 50.875000
19.598008, 15.201773, 51.000000
19.598008, 15.201773, 51.125000
19.726942, 15.301785, 51.250000
19.726942, 15.301785, 51.375000
19.855877, 15.401797, 51.500000
19.726942, 15.301785, 51.625000
19.855877, 15.401797, 51.750000
19.855877, 15.401797, 51.875000
19.984811, 15.501808, 52.000000
19.984811, 15.501808, 52.125000
20.113745, 15.601820, 52.250000
20.242679, 15.701832, 52.375000
20.242679, 15.701832, 52.500000
20.242679, 15.701832, 52.625000
20.242679, 15.701832, 52.750000
20.371614, 15.801843, 52.875000
20.500548, 15.901855, 53.000000
20.500548, 15.901855, 53.125000
20.500548, 15.901855, 53.250000
20.629482, 16.001867, 53.375000
20.629482, 16.001867, 53.500000
20.758417, 16.101878, 53.625000
20.758417, 16.101878, 53.750000
20.758417, 16.101878, 53.875000
20.887351, 16.201890, 54.000000
20.887351, 16.201890, 54.125000
20.887351, 16.201890, 54.250000
21.016285, 16.301902, 54.375000
21.016285, 16.301902, 54.500000
21.145219, 16.401913, 54.625000
21.145219, 16.401913, 54.750000
21.274154, 16.501925, 54.875000
21.274154, 16.501925, 55.000000
21.274154, 16.501925, 55.125000
21.403088, 16.601937, 55.250000
21.403088, 16.601937, 55.375000
21.532022, 16.701948, 55.500000
21.532022, 16.701948, 55.625000
21.660956, 16.801960, 55.750000
21.660956, 16.801960, 55.875000
21.660956, 16.801960, 56.000000
21.789891, 16.901972, 56.125000
21.789891, 16.901972, 56.250000
21.918825, 17.001983, 56.375000
21.918825, 17.001983, 56.500000
22.047759, 17.101995, 56.625000
22.176693, 17.202007, 56.750000
22.047759, 17.101995, 56.875000
22.176693, 17.202007, 57.000000
22.176693, 17.202007, 57.125000
22.305628, 17.302018, 57.250000
22.305628, 17.302018, 57.375000
22.305628, 17.302018, 57.500000
22.563496, 17.502042, 57.625000
22.434562, 17.402030, 57.750000
22.563496, 17.502042, 57.875000
22.692430, 17.602053, 58.000000
22.563496, 17.502042, 58.125000
22.821365, 17.702065, 58.250000
22.692430, 17.602053, 58.375000
22.692430, 17.602053, 58.500000
22.821365, 17.702065, 58.625000
22.821365, 17.702065, 58.750000
22.950299, 17.802077, 58.875000
22.950299, 17.802077, 59.000000
23.208168, 18.002100, 59.125000
23.079233, 17.902088, 59.250000
23.208168, 18.002100, 59.375000
23.208168, 18.002100, 59.500000
23.337102, 18.102112, 59.625000
23.466036, 18.202123, 59.750000
23.337102, 18.102112, 59.875000
23.466036, 18.202123, 60.000000
23.466036, 18.202123, 60.125000
23.594970, 18.302135, 60.250000
23.594970, 18.302135, 60.375000
23.723905, 18.402147, 60.500000
23.723905, 18.402147, 60.625000
23.723905, 18.402147, 60.750000
23.852839, 18.502158, 60.875000
23.981773, 18.602170, 61.000000
23.981773, 18.602170, 61.125000
23.981773, 18.602170, 61.250000
24.110707, 18.702182, 61.375000
24.110707, 18.702182, 61.500000
24.239642, 18.802193, 61.625000
24.239642, 18.802193, 61.750000
24.239642, 18.802193, 61.875000
24.239642, 18.802193, 62.000000
24.368576, 18.902205, 62.125000
24.497510, 19.002217, 62.250000
24.497510, 19.002217, 62.375000
24.497510, 19.002217, 62.500000
24.626444, 19.102228, 62.625000
24.626444, 19.102228, 62.750000
24.755379, 19.202240, 62.875000
24.755379, 19.202240, 63.000000
24.884313, 19.302252, 63.125000
24.884313, 19.302252, 63.250000
25.013247, 19.402263, 63.375000
25.013247, 19.402263, 63.500000
25.142182, 19.502275, 63.625000
25.013247, 19.402263, 63.750000
25.271116, 19.602287, 63.875000
25.142182, 19.502275, 64.000000
25.271116, 19.602287, 64.125000
25.271116, 19.602287, 64.250000
25.271116, 19.602287, 64.375000
25.400050, 19.702298, 64.500000
25.400050, 19.702298, 64.625000
25.528984, 19.802310, 64.750000
25.528984, 19.802310, 64.875000
25.528984, 19.802310, 65.000000
25.657919, 19.902322, 65.125000
25.915787, 20.102345, 65.250000
25.786853, 20.002333, 65.375000
25.786853, 20.002333, 65.500000
25.915787, 20.102345, 65.625000
25.915787, 20.102345, 65.750000
25.915787, 20.102345, 65.875000
26.044721, 20.202357, 66.000000
26.044721, 20.202357, 66.125000
26.173656, 20.302368, 66.250000
26.173656, 20.302368, 66.375000
26.173656, 20.302368, 66.500000
26.302590, 20.402380, 66.625000
26.302590, 20.402380, 66.750000
26.431524, 20.502392, 66.875000
26.431524, 20.502392, 67.000000
26.560458, 20.602403, 67.125000
26.560458, 20.602403, 67.250000
26.689393, 20.702415, 67.375000
26.689393, 20.702415, 67.500000
26.818327, 20.802427, 67.625000
26.818327, 20.802427, 67.750000
26.818327, 20.802427, 67.875000
26.947261, 20.902438, 68.000000
26.947261, 20.902438, 68.125000
27.076195, 21.002450, 68.250000
27.076195, 21.002450, 68.375000
27.205130, 21.102462, 68.500000
27.205130, 21.102462, 68.625000
27.334064, 21.202473, 68.750000
27.334064, 21.202473, 68.875000
27.334064, 21.202473, 69.000000
27.334064, 21.202473, 69.125000
27.462998, 21.302485, 69.250000
27.462998, 21.302485, 69.375000
27.591933, 21.402497, 69.500000
27.591933, 21.402497, 69.625000
27.720867, 21.502508, 69.750000
27.720867, 21.502508, 69.875000
27.849801, 21.602520, 70.000000
27.849801, 21.602520, 70.125000
27.849801, 21.602520, 70.250000
27.978735, 21.702532, 70.375000
27.978735, 21.702532, 70.500000
28.107670, 21.802543, 70.625000
28.107670, 21.802543, 70.750000
28.236604, 21.902555, 70.875000
28.236604, 21.902555, 71.000000
28.236604, 21.902555, 71.125000
28.365538, 22.002567, 71.250000
28.365538, 22.002567, 71.375000
28.494472, 22.102578, 71.500000
28.494472, 22.102578, 71.625000
28.623407, 22.202590, 71.750000
28.623407, 22.202590, 71.875000
28.623407, 22.202590, 72.000000
28.752341, 22.302602, 72.125000
28.752341, 22.302602, 72.250000
28.881275, 22.402613, 72.375000
28.881275, 22.402613, 72.500000
28.881275, 22.402613, 72.625000
29.010209, 22.502625, 72.750000
29.010209, 22.502625, 72.875000
29.139144, 22.602637, 73.000000
29.139144, 22.602637, 73.125000
29.268078, 22.702648, 73.250000
29.268078, 22.702648, 73.375000
29.397012, 22.802660, 73.500000
29.397012, 22.802660, 73.625000
29.397012, 22.802660, 73.750000
29.397012, 22.802660, 73.875000
29.525946, 22.902672, 74.000000
29.525946, 22.902672, 74.125000
29.654881, 23.002683, 74.250000
29.654881, 23.002683, 74.375000
29.654881, 23.002683, 74.500000
29.783815, 23.102695, 74.625000
29.783815, 23.102695, 74.750000
29.912749, 23.202707, 74.875000
29.912749, 23.202707, 75.000000
30.041684, 23.302718, 75.125000
30.041684, 23.302718, 75.250000
30.170618, 23.402730, 75.375000
30.170618, 23.402730, 75.500000
30.299552, 23.502742, 75.625000
30.299552, 23.502742, 75.750000
30.299552, 23.502742, 75.875000
30.299552, 23.502742, 76.000000
30.428486, 23.602753, 76.125000
30.428486, 23.602753, 76.250000
30.557421, 23.702765, 76.375000
30.557421, 23.702765, 76.500000
30.686355, 23.802777, 76.625000
30.686355, 23.802777, 76.750000
30.686355, 23.802777, 76.875000
30.815289, 23.902788, 77.000000
30.815289, 23.902788, 77.125000
30.944223, 24.002800, 77.250000
31.073158, 24.102812, 77.375000
30.944223, 24.002800, 77.500000
31.073158, 24.102812, 77.625000
31.073158, 24.102812, 77.750000
31.202092, 24.202823, 77.875000
31.202092, 24.202823, 78.000000
31.202092, 24.202823, 78.125000
31.331026, 24.302835, 78.250000
31.331026, 24.302835, 78.375000
31.459960, 24.402847, 78.500000
31.459960, 24.402847, 78.625000
31.459960, 24.402847, 78.750000
31.588895, 24.502858, 78.875000
31.588895, 24.502858, 79.000000
31.717829, 24.602870, 79.125000
31.717829, 24.602870, 79.250000
31.846763, 24.702882, 79.375000
31.846763, 24.702882, 79.500000
31.846763, 24.702882, 79.625000
31.975697, 24.802893, 79.750000
31.975697, 24.802893, 79.875000
31.975697, 24.802893, 80.000000
32.104632, 24.902905, 80.125000
32.104632, 24.902905, 80.250000
32.233566, 25.002917, 80.375000
32.233566, 25.002917, 80.500000
32.233566, 25.002917, 80.625000
32.233566, 25.002917, 80.750000
32.233566, 25.002917, 80.875000
32.362500, 25.102928, 81.000000
32.233566, 25.002917, 81.125000
32.362500, 25.102928, 81.250000
32.620369, 25.302952, 81.375000
27.911883, 23.090717, 14.250000
27.911883, 23.090717, 14.375000
27.786153, 22.986705, 14.500000
27.534695, 22.778681, 14.625000
27.534695, 22.778681, 14.750000
27.534695, 22.778681, 14.875000
27.408966, 22.674668, 15.000000
27.408966, 22.674668, 15.125000
27.408966, 22.674668, 15.250000
27.283236, 22.570656, 15.375000
27.408966, 22.674668, 15.500000
27.283236, 22.570656, 15.625000
27.283236, 22.570656, 15.750000
27.157507, 22.466644, 15.875000
27.283236, 22.570656, 16.000000
27.031778, 22.362632, 16.125000
27.031778, 22.362632, 16.250000
27.031778, 22.362632, 16.375000
27.031778, 22.362632, 16.500000
26.906049, 22.258619, 16.625000
26.906049, 22.258619, 16.750000
26.906049, 22.258619, 16.875000
26.780320, 22.154607, 17.000000
26.780320, 22.154607, 17.125000
26.780320, 22.154607, 17.250000
26.654590, 22.050595, 17.375000
26.654590, 22.050595, 17.500000
26.654590, 22.050595, 17.625000
26.654590, 22.050595, 17.750000
26.528861, 21.946583, 17.875000
26.528861, 21.946583, 18.000000
26.528861, 21.946583, 18.125000
26.403132, 21.842570, 18.250000
26.403132, 21.842570, 18.375000
26.277403, 21.738558, 18.500000
26.277403, 21.738558, 18.625000
26.277403, 21.738558, 18.750000
26.277403, 21.738558, 18.875000
26.277403, 21.738558, 19.000000
26.151674, 21.634546, 19.125000
26.151674, 21.634546, 19.250000
26.151674, 21.634546, 19.375000
26.025944, 21.530534, 19.500000
26.025944, 21.530534, 19.625000
26.025944, 21.530534, 19.750000
26.025944, 21.530534, 19.875000
25.900215, 21.426522, 20.000000
25.900215, 21.426522, 20.125000
25.900215, 21.426522, 20.250000
26.025944, 21.530534, 20.375000
25.774486, 21.322509, 20.500000
25.774486, 21.322509, 20.625000
25.774486, 21.322509, 20.750000
25.648757, 21.218497, 20.875000
25.648757, 21.218497, 21.000000
25.648757, 21.218497, 21.125000
25.648757, 21.218497, 21.250000
25.648757, 21.218497, 21.375000
25.648757, 21.218497, 21.500000
25.523028, 21.114485, 21.625000
25.397298, 21.010473, 21.750000
25.397298, 21.010473, 21.875000
25.397298, 21.010473, 22.000000
25.397298, 21.010473, 22.125000
25.271569, 20.906460, 22.250000
25.271569, 20.906460, 22.375000
25.271569, 20.906460, 22.500000
25.271569, 20.906460, 22.625000
25.145840, 20.802448, 22.750000
25.145840, 20.802448, 22.875000
25.145840, 20.802448, 23.000000
25.020111, 20.698436, 23.125000
25.020111, 20.698436, 23.250000
25.020111, 20.698436, 23.375000
25.020111, 20.698436, 23.500000
24.894382, 20.594424, 23.625000
24.894382, 20.594424, 23.750000
24.894382, 20.594424, 23.875000
24.768652, 20.490411, 24.000000
24.768652, 20.490411, 24.125000
24.768652, 20.490411, 24.250000
24.642923, 20.386399, 24.375000
24.642923, 20.386399, 24.500000
24.642923, 20.386399, 24.625000
24.642923, 20.386399, 24.750000
24.517194, 20.282387, 24.875000
24.517194, 20.282387, 25.000000
24.517194, 20.282387, 25.125000
24.391465, 20.178375, 25.250000
24.391465, 20.178375, 25.375000
24.391465, 20.178375, 25.500000
24.391465, 20.178375, 25.625000
24.265736, 20.074362, 25.750000
24.265736, 20.074362, 25.875000
24.265736, 20.074362, 26.000000
24.140006, 19.970350, 26.125000
24.140006, 19.970350, 26.250000
24.140006, 19.970350, 26.375000
24.140006, 19.970350, 26.500000
24.140006, 19.970350, 26.625000
24.014277, 19.866338, 26.750000
24.014277, 19.866338, 26.875000
24.014277, 19.866338, 27.000000
23.888548, 19.762326, 27.125000
23.888548, 19.762326, 27.250000
23.888548, 19.762326, 27.375000
23.888548, 19.762326, 27.500000
23.888548, 19.762326, 27.625000
23.762819, 19.658313, 27.750000
23.762819, 19.658313, 27.875000
23.762819, 19.658313, 28.000000
23.637090, 19.554301, 28.125000
23.637090, 19.554301, 28.250000
23.637090, 19.554301, 28.375000
23.637090, 19.554301, 28.500000
23.637090, 19.554301, 28.625000
23.511360, 19.450289, 28.750000
23.511360, 19.450289, 28.875000
23.511360, 19.450289, 29.000000
23.385631, 19.346277, 29.125000
23.385631, 19.346277, 29.250000
23.385631, 19.346277, 29.375000
23.259902, 19.242264, 29.500000
23.259902, 19.242264, 29.625000
23.259902, 19.242264, 29.750000
23.259902, 19.242264, 29.875000
23.259902, 19.242264, 30.000000
23.134173, 19.138252, 30.125000
23.134173, 19.138252, 30.250000
23.008444, 19.034240, 30.375000
23.008444, 19.034240, 30.500000
23.008444, 19.034240, 30.625000
23.008444, 19.034240, 30.750000
23.008444, 19.034240, 30.875000
22.882714, 18.930228, 31.000000
22.882714, 18.930228, 31.125000
22.882714, 18.930228, 31.250000
22.756985, 18.826215, 31.375000
22.756985, 18.826215, 31.500000
22.756985, 18.826215, 31.625000
22.756985, 18.826215, 31.750000
22.756985, 18.826215, 31.875000
22.756985, 18.826215, 32.000000
22.631256, 18.722203, 32.125000
22.631256, 18.722203, 32.250000
22.505527, 18.618191, 32.375000
22.505527, 18.618191, 32.500000
22.505527, 18.618191, 32.625000
22.379798, 18.514179, 32.750000
22.379798, 18.514179, 32.875000
22.379798, 18.514179, 33.000000
22.379798, 18.514179, 33.125000
22.379798, 18.514179, 33.250000
22.254068, 18.410167, 33.375000
22.254068, 18.410167, 33.500000
22.254068, 18.410167, 33.625000
22.128339, 18.306154, 33.750000
22.128339, 18.306154, 33.875000
22.128339, 18.306154, 34.000000
22.128339, 18.306154, 34.125000
22.002610, 18.202142, 34.250000
22.002610, 18.202142, 34.375000
22.002610, 18.202142, 34.500000
21.876881, 18.098130, 34.625000
21.876881, 18.098130, 34.750000
21.876881, 18.098130, 34.875000
21.876881, 18.098130, 35.000000
21.876881, 18.098130, 35.125000
21.751152, 17.994118, 35.250000
21.751152, 17.994118, 35.375000
21.751152, 17.994118, 35.500000
21.751152, 17.994118, 35.625000
21.625422, 17.890105, 35.750000
21.625422, 17.890105, 35.875000
21.499693, 17.786093, 36.000000
21.499693, 17.786093, 36.125000
21.499693, 17.786093, 36.250000
21.499693, 17.786093, 36.375000
21.373964, 17.682081, 36.500000
21.373964, 17.682081, 36.625000
21.373964, 17.682081, 36.750000
21.373964, 17.682081, 36.875000
21.248235, 17.578069, 37.000000
21.248235, 17.578069, 37.125000
21.122506, 17.474056, 37.250000
21.122506, 17.474056, 37.375000
21.122506, 17.474056, 37.500000
21.122506, 17.474056, 37.625000
20.996776, 17.370044, 37.750000
20.996776, 17.370044, 37.875000
20.996776, 17.370044, 38.000000
20.996776, 17.370044, 38.125000
20.996776, 17.370044, 38.250000
20.871047, 17.266032, 38.375000
20.871047, 17.266032, 38.500000
20.871047, 17.266032, 38.625000
20.745318, 17.162020, 38.750000
20.745318, 17.162020, 38.875000
20.745318, 17.162020, 39.000000
20.619589, 17.058007, 39.125000
20.619589, 17.058007, 39.250000
20.619589, 17.058007, 39.375000
20.619589, 17.058007, 39.500000
20.493860, 16.953995, 39.625000
20.493860, 16.953995, 39.750000
20.493860, 16.953995, 39.875000
20.493860, 16.953995, 40.000000
20.368130, 16.849983, 40.125000
20.368130, 16.849983, 40.250000
20.368130, 16.849983, 40.375000
20.368130, 16.849983, 40.500000
20.242401, 16.745971, 40.625000
20.242401, 16.745971, 40.750000
20.242401, 16.745971, 40.875000
20.242401, 16.745971, 41.000000
20.116672, 16.641958, 41.125000
20.116672, 16.641958, 41.250000
20.116672, 16.641958, 41.375000
19.990943, 16.537946, 41.500000
19.990943, 16.537946, 41.625000
19.990943, 16.537946, 41.750000
19.990943, 16.537946, 41.875000
19.865214, 16.433934, 42.000000
19.865214, 16.433934, 42.125000
19.865214, 16.433934, 42.250000
19.865214, 16.433934, 42.375000
19.865214, 16.433934, 42.500000
19.865214, 16.433934, 42.625000
19.739484, 16.329922, 42.750000
19.739484, 16.329922, 42.875000
19.613755, 16.225909, 43.000000
19.613755, 16.225909, 43.125000
19.613755, 16.225909, 43.250000
19.488026, 16.121897, 43.375000
19.613755, 16.225909, 43.500000
19.488026, 16.121897, 43.625000
19.488026, 16.121897, 43.750000
19.362297, 16.017885, 43.875000
19.362297, 16.017885, 44.000000
19.362297, 16.017885, 44.125000
19.362297, 16.017885, 44.250000
19.236568, 15.913873, 44.375000
19.236568, 15.913873, 44.500000
19.236568, 15.913873, 44.625000
19.110838, 15.809861, 44.750000
19.110838, 15.809861, 44.875000
19.236568, 15.913873, 45.000000
19.110838, 15.809861, 45.125000
19.110838, 15.809861, 45.250000
19.110838, 15.809861, 45.375000
18.985109, 15.705848, 45.500000
18.985109, 15.705848, 45.625000
18.985109, 15.705848, 45.750000
18.985109, 15.705848, 45.875000
18.859380, 15.601836, 46.000000
18.859380, 15.601836, 46.125000
18.859380, 15.601836, 46.250000
18.733651, 15.497824, 46.375000
18.733651, 15.497824, 46.500000
18.733651, 15.497824, 46.625000
18.733651, 15.497824, 46.750000
18.607922, 15.393812, 46.875000
18.607922, 15.393812, 47.000000
18.482192, 15.289799, 47.125000
18.482192, 15.289799, 47.250000
18.482192, 15.289799, 47.375000
18.482192, 15.289799, 47.500000
18.356463, 15.185787, 47.625000
18.356463, 15.185787, 47.750000
18.356463, 15.185787, 47.875000
18.356463, 15.185787, 48.000000
18.230734, 15.081775, 48.125000
18.230734, 15.081775, 48.250000
18.230734, 15.081775, 48.375000
18.230734, 15.081775, 48.500000
18.230734, 15.081775, 48.625000
18.356463, 15.185787, 48.750000
18.356463, 15.185787, 48.875000
18.356463, 15.185787, 49.000000
18.482192, 15.289799, 49.125000
18.482192, 15.289799, 49.250000
18.607922, 15.393812, 49.375000
18.607922, 15.393812, 49.500000
18.607922, 15.393812, 49.625000
18.733651, 15.497824, 49.750000
18.733651, 15.497824, 49.875000
18.859380, 15.601836, 50.000000
18.733651, 15.497824, 50.125000
18.859380, 15.601836, 50.250000
18.859380, 15.601836, 50.375000
18.985109, 15.705848, 50.500000
18.985109, 15.705848, 50.625000
19.110838, 15.809861, 50.750000
19.236568, 15.913873, 50.875000
19.236568, 15.913873, 51.000000
19.236568, 15.913873, 51.125000
19.236568, 15.913873, 51.250000
19.362297, 16.017885, 51.375000
19.362297, 16.017885, 51.500000
19.488026, 16.121897, 51.625000
19.488026, 16.121897, 51.750000
19.488026, 16.121897, 51.875000
19.613755, 16.225909, 52.000000
19.613755, 16.225909, 52.125000
19.739484, 16.329922, 52.250000
19.739484, 16.329922, 52.375000
19.865214, 16.433934, 52.500000
19.865214, 16.433934, 52.625000
19.865214, 16.433934, 52.750000
19.990943, 16.537946, 52.875000
19.990943, 16.537946, 53.000000
20.116672, 16.641958, 53.125000
20.116672, 16.641958, 53.250000
20.116672, 16.641958, 53.375000
20.242401, 16.745971, 53.500000
20.242401, 16.745971, 53.625000
20.242401, 16.745971, 53.750000
20.368130, 16.849983, 53.875000
20.368130, 16.849983, 54.000000
20.493860, 16.953995, 54.125000
20.493860, 16.953995, 54.250000
20.493860, 16.953995, 54.375000
20.619589, 17.058007, 54.500000
20.619589, 17.058007, 54.625000
20.871047, 17.266032, 54.750000
20.745318, 17.162020, 54.875000
20.871047, 17.266032, 55.000000
20.871047, 17.266032, 55.125000
20.996776, 17.370044, 55.250000
20.996776, 17.370044, 55.375000
20.996776, 17.370044, 55.500000
21.122506, 17.474056, 55.625000
21.122506, 17.474056, 55.750000
21.248235, 17.578069, 55.875000
21.248235, 17.578069, 56.000000
21.373964, 17.682081, 56.125000
21.373964, 17.682081, 56.250000
21.373964, 17.682081, 56.375000
21.499693, 17.786093, 56.500000
21.499693, 17.786093, 56.625000
21.625422, 17.890105, 56.750000
21.625422, 17.890105, 56.875000
21.625422, 17.890105, 57.000000
21.751152, 17.994118, 57.125000
21.751152, 17.994118, 57.250000
21.876881, 18.098130, 57.375000
21.876881, 18.098130, 57.500000
21.876881, 18.098130, 57.625000
22.002610, 18.202142, 57.750000
22.002610, 18.202142, 57.875000
22.002610, 18.202142, 58.000000
22.254068, 18.410167, 58.125000
22.128339, 18.306154, 58.250000
22.379798, 18.514179, 58.375000
22.254068, 18.410167, 58.500000
22.379798, 18.514179, 58.625000
22.379798, 18.514179, 58.750000
22.379798, 18.514179, 58.875000
22.505527, 18.618191, 59.000000
22.505527, 18.618191, 59.125000
22.631256, 18.722203, 59.250000
22.631256, 18.722203, 59.375000
22.756985, 18.826215, 59.500000
22.756985, 18.826215, 59.625000
22.756985, 18.826215, 59.750000
22.882714, 18.930228, 59.875000
23.008444, 19.034240, 60.000000
23.008444, 19.034240, 60.125000
23.008444, 19.034240, 60.250000
23.134173, 19.138252, 60.375000
23.134173, 19.138252, 60.500000
23.134173, 19.138252, 60.625000
23.259902, 19.242264, 60.750000
23.259902, 19.242264, 60.875000
23.385631, 19.346277, 61.000000
23.385631, 19.346277, 61.125000
23.511360, 19.450289, 61.250000
23.511360, 19.450289, 61.375000
23.637090, 19.554301, 61.500000
23.637090, 19.554301, 61.625000
23.637090, 19.554301, 61.750000
23.762819, 19.658313, 61.875000
23.762819, 19.658313, 62.000000
23.888548, 19.762326, 62.125000
23.888548, 19.762326, 62.250000
24.014277, 19.866338, 62.375000
24.014277, 19.866338, 62.500000
24.014277, 19.866338, 62.625000
24.140006, 19.970350, 62.750000
24.140006, 19.970350, 62.875000
24.140006, 19.970350, 63.000000
24.265736, 20.074362, 63.125000
24.391465, 20.178375, 63.250000
24.391465, 20.178375, 63.375000
24.391465, 20.178375, 63.500000
24.391465, 20.178375, 63.625000
24.517194, 20.282387, 63.750000
24.517194, 20.282387, 63.875000
24.517194, 20.282387, 64.000000
24.642923, 20.386399, 64.125000
24.642923, 20.386399, 64.250000
24.768652, 20.490411, 64.375000
24.768652, 20.490411, 64.500000
24.768652, 20.490411, 64.625000
24.894382, 20.594424, 64.750000
25.020111, 20.698436, 64.875000
25.020111, 20.698436, 65.000000
25.020111, 20.698436, 65.125000
25.271569, 20.906460, 65.250000
25.145840, 20.802448, 65.375000
25.145840, 20.802448, 65.500000
25.271569, 20.906460, 65.625000
25.397298, 21.010473, 65.750000
25.397298, 21.010473, 65.875000
25.397298, 21.010473, 66.000000
25.523028, 21.114485, 66.125000
25.648757, 21.218497, 66.250000
25.523028, 21.114485, 66.375000
25.648757, 21.218497, 66.500000
25.648757, 21.218497, 66.625000
25.774486, 21.322509, 66.750000
25.774486, 21.322509, 66.875000
25.900215, 21.426522, 67.000000
26.025944, 21.530534, 67.125000
26.025944, 21.530534, 67.250000
26.025944, 21.530534, 67.375000
26.151674, 21.634546, 67.500000
26.151674, 21.634546, 67.625000
26.151674, 21.634546, 67.750000
26.277403, 21.738558, 67.875000
