-1.830732, -29.098656, 61.875000
-1.830732, -29.098656, 62.000000
-1.839795, -29.242708, 62.125000
-1.839795, -29.242708, 62.250000
-1.848858, -29.386761, 62.375000
-1.848858, -29.386761, 62.500000
-1.857921, -29.530814, 62.625000
-1.857921, -29.530814, 62.750000
-1.857921, -29.530814, 62.875000
-1.866984, -29.674867, 63.000000
-1.866984, -29.674867, 63.125000
-1.866984, -29.674867, 63.250000
-1.876047, -29.818919, 63.375000
-1.876047, -29.818919, 63.500000
-1.885110, -29.962972, 63.625000
-1.885110, -29.962972, 63.750000
-1.885110, -29.962972, 63.875000
-1.894173, -30.107025, 64.000000
-1.894173, -30.107025, 64.125000
-1.903236, -30.251078, 64.250000
-1.903236, -30.251078, 64.375000
-1.903236, -30.251078, 64.500000
-1.912300, -30.395130, 64.625000
-1.912300, -30.395130, 64.750000
-1.921363, -30.539183, 64.875000
-1.921363, -30.539183, 65.000000
-1.921363, -30.539183, 65.125000
-1.930426, -30.683236, 65.250000
-1.930426, -30.683236, 65.375000
-1.930426, -30.683236, 65.500000
-1.939489, -30.827289, 65.625000
-1.939489, -30.827289, 65.750000
-1.939489, -30.827289, 65.875000
-1.948552, -30.971341, 66.000000
-1.948552, -30.971341, 66.125000
-1.957615, -31.115394, 66.250000
-1.957615, -31.115394, 66.375000
-1.957615, -31.115394, 66.500000
-1.966678, -31.259447, 66.625000
-1.966678, -31.259447, 66.750000
-1.975741, -31.403500, 66.875000
-1.975741, -31.403500, 67.000000
-1.975741, -31.403500, 67.125000
-1.984804, -31.547552, 67.250000
-1.984804, -31.547552, 67.375000
-1.984804, -31.547552, 67.500000
-1.993867, -31.691605, 67.625000
-1.993867, -31.691605, 67.750000
-2.002930, -31.835658, 67.875000
-2.002930, -31.835658, 68.000000
-2.002930, -31.835658, 68.125000
-2.011993, -31.979711, 68.250000
-2.011993, -31.979711, 68.375000
-2.021056, -32.123763, 68.500000
-2.021056, -32.123763, 68.625000
-2.021056, -32.123763, 68.750000
-2.030119, -32.267816, 68.875000
-2.030119, -32.267816, 69.000000
-2.039182, -32.411869, 69.125000
-2.039182, -32.411869, 69.250000
-2.039182, -32.411869, 69.375000
-2.048245, -32.555922, 69.500000
-2.048245, -32.555922, 69.625000
-2.057308, -32.699974, 69.750000
-2.057308, -32.699974, 69.875000
-2.057308, -32.699974, 70.000000
-2.066371, -32.844027, 70.125000
-2.066371, -32.844027, 70.250000
-2.075434, -32.988080, 70.375000
-2.075434, -32.988080, 70.500000
-2.075434, -32.988080, 70.625000
-2.084497, -33.132133, 70.750000
-2.084497, -33.132133, 70.875000
-2.093560, -33.276185, 71.000000
-2.093560, -33.276185, 71.125000
-2.093560, -33.276185, 71.250000
-2.102623, -33.420238, 71.375000
-2.102623, -33.420238, 71.500000
-2.102623, -33.420238, 71.625000
-2.111686, -33.564291, 71.750000
-2.111686, -33.564291, 71.875000
-2.111686, -33.564291, 72.000000
-2.120749, -33.708344, 72.125000
-2.120749, -33.708344, 72.250000
-2.129812, -33.852396, 72.375000
-2.129812, -33.852396, 72.500000
-2.129812, -33.852396, 72.625000
-2.138875, -33.996449, 72.750000
-2.138875, -33.996449, 72.875000
-2.138875, -33.996449, 73.000000
-2.147938, -34.140502, 73.125000
-2.147938, -34.140502, 73.250000
-2.157001, -34.284555, 73.375000
-2.157001, -34.284555, 73.500000
-2.166064, -34.428607, 73.625000
-2.166064, -34.428607, 73.750000
-2.175127, -34.572660, 73.875000
-2.175127, -34.572660, 74.000000
-2.175127, -34.572660, 74.125000
-2.184190, -34.716713, 74.250000
-2.184190, -34.716713, 74.375000
-2.193253, -34.860766, 74.500000
-2.193253, -34.860766, 74.625000
-2.193253, -34.860766, 74.750000
-2.202316, -35.004818, 74.875000
-2.202316, -35.004818, 75.000000
-2.202316, -35.004818, 75.125000
-2.211380, -35.148871, 75.250000
-2.211380, -35.148871, 75.375000
-2.220443, -35.292924, 75.500000
-2.220443, -35.292924, 75.625000
-2.220443, -35.292924, 75.750000
-2.220443, -35.292924, 75.875000
-2.229506, -35.436977, 76.000000
-2.229506, -35.436977, 76.125000
-2.238569, -35.581029, 76.250000
-2.238569, -35.581029, 76.375000
-2.247632, -35.725082, 76.500000
-2.247632, -35.725082, 76.625000
-2.247632, -35.725082, 76.750000
-2.256695, -35.869135, 76.875000
-2.256695, -35.869135, 77.000000
-2.256695, -35.869135, 77.125000
-2.265758, -36.013188, 77.250000
-2.265758, -36.013188, 77.375000
-2.274821, -36.157240, 77.500000
-2.274821, -36.157240, 77.625000
-2.274821, -36.157240, 77.750000
-2.283884, -36.301293, 77.875000
-2.283884, -36.301293, 78.000000
-2.292947, -36.445346, 78.125000
-2.292947, -36.445346, 78.250000
-2.292947, -36.445346, 78.375000
-2.302010, -36.589399, 78.500000
-2.302010, -36.589399, 78.625000
-2.302010, -36.589399, 78.750000
-2.311073, -36.733451, 78.875000
-2.311073, -36.733451, 79.000000
-2.320136, -36.877504, 79.125000
-2.320136, -36.877504, 79.250000
-2.320136, -36.877504, 79.375000
-2.320136, -36.877504, 79.500000
-2.329199, -37.021557, 79.625000
-2.329199, -37.021557, 79.750000
-2.329199, -37.021557, 79.875000
-2.338262, -37.165610, 80.000000
-2.338262, -37.165610, 80.125000
-2.347325, -37.309662, 80.250000
-2.347325, -37.309662, 80.375000
-2.347325, -37.309662, 80.500000
-2.356388, -37.453715, 80.625000
-2.347325, -37.309662, 80.750000
-2.347325, -37.309662, 80.875000
-1.147039, -36.499385, 16.250000
-1.142506, -36.355119, 16.375000
-1.137972, -36.210853, 16.500000
-1.142506, -36.355119, 16.625000
-1.137972, -36.210853, 16.750000
-1.133438, -36.066586, 16.875000
-1.137972, -36.210853, 17.000000
-1.137972, -36.210853, 17.125000
-1.133438, -36.066586, 17.250000
-1.128904, -35.922320, 17.375000
-1.128904, -35.922320, 17.500000
-1.128904, -35.922320, 17.625000
-1.124371, -35.778054, 17.750000
-1.124371, -35.778054, 17.875000
-1.119837, -35.633787, 18.000000
-1.124371, -35.778054, 18.125000
-1.119837, -35.633787, 18.250000
-1.115303, -35.489521, 18.375000
-1.119837, -35.633787, 18.500000
-1.110769, -35.345255, 18.625000
-1.110769, -35.345255, 18.750000
-1.115303, -35.489521, 18.875000
-1.106236, -35.200988, 19.000000
-1.106236, -35.200988, 19.125000
-1.106236, -35.200988, 19.250000
-1.101702, -35.056722, 19.375000
-1.106236, -35.200988, 19.500000
-1.097168, -34.912456, 19.625000
-1.097168, -34.912456, 19.750000
-1.097168, -34.912456, 19.875000
-1.092634, -34.768189, 20.000000
-1.092634, -34.768189, 20.125000
-1.092634, -34.768189, 20.250000
-1.092634, -34.768189, 20.375000
-1.088101, -34.623923, 20.500000
-1.088101, -34.623923, 20.625000
-1.088101, -34.623923, 20.750000
-1.083567, -34.479657, 20.875000
-1.083567, -34.479657, 21.000000
-1.083567, -34.479657, 21.125000
-1.079033, -34.335390, 21.250000
-1.079033, -34.335390, 21.375000
-1.074499, -34.191124, 21.500000
-1.074499, -34.191124, 21.625000
-1.074499, -34.191124, 21.750000
-1.074499, -34.191124, 21.875000
-1.069966, -34.046858, 22.000000
-1.065432, -33.902591, 22.125000
-1.065432, -33.902591, 22.250000
-1.065432, -33.902591, 22.375000
-1.060898, -33.758325, 22.500000
-1.060898, -33.758325, 22.625000
-1.056364, -33.614058, 22.750000
-1.060898, -33.758325, 22.875000
-1.056364, -33.614058, 23.000000
-1.056364, -33.614058, 23.125000
-1.051831, -33.469792, 23.250000
-1.051831, -33.469792, 23.375000
-1.051831, -33.469792, 23.500000
-1.047297, -33.325526, 23.625000
-1.047297, -33.325526, 23.750000
-1.047297, -33.325526, 23.875000
-1.042763, -33.181259, 24.000000
-1.042763, -33.181259, 24.125000
-1.042763, -33.181259, 24.250000
-1.038229, -33.036993, 24.375000
-1.038229, -33.036993, 24.500000
-1.038229, -33.036993, 24.625000
-1.033696, -32.892727, 24.750000
-1.033696, -32.892727, 24.875000
-1.033696, -32.892727, 25.000000
-1.029162, -32.748460, 25.125000
-1.029162, -32.748460, 25.250000
-1.024628, -32.604194, 25.375000
-1.024628, -32.604194, 25.500000
-1.024628, -32.604194, 25.625000
-1.020094, -32.459928, 25.750000
-1.020094, -32.459928, 25.875000
-1.015561, -32.315661, 26.000000
-1.020094, -32.459928, 26.125000
-1.015561, -32.315661, 26.250000
-1.015561, -32.315661, 26.375000
-1.011027, -32.171395, 26.500000
-1.011027, -32.171395, 26.625000
-1.011027, -32.171395, 26.750000
-1.006493, -32.027129, 26.875000
-1.006493, -32.027129, 27.000000
-1.006493, -32.027129, 27.125000
-1.001959, -31.882862, 27.250000
-1.001959, -31.882862, 27.375000
-0.997426, -31.738596, 27.500000
-0.997426, -31.738596, 27.625000
-0.997426, -31.738596, 27.750000
-0.997426, -31.738596, 27.875000
-0.997426, -31.738596, 28.000000
-0.992892, -31.594330, 28.125000
-0.988358, -31.450063, 28.250000
-0.988358, -31.450063, 28.375000
-0.988358, -31.450063, 28.500000
-0.988358, -31.450063, 28.625000
-0.983824, -31.305797, 28.750000
-0.983824, -31.305797, 28.875000
-0.983824, -31.305797, 29.000000
-0.979291, -31.161531, 29.125000
-0.979291, -31.161531, 29.250000
-0.979291, -31.161531, 29.375000
-0.974757, -31.017264, 29.500000
-0.974757, -31.017264, 29.625000
-0.970223, -30.872998, 29.750000
-0.970223, -30.872998, 29.875000
-0.970223, -30.872998, 30.000000
-0.965689, -30.728732, 30.125000
-0.965689, -30.728732, 30.250000
-0.965689, -30.728732, 30.375000
-0.961156, -30.584465, 30.500000
-0.961156, -30.584465, 30.625000
-0.956622, -30.440199, 30.750000
-0.956622, -30.440199, 30.875000
-0.956622, -30.440199, 31.000000
-0.952088, -30.295933, 31.125000
-0.952088, -30.295933, 31.250000
-0.952088, -30.295933, 31.375000
-0.947554, -30.151666, 31.500000
-0.947554, -30.151666, 31.625000
-0.947554, -30.151666, 31.750000
-0.943021, -30.007400, 31.875000
-0.943021, -30.007400, 32.000000
-0.943021, -30.007400, 32.125000
-0.938487, -29.863134, 32.250000
-0.938487, -29.863134, 32.375000
-0.938487, -29.863134, 32.500000
-0.933953, -29.718867, 32.625000
-0.933953, -29.718867, 32.750000
-0.933953, -29.718867, 32.875000
-0.929419, -29.574601, 33.000000
-0.929419, -29.574601, 33.125000
-0.929419, -29.574601, 33.250000
-0.924886, -29.430334, 33.375000
-0.924886, -29.430334, 33.500000
-0.924886, -29.430334, 33.625000
-0.920352, -29.286068, 33.750000
-0.920352, -29.286068, 33.875000
-0.915818, -29.141802, 34.000000
-0.915818, -29.141802, 34.125000
-0.915818, -29.141802, 34.250000
-0.911284, -28.997535, 34.375000
-0.911284, -28.997535, 34.500000
-0.906751, -28.853269, 34.625000
-0.906751, -28.853269, 34.750000
-0.906751, -28.853269, 34.875000
-0.902217, -28.709003, 35.000000
-0.902217, -28.709003, 35.125000
-0.902217, -28.709003, 35.250000
-0.902217, -28.709003, 35.375000
-0.897683, -28.564736, 35.500000
-0.897683, -28.564736, 35.625000
-0.897683, -28.564736, 35.750000
-0.893149, -28.420470, 35.875000
-0.893149, -28.420470, 36.000000
-0.888616, -28.276204, 36.125000
-0.888616, -28.276204, 36.250000
-0.888616, -28.276204, 36.375000
-0.884082, -28.131937, 36.500000
-0.884082, -28.131937, 36.625000
-0.879548, -27.987671, 36.750000
-0.879548, -27.987671, 36.875000
-0.879548, -27.987671, 37.000000
-0.875014, -27.843405, 37.125000
-0.875014, -27.843405, 37.250000
-0.875014, -27.843405, 37.375000
-0.870480, -27.699138, 37.500000
-0.870480, -27.699138, 37.625000
-0.870480, -27.699138, 37.750000
-0.865947, -27.554872, 37.875000
-0.865947, -27.554872, 38.000000
-0.861413, -27.410606, 38.125000
-0.861413, -27.410606, 38.250000
-0.861413, -27.410606, 38.375000
-0.856879, -27.266339, 38.500000
-0.856879, -27.266339, 38.625000
-0.856879, -27.266339, 38.750000
-0.852345, -27.122073, 38.875000
-0.852345, -27.122073, 39.000000
-0.847812, -26.977807, 39.125000
-0.847812, -26.977807, 39.250000
-0.847812, -26.977807, 39.375000
-0.843278, -26.833540, 39.500000
-0.843278, -26.833540, 39.625000
-0.843278, -26.833540, 39.750000
-0.838744, -26.689274, 39.875000
-0.838744, -26.689274, 40.000000
-0.838744, -26.689274, 40.125000
-0.834210, -26.545008, 40.250000
-0.834210, -26.545008, 40.375000
-0.834210, -26.545008, 40.500000
-0.829677, -26.400741, 40.625000
-0.829677, -26.400741, 40.750000
-0.829677, -26.400741, 40.875000
-0.829677, -26.400741, 41.000000
-0.825143, -26.256475, 41.125000
-0.825143, -26.256475, 41.250000
-0.825143, -26.256475, 41.375000
-0.820609, -26.112209, 41.500000
-0.820609, -26.112209, 41.625000
-0.816075, -25.967942, 41.750000
-0.816075, -25.967942, 41.875000
-0.816075, -25.967942, 42.000000
-0.816075, -25.967942, 42.125000
-0.811542, -25.823676, 42.250000
-0.811542, -25.823676, 42.375000
-0.807008, -25.679409, 42.500000
-0.807008, -25.679409, 42.625000
-0.807008, -25.679409, 42.750000
-0.802474, -25.535143, 42.875000
-0.802474, -25.535143, 43.000000
-0.802474, -25.535143, 43.125000
-0.797940, -25.390877, 43.250000
-0.797940, -25.390877, 43.375000
-0.797940, -25.390877, 43.500000
-0.797940, -25.390877, 43.625000
-0.793407, -25.246610, 43.750000
-0.788873, -25.102344, 43.875000
-0.788873, -25.102344, 44.000000
-0.788873, -25.102344, 44.125000
-0.788873, -25.102344, 44.250000
-0.784339, -24.958078, 44.375000
-0.784339, -24.958078, 44.500000
-0.784339, -24.958078, 44.625000
-0.779805, -24.813811, 44.750000
-0.779805, -24.813811, 44.875000
-0.775272, -24.669545, 45.000000
-0.775272, -24.669545, 45.125000
-0.775272, -24.669545, 45.250000
-0.770738, -24.525279, 45.375000
-0.770738, -24.525279, 45.500000
-0.770738, -24.525279, 45.625000
-0.766204, -24.381012, 45.750000
-0.766204, -24.381012, 45.875000
-0.766204, -24.381012, 46.000000
-0.761670, -24.236746, 46.125000
-0.761670, -24.236746, 46.250000
-0.761670, -24.236746, 46.375000
-0.757137, -24.092480, 46.500000
-0.757137, -24.092480, 46.625000
-0.752603, -23.948213, 46.750000
-0.752603, -23.948213, 46.875000
-0.752603, -23.948213, 47.000000
-0.748069, -23.803947, 47.125000
-0.748069, -23.803947, 47.250000
-0.748069, -23.803947, 47.375000
-0.743535, -23.659681, 47.500000
-0.743535, -23.659681, 47.625000
-0.743535, -23.659681, 47.750000
-0.739002, -23.515414, 47.875000
-0.739002, -23.515414, 48.000000
-0.739002, -23.515414, 48.125000
-0.734468, -23.371148, 48.250000
-0.734468, -23.371148, 48.375000
-0.734468, -23.371148, 48.500000
-0.734468, -23.371148, 48.625000
-0.729934, -23.226882, 48.750000
-0.734468, -23.371148, 48.875000
-0.734468, -23.371148, 49.000000
-0.734468, -23.371148, 49.125000
-0.734468, -23.371148, 49.250000
-0.734468, -23.371148, 49.375000
-0.734468, -23.371148, 49.500000
-0.739002, -23.515414, 49.625000
-0.739002, -23.515414, 49.750000
-0.739002, -23.515414, 49.875000
-0.743535, -23.659681, 50.000000
-0.743535, -23.659681, 50.125000
-0.743535, -23.659681, 50.250000
-0.748069, -23.803947, 50.375000
-0.748069, -23.803947, 50.500000
-0.752603, -23.948213, 50.625000
-0.752603, -23.948213, 50.750000
-0.752603, -23.948213, 50.875000
-0.757137, -24.092480, 51.000000
-0.757137, -24.092480, 51.125000
-0.757137, -24.092480, 51.250000
-0.761670, -24.236746, 51.375000
-0.761670, -24.236746, 51.500000
-0.766204, -24.381012, 51.625000
-0.766204, -24.381012, 51.750000
-0.766204, -24.381012, 51.875000
-0.770738, -24.525279, 52.000000
-0.770738, -24.525279, 52.125000
-0.770738, -24.525279, 52.250000
-0.775272, -24.669545, 52.375000
-0.775272, -24.669545, 52.500000
-0.779805, -24.813811, 52.625000
-0.779805, -24.813811, 52.750000
-0.779805, -24.813811, 52.875000
-0.784339, -24.958078, 53.000000
-0.784339, -24.958078, 53.125000
-0.788873, -25.102344, 53.250000
-0.788873, -25.102344, 53.375000
-0.788873, -25.102344, 53.500000
-0.793407, -25.246610, 53.625000
-0.793407, -25.246610, 53.750000
-0.793407, -25.246610, 53.875000
-0.797940, -25.390877, 54.000000
-0.797940, -25.390877, 54.125000
-0.807008, -25.679409, 54.250000
-0.802474, -25.535143, 54.375000
-0.807008, -25.679409, 54.500000
-0.807008, -25.679409, 54.625000
-0.807008, -25.679409, 54.750000
-0.811542, -25.823676, 54.875000
-0.811542, -25.823676, 55.000000
-0.816075, -25.967942, 55.125000
-0.816075, -25.967942, 55.250000
-0.816075, -25.967942, 55.375000
-0.820609, -26.112209, 55.500000
-0.825143, -26.256475, 55.625000
-0.829677, -26.400741, 55.750000
-0.825143, -26.256475, 55.875000
-0.825143, -26.256475, 56.000000
-0.829677, -26.400741, 56.125000
-0.834210, -26.545008, 56.250000
-0.834210, -26.545008, 56.375000
-0.834210, -26.545008, 56.500000
-0.838744, -26.689274, 56.625000
-0.838744, -26.689274, 56.750000
-0.843278, -26.833540, 56.875000
-0.843278, -26.833540, 57.000000
-0.843278, -26.833540, 57.125000
-0.847812, -26.977807, 57.250000
-0.847812, -26.977807, 57.375000
-0.847812, -26.977807, 57.500000
-0.852345, -27.122073, 57.625000
-0.852345, -27.122073, 57.750000
-0.852345, -27.122073, 57.875000
-0.856879, -27.266339, 58.000000
-0.856879, -27.266339, 58.125000
-0.861413, -27.410606, 58.250000
-0.861413, -27.410606, 58.375000
-0.861413, -27.410606, 58.500000
-0.865947, -27.554872, 58.625000
-0.870480, -27.699138, 58.750000
-0.865947, -27.554872, 58.875000
-0.870480, -27.699138, 59.000000
-0.870480, -27.699138, 59.125000
-0.875014, -27.843405, 59.250000
-0.875014, -27.843405, 59.375000
-0.879548, -27.987671, 59.500000
-0.879548, -27.987671, 59.625000
-0.884082, -28.131937, 59.750000
-0.884082, -28.131937, 59.875000
-0.884082, -28.131937, 60.000000
-0.884082, -28.131937, 60.125000
-0.888616, -28.276204, 60.250000
-0.888616, -28.276204, 60.375000
-0.893149, -28.420470, 60.500000
-0.897683, -28.564736, 60.625000
-0.897683, -28.564736, 60.750000
-0.897683, -28.564736, 60.875000
-0.897683, -28.564736, 61.000000
-0.902217, -28.709003, 61.125000
-0.902217, -28.709003, 61.250000
-0.906751, -28.853269, 61.375000
-0.906751, -28.853269, 61.500000
-0.906751, -28.853269, 61.625000
-0.911284, -28.997535, 61.750000
-0.911284, -28.997535, 61.875000
-0.915818, -29.141802, 62.000000
-0.915818, -29.141802, 62.125000
-0.920352, -29.286068, 62.250000
-0.920352, -29.286068, 62.375000
-0.920352, -29.286068, 62.500000
-0.924886, -29.430334, 62.625000
-0.924886, -29.430334, 62.750000
-0.929419, -29.574601, 62.875000
-0.929419, -29.574601, 63.000000
-0.929419, -29.574601, 63.125000
-0.933953, -29.718867, 63.250000
-0.933953, -29.718867, 63.375000
-0.933953, -29.718867, 63.500000
-0.938487, -29.863134, 63.625000
-0.938487, -29.863134, 63.750000
-0.943021, -30.007400, 63.875000
-0.943021, -30.007400, 64.000000
-0.947554, -30.151666, 64.125000
-0.947554, -30.151666, 64.250000
-0.947554, -30.151666, 64.375000
-0.952088, -30.295933, 64.500000
-0.952088, -30.295933, 64.625000
-0.952088, -30.295933, 64.750000
-0.956622, -30.440199, 64.875000
-0.961156, -30.584465, 65.000000
-0.961156, -30.584465, 65.125000
-0.961156, -30.584465, 65.250000
-0.961156, -30.584465, 65.375000
-0.965689, -30.728732, 65.500000
-0.965689, -30.728732, 65.625000
-0.965689, -30.728732, 65.750000
-0.970223, -30.872998, 65.875000
-0.970223, -30.872998, 66.000000
-0.970223, -30.872998, 66.125000
-0.974757, -31.017264, 66.250000
-0.974757, -31.017264, 66.375000
-0.979291, -31.161531, 66.500000
-0.979291, -31.161531, 66.625000
-0.983824, -31.305797, 66.750000
-0.983824, -31.305797, 66.875000
-0.983824, -31.305797, 67.000000
-0.988358, -31.450063, 67.125000
-0.988358, -31.450063, 67.250000
-0.992892, -31.594330, 67.375000
-0.992892, -31.594330, 67.500000
-0.992892, -31.594330, 67.625000
-0.997426, -31.738596, 67.750000
-0.997426, -31.738596, 67.875000
-1.001959, -31.882862, 68.000000
-1.001959, -31.882862, 68.125000
-1.001959, -31.882862, 68.250000
-1.006493, -32.027129, 68.375000
-1.006493, -32.027129, 68.500000
-1.011027, -32.171395, 68.625000
-1.011027, -32.171395, 68.750000
-1.011027, -32.171395, 68.875000
-1.015561, -32.315661, 69.000000
-1.015561, -32.315661, 69.125000
-1.020094, -32.459928, 69.250000
-1.020094, -32.459928, 69.375000
-1.020094, -32.459928, 69.500000
-1.024628, -32.604194, 69.625000
-1.024628, -32.604194, 69.750000
-1.029162, -32.748460, 69.875000
-1.029162, -32.748460, 70.000000
-1.033696, -32.892727, 70.125000
-1.033696, -32.892727, 70.250000
-1.033696, -32.892727, 70.375000
-1.038229, -33.036993, 70.500000
-1.038229, -33.036993, 70.625000
-1.042763, -33.181259, 70.750000
-1.042763, -33.181259, 70.875000
-1.042763, -33.181259, 71.000000
-1.047297, -33.325526, 71.125000
-1.047297, -33.325526, 71.250000
-1.051831, -33.469792, 71.375000
-1.051831, -33.469792, 71.500000
-1.051831, -33.469792, 71.625000
-1.051831, -33.469792, 71.750000
-1.056364, -33.614058, 71.875000
-1.056364, -33.614058, 72.000000
-1.060898, -33.758325, 72.125000
-1.060898, -33.758325, 72.250000
-1.060898, -33.758325, 72.375000
-1.065432, -33.902591, 72.500000
-1.065432, -33.902591, 72.625000
-1.069966, -34.046858, 72.750000
-1.069966, -34.046858, 72.875000
-1.069966, -34.046858, 73.000000
-1.074499, -34.191124, 73.125000
-1.074499, -34.191124, 73.250000
-1.074499, -34.191124, 73.375000
-1.079033, -34.335390, 73.500000
-1.079033, -34.335390, 73.625000
-1.083567, -34.479657, 73.750000
-1.083567, -34.479657, 73.875000
-1.088101, -34.623923, 74.000000
-1.088101, -34.623923, 74.125000
-1.088101, -34.623923, 74.250000
-1.092634, -34.768189, 74.375000
-1.092634, -34.768189, 74.500000
-1.097168, -34.912456, 74.625000
-1.101702, -35.056722, 74.750000
-1.097168, -34.912456, 74.875000
-1.101702, -35.056722, 75.000000
-1.101702, -35.056722, 75.125000
-1.101702, -35.056722, 75.250000
-1.106236, -35.200988, 75.375000
-1.106236, -35.200988, 75.500000
-1.110769, -35.345255, 75.625000
-1.110769, -35.345255, 75.750000
-1.110769, -35.345255, 75.875000
-1.115303, -35.489521, 76.000000
-1.115303, -35.489521, 76.125000
-1.119837, -35.633787, 76.250000
-1.119837, -35.633787, 76.375000
-1.119837, -35.633787, 76.500000
-1.124371, -35.778054, 76.625000
-1.124371, -35.778054, 76.750000
-1.124371, -35.778054, 76.875000
-1.128904, -35.922320, 77.000000
-1.128904, -35.922320, 77.125000
-1.133438, -36.066586, 77.250000
-1.133438, -36.066586, 77.375000
-1.137972, -36.210853, 77.500000
-1.137972, -36.210853, 77.625000
-1.137972, -36.210853, 77.750000
-1.142506, -36.355119, 77.875000
-1.142506, -36.355119, 78.000000
-1.147039, -36.499385, 78.125000
-1.147039, -36.499385, 78.250000
-1.147039, -36.499385, 78.375000
-1.151573, -36.643652, 78.500000
-1.151573, -36.643652, 78.625000
-1.151573, -36.643652, 78.750000
-1.156107, -36.787918, 78.875000
-1.156107, -36.787918, 79.000000
-1.156107, -36.787918, 79.125000
-1.160641, -36.932184, 79.250000
-1.160641, -36.932184, 79.375000
-1.160641, -36.932184, 79.500000
-1.160641, -36.932184, 79.625000
-1.165174, -37.076451, 79.750000
-1.165174, -37.076451, 79.875000
-1.169708, -37.220717, 80.000000
-1.169708, -37.220717, 80.125000
-1.169708, -37.220717, 80.250000
-1.174242, -37.364983, 80.375000
-1.174242, -37.364983, 80.500000
-1.174242, -37.364983, 80.625000
-1.174242, -37.364983, 80.750000
-0.000000, -35.940054, 16.250000
-0.000000, -35.940054, 16.375000
-0.000000, -35.940054, 16.500000
-0.000000, -35.795717, 16.625000
-0.000000, -35.795717, 16.750000
-0.000000, -35.795717, 16.875000
-0.000000, -35.795717, 17.000000
-0.000000, -35.651379, 17.125000
-0.000000, -35.507042, 17.250000
-0.000000, -35.507042, 17.375000
-0.000000, -35.507042, 17.500000
-0.000000, -35.507042, 17.625000
-0.000000, -35.507042, 17.750000
-0.000000, -35.362704, 17.875000
-0.000000, -35.362704, 18.000000
-0.000000, -35.362704, 18.125000
-0.000000, -35.218366, 18.250000
-0.000000, -35.218366, 18.375000
-0.000000, -35.074029, 18.500000
-0.000000, -35.218366, 18.625000
-0.000000, -34.929691, 18.750000
-0.000000, -34.929691, 18.875000
-0.000000, -34.929691, 19.000000
-0.000000, -34.785354, 19.125000
-0.000000, -34.785354, 19.250000
-0.000000, -34.641016, 19.375000
-0.000000, -34.641016, 19.500000
-0.000000, -34.641016, 19.625000
-0.000000, -34.496679, 19.750000
-0.000000, -34.641016, 19.875000
-0.000000, -34.352341, 20.000000
-0.000000, -34.352341, 20.125000
-0.000000, -34.352341, 20.250000
-0.000000, -34.352341, 20.375000
-0.000000, -34.208003, 20.500000
-0.000000, -34.208003, 20.625000
-0.000000, -34.208003, 20.750000
-0.000000, -34.063666, 20.875000
-0.000000, -34.063666, 21.000000
-0.000000, -34.063666, 21.125000
-0.000000, -33.919328, 21.250000
-0.000000, -33.919328, 21.375000
-0.000000, -33.919328, 21.500000
-0.000000, -33.774991, 21.625000
-0.000000, -33.774991, 21.750000
-0.000000, -33.774991, 21.875000
-0.000000, -33.630653, 22.000000
-0.000000, -33.630653, 22.125000
-0.000000, -33.486316, 22.250000
-0.000000, -33.630653, 22.375000
-0.000000, -33.486316, 22.500000
-0.000000, -33.341978, 22.625000
-0.000000, -33.341978, 22.750000
-0.000000, -33.341978, 22.875000
-0.000000, -33.197640, 23.000000
-0.000000, -33.197640, 23.125000
-0.000000, -33.197640, 23.250000
-0.000000, -33.197640, 23.375000
-0.000000, -33.053303, 23.500000
-0.000000, -33.053303, 23.625000
-0.000000, -32.908965, 23.750000
-0.000000, -32.908965, 23.875000
-0.000000, -32.908965, 24.000000
-0.000000, -32.908965, 24.125000
-0.000000, -32.764628, 24.250000
-0.000000, -32.764628, 24.375000
-0.000000, -32.620290, 24.500000
-0.000000, -32.620290, 24.625000
-0.000000, -32.620290, 24.750000
-0.000000, -32.475953, 24.875000
-0.000000, -32.475953, 25.000000
-0.000000, -32.475953, 25.125000
-0.000000, -32.331615, 25.250000
-0.000000, -32.331615, 25.375000
-0.000000, -32.331615, 25.500000
-0.000000, -32.187278, 25.625000
-0.000000, -32.187278, 25.750000
-0.000000, -32.042940, 25.875000
-0.000000, -32.042940, 26.000000
-0.000000, -32.042940, 26.125000
-0.000000, -31.898602, 26.250000
-0.000000, -31.898602, 26.375000
-0.000000, -31.898602, 26.500000
-0.000000, -31.898602, 26.625000
-0.000000, -31.898602, 26.750000
-0.000000, -31.754265, 26.875000
-0.000000, -31.754265, 27.000000
-0.000000, -31.609927, 27.125000
-0.000000, -31.609927, 27.250000
-0.000000, -31.609927, 27.375000
-0.000000, -31.465590, 27.500000
-0.000000, -31.465590, 27.625000
-0.000000, -31.465590, 27.750000
-0.000000, -31.321252, 27.875000
-0.000000, -31.321252, 28.000000
-0.000000, -31.321252, 28.125000
-0.000000, -31.176915, 28.250000
-0.000000, -31.176915, 28.375000
-0.000000, -31.032577, 28.500000
-0.000000, -31.032577, 28.625000
-0.000000, -31.032577, 28.750000
-0.000000, -31.032577, 28.875000
-0.000000, -30.888239, 29.000000
-0.000000, -30.888239, 29.125000
-0.000000, -30.888239, 29.250000
-0.000000, -30.888239, 29.375000
-0.000000, -30.743902, 29.500000
-0.000000, -30.599564, 29.625000
-0.000000, -30.599564, 29.750000
-0.000000, -30.599564, 29.875000
-0.000000, -30.599564, 30.000000
-0.000000, -30.455227, 30.125000
-0.000000, -30.455227, 30.250000
-0.000000, -30.455227, 30.375000
-0.000000, -30.310889, 30.500000
-0.000000, -30.310889, 30.625000
-0.000000, -30.166552, 30.750000
-0.000000, -30.166552, 30.875000
-0.000000, -30.166552, 31.000000
-0.000000, -30.166552, 31.125000
-0.000000, -30.022214, 31.250000
-0.000000, -30.022214, 31.375000
-0.000000, -29.877876, 31.500000
-0.000000, -29.877876, 31.625000
-0.000000, -29.877876, 31.750000
-0.000000, -29.733539, 31.875000
-0.000000, -29.733539, 32.000000
-0.000000, -29.733539, 32.125000
-0.000000, -29.589201, 32.250000
-0.000000, -29.589201, 32.375000
-0.000000, -29.589201, 32.500000
-0.000000, -29.444864, 32.625000
-0.000000, -29.444864, 32.750000
-0.000000, -29.444864, 32.875000
-0.000000, -29.300526, 33.000000
-0.000000, -29.300526, 33.125000
-0.000000, -29.156189, 33.250000
-0.000000, -29.156189, 33.375000
-0.000000, -29.156189, 33.500000
-0.000000, -29.011851, 33.625000
-0.000000, -29.011851, 33.750000
-0.000000, -29.011851, 33.875000
-0.000000, -28.867513, 34.000000
-0.000000, -28.867513, 34.125000
-0.000000, -28.867513, 34.250000
-0.000000, -28.723176, 34.375000
-0.000000, -28.723176, 34.500000
-0.000000, -28.723176, 34.625000
-0.000000, -28.578838, 34.750000
-0.000000, -28.578838, 34.875000
-0.000000, -28.578838, 35.000000
-0.000000, -28.434501, 35.125000
-0.000000, -28.578838, 35.250000
-0.000000, -28.290163, 35.375000
-0.000000, -28.290163, 35.500000
-0.000000, -28.290163, 35.625000
-0.000000, -28.145826, 35.750000
-0.000000, -28.145826, 35.875000
-0.000000, -28.145826, 36.000000
-0.000000, -28.145826, 36.125000
-0.000000, -28.001488, 36.250000
-0.000000, -28.001488, 36.375000
-0.000000, -27.857150, 36.500000
-0.000000, -27.857150, 36.625000
-0.000000, -27.857150, 36.750000
-0.000000, -27.712813, 36.875000
-0.000000, -27.712813, 37.000000
-0.000000, -27.712813, 37.125000
-0.000000, -27.568475, 37.250000
-0.000000, -27.568475, 37.375000
-0.000000, -27.424138, 37.500000
-0.000000, -27.424138, 37.625000
-0.000000, -27.424138, 37.750000
-0.000000, -27.424138, 37.875000
-0.000000, -27.279800, 38.000000
-0.000000, -27.279800, 38.125000
-0.000000, -27.135463, 38.250000
-0.000000, -27.135463, 38.375000
-0.000000, -27.135463, 38.500000
-0.000000, -26.991125, 38.625000
-0.000000, -26.991125, 38.750000
-0.000000, -26.991125, 38.875000
-0.000000, -26.846788, 39.000000
-0.000000, -26.846788, 39.125000
-0.000000, -26.846788, 39.250000
-0.000000, -26.702450, 39.375000
-0.000000, -26.702450, 39.500000
-0.000000, -26.558112, 39.625000
-0.000000, -26.558112, 39.750000
-0.000000, -26.558112, 39.875000
-0.000000, -26.558112, 40.000000
-0.000000, -26.413775, 40.125000
-0.000000, -26.413775, 40.250000
-0.000000, -26.269437, 40.375000
-0.000000, -26.269437, 40.500000
-0.000000, -26.269437, 40.625000
-0.000000, -26.125100, 40.750000
-0.000000, -26.125100, 40.875000
-0.000000, -26.125100, 41.000000
-0.000000, -25.980762, 41.125000
-0.000000, -25.980762, 41.250000
-0.000000, -25.980762, 41.375000
-0.000000, -25.980762, 41.500000
-0.000000, -25.836425, 41.625000
-0.000000, -25.836425, 41.750000
-0.000000, -25.692087, 41.875000
-0.000000, -25.692087, 42.000000
-0.000000, -25.692087, 42.125000
-0.000000, -25.547749, 42.250000
-0.000000, -25.547749, 42.375000
-0.000000, -25.547749, 42.500000
-0.000000, -25.403412, 42.625000
-0.000000, -25.403412, 42.750000
-0.000000, -25.403412, 42.875000
-0.000000, -25.259074, 43.000000
-0.000000, -25.259074, 43.125000
-0.000000, -25.259074, 43.250000
-0.000000, -25.114737, 43.375000
-0.000000, -25.114737, 43.500000
-0.000000, -25.114737, 43.625000
-0.000000, -25.114737, 43.750000
-0.000000, -24.970399, 43.875000
-0.000000, -24.970399, 44.000000
-0.000000, -24.826062, 44.125000
-0.000000, -24.826062, 44.250000
-0.000000, -24.826062, 44.375000
-0.000000, -24.681724, 44.500000
-0.000000, -24.681724, 44.625000
-0.000000, -24.681724, 44.750000
-0.000000, -24.537386, 44.875000
-0.000000, -24.537386, 45.000000
-0.000000, -24.537386, 45.125000
-0.000000, -24.393049, 45.250000
-0.000000, -24.393049, 45.375000
-0.000000, -24.393049, 45.500000
-0.000000, -24.248711, 45.625000
-0.000000, -24.248711, 45.750000
-0.000000, -24.248711, 45.875000
-0.000000, -24.104374, 46.000000
-0.000000, -24.104374, 46.125000
-0.000000, -24.104374, 46.250000
-0.000000, -23.960036, 46.375000
-0.000000, -23.960036, 46.500000
-0.000000, -23.960036, 46.625000
-0.000000, -23.815699, 46.750000
-0.000000, -23.815699, 46.875000
-0.000000, -23.671361, 47.000000
-0.000000, -23.671361, 47.125000
-0.000000, -23.671361, 47.250000
-0.000000, -23.671361, 47.375000
-0.000000, -23.527023, 47.500000
-0.000000, -23.527023, 47.625000
-0.000000, -23.527023, 47.750000
-0.000000, -23.382686, 47.875000
-0.000000, -23.382686, 48.000000
-0.000000, -23.238348, 48.125000
-0.000000, -23.238348, 48.250000
-0.000000, -23.238348, 48.375000
-0.000000, -23.238348, 48.500000
-0.000000, -23.094011, 48.625000
-0.000000, -23.094011, 48.750000
-0.000000, -23.094011, 48.875000
-0.000000, -23.094011, 49.000000
-0.000000, -23.094011, 49.125000
-0.000000, -23.094011, 49.250000
-0.000000, -23.238348, 49.375000
-0.000000, -23.238348, 49.500000
-0.000000, -23.238348, 49.625000
-0.000000, -23.382686, 49.750000
-0.000000, -23.382686, 49.875000
-0.000000, -23.527023, 50.000000
-0.000000, -23.527023, 50.125000
-0.000000, -23.671361, 50.250000
-0.000000, -23.671361, 50.375000
-0.000000, -23.671361, 50.500000
-0.000000, -23.815699, 50.625000
-0.000000, -23.815699, 50.750000
-0.000000, -23.815699, 50.875000
-0.000000, -23.960036, 51.000000
-0.000000, -24.104374, 51.125000
-0.000000, -24.104374, 51.250000
-0.000000, -24.104374, 51.375000
-0.000000, -24.104374, 51.500000
-0.000000, -24.248711, 51.625000
-0.000000, -24.248711, 51.750000
-0.000000, -24.393049, 51.875000
-0.000000, -24.393049, 52.000000
-0.000000, -24.393049, 52.125000
-0.000000, -24.537386, 52.250000
-0.000000, -24.537386, 52.375000
-0.000000, -24.537386, 52.500000
-0.000000, -24.681724, 52.625000
-0.000000, -24.681724, 52.750000
-0.000000, -24.826062, 52.875000
-0.000000, -24.826062, 53.000000
-0.000000, -24.826062, 53.125000
-0.000000, -24.970399, 53.250000
-0.000000, -24.970399, 53.375000
-0.000000, -25.114737, 53.500000
-0.000000, -25.114737, 53.625000
-0.000000, -25.114737, 53.750000
-0.000000, -25.403412, 53.875000
-0.000000, -25.259074, 54.000000
-0.000000, -25.403412, 54.125000
-0.000000, -25.403412, 54.250000
-0.000000, -25.403412, 54.375000
-0.000000, -25.547749, 54.500000
-0.000000, -25.547749, 54.625000
-0.000000, -25.692087, 54.750000
-0.000000, -25.692087, 54.875000
-0.000000, -25.836425, 55.000000
-0.000000, -25.836425, 55.125000
-0.000000, -25.980762, 55.250000
-0.000000, -25.980762, 55.375000
-0.000000, -25.980762, 55.500000
-0.000000, -26.125100, 55.625000
-0.000000, -26.125100, 55.750000
-0.000000, -26.269437, 55.875000
-0.000000, -26.269437, 56.000000
-0.000000, -26.269437, 56.125000
-0.000000, -26.413775, 56.250000
-0.000000, -26.413775, 56.375000
-0.000000, -26.558112, 56.500000
-0.000000, -26.558112, 56.625000
-0.000000, -26.702450, 56.750000
-0.000000, -26.702450, 56.875000
-0.000000, -26.702450, 57.000000
-0.000000, -26.846788, 57.125000
-0.000000, -26.846788, 57.250000
-0.000000, -26.846788, 57.375000
-0.000000, -26.991125, 57.500000
-0.000000, -26.991125, 57.625000
-0.000000, -26.991125, 57.750000
-0.000000, -27.135463, 57.875000
-0.000000, -27.135463, 58.000000
-0.000000, -27.279800, 58.125000
-0.000000, -27.279800, 58.250000
-0.000000, -27.279800, 58.375000
-0.000000, -27.424138, 58.500000
-0.000000, -27.568475, 58.625000
-0.000000, -27.424138, 58.750000
-0.000000, -27.568475, 58.875000
-0.000000, -27.568475, 59.000000
-0.000000, -27.712813, 59.125000
-0.000000, -27.712813, 59.250000
-0.000000, -27.712813, 59.375000
-0.000000, -27.857150, 59.500000
-0.000000, -28.001488, 59.625000
-0.000000, -28.001488, 59.750000
-0.000000, -28.001488, 59.875000
-0.000000, -28.145826, 60.000000
-0.000000, -28.145826, 60.125000
-0.000000, -28.290163, 60.250000
-0.000000, -28.290163, 60.375000
-0.000000, -28.290163, 60.500000
-0.000000, -28.434501, 60.625000
-0.000000, -28.434501, 60.750000
-0.000000, -28.578838, 60.875000
-0.000000, -28.578838, 61.000000
-0.000000, -28.578838, 61.125000
-0.000000, -28.723176, 61.250000
-0.000000, -28.867513, 61.375000
-0.000000, -28.867513, 61.500000
-0.000000, -28.867513, 61.625000
-0.000000, -29.011851, 61.750000
-0.000000, -29.011851, 61.875000
-0.000000, -29.011851, 62.000000
-0.000000, -29.156189, 62.125000
-0.000000, -29.156189, 62.250000
-0.000000, -29.300526, 62.375000
-0.000000, -29.300526, 62.500000
-0.000000, -29.300526, 62.625000
-0.000000, -29.444864, 62.750000
-0.000000, -29.444864, 62.875000
-0.000000, -29.589201, 63.000000
-0.000000, -29.589201, 63.125000
-0.000000, -29.589201, 63.250000
-0.000000, -29.733539, 63.375000
-0.000000, -29.733539, 63.500000
-0.000000, -29.733539, 63.625000
-0.000000, -29.877876, 63.750000
-0.000000, -30.022214, 63.875000
-0.000000, -30.022214, 64.000000
-0.000000, -30.022214, 64.125000
-0.000000, -30.022214, 64.250000
-0.000000, -30.166552, 64.375000
-0.000000, -30.166552, 64.500000
-0.000000, -30.310889, 64.625000
-0.000000, -30.310889, 64.750000
-0.000000, -30.310889, 64.875000
-0.000000, -30.455227, 65.000000
-0.000000, -30.455227, 65.125000
-0.000000, -30.455227, 65.250000
-0.000000, -30.599564, 65.375000
-0.000000, -30.743902, 65.500000
-0.000000, -30.743902, 65.625000
-0.000000, -30.743902, 65.750000
-0.000000, -30.888239, 65.875000
-0.000000, -30.888239, 66.000000
-0.000000, -30.888239, 66.125000
-0.000000, -31.032577, 66.250000
-0.000000, -31.032577, 66.375000
-0.000000, -31.032577, 66.500000
-0.000000, -31.176915, 66.625000
-0.000000, -31.176915, 66.750000
-0.000000, -31.321252, 66.875000
-0.000000, -31.321252, 67.000000
-0.000000, -31.465590, 67.125000
-0.000000, -31.465590, 67.250000
-0.000000, -31.465590, 67.375000
-0.000000, -31.609927, 67.500000
-0.000000, -31.609927, 67.625000
-0.000000, -31.609927, 67.750000
-0.000000, -31.754265, 67.875000
-0.000000, -31.754265, 68.000000
-0.000000, -31.898602, 68.125000
-0.000000, -31.898602, 68.250000
-0.000000, -31.898602, 68.375000
-0.000000, -32.042940, 68.500000
-0.000000, -32.042940, 68.625000
-0.000000, -32.187278, 68.750000
-0.000000, -32.187278, 68.875000
-0.000000, -32.331615, 69.000000
-0.000000, -32.331615, 69.125000
-0.000000, -32.475953, 69.250000
-0.000000, -32.475953, 69.375000
-0.000000, -32.475953, 69.500000
-0.000000, -32.475953, 69.625000
-0.000000, -32.620290, 69.750000
-0.000000, -32.620290, 69.875000
-0.000000, -32.764628, 70.000000
-0.000000, -32.764628, 70.125000
-0.000000, -32.908965, 70.250000
-0.000000, -32.908965, 70.375000
-0.000000, -32.908965, 70.500000
-0.000000, -33.053303, 70.625000
-0.000000, -33.053303, 70.750000
-0.000000, -33.197640, 70.875000
-0.000000, -33.197640, 71.000000
-0.000000, -33.197640, 71.125000
-0.000000, -33.341978, 71.250000
-0.000000, -33.341978, 71.375000
-0.000000, -33.341978, 71.500000
-0.000000, -33.486316, 71.625000
-0.000000, -33.486316, 71.750000
-0.000000, -33.630653, 71.875000
-0.000000, -33.630653, 72.000000
-0.000000, -33.630653, 72.125000
-0.000000, -33.774991, 72.250000
-0.000000, -33.774991, 72.375000
-0.000000, -33.919328, 72.500000
-0.000000, -33.919328, 72.625000
-0.000000, -33.919328, 72.750000
-0.000000, -34.063666, 72.875000
-0.000000, -34.063666, 73.000000
-0.000000, -34.208003, 73.125000
-0.000000, -34.208003, 73.250000
-0.000000, -34.208003, 73.375000
-0.000000, -34.352341, 73.500000
-0.000000, -34.352341, 73.625000
-0.000000, -34.496679, 73.750000
-0.000000, -34.496679, 73.875000
-0.000000, -34.496679, 74.000000
-0.000000, -34.641016, 74.125000
-0.000000, -34.641016, 74.250000
-0.000000, -34.785354, 74.375000
-0.000000, -34.785354, 74.500000
-0.000000, -34.785354, 74.625000
-0.000000, -34.929691, 74.750000
-0.000000, -34.929691, 74.875000
-0.000000, -35.074029, 75.000000
-0.000000, -35.218366, 75.125000
-0.000000, -35.074029, 75.250000
-0.000000, -35.218366, 75.375000
-0.000000, -35.218366, 75.500000
-0.000000, -35.362704, 75.625000
-0.000000, -35.362704, 75.750000
-0.000000, -35.362704, 75.875000
-0.000000, -35.362704, 76.000000
-0.000000, -35.507042, 76.125000
-0.000000, -35.651379, 76.250000
-0.000000, -35.651379, 76.375000
-0.000000, -35.651379, 76.500000
-0.000000, -35.795717, 76.625000
-0.000000, -35.795717, 76.750000
-0.000000, -35.795717, 76.875000
-0.000000, -35.940054, 77.000000
-0.000000, -35.940054, 77.125000
-0.000000, -36.084392, 77.250000
-0.000000, -36.084392, 77.375000
-0.000000, -36.228729, 77.500000
-0.000000, -36.228729, 77.625000
-0.000000, -36.228729, 77.750000
-0.000000, -36.373067, 77.875000
-0.000000, -36.373067, 78.000000
-0.000000, -36.517405, 78.125000
-0.000000, -36.517405, 78.250000
-0.000000, -36.517405, 78.375000
-0.000000, -36.661742, 78.500000
-0.000000, -36.661742, 78.625000
-0.000000, -36.661742, 78.750000
-0.000000, -36.806080, 78.875000
-0.000000, -36.806080, 79.000000
-0.000000, -36.806080, 79.125000
-0.000000, -36.950417, 79.250000
-0.000000, -36.950417, 79.375000
-0.000000, -36.950417, 79.500000
-0.000000, -37.094755, 79.625000
-0.000000, -37.094755, 79.750000
-0.000000, -37.239092, 79.875000
-0.000000, -37.239092, 80.000000
-0.000000, -37.239092, 80.125000
-0.000000, -37.239092, 80.250000
-0.000000, -37.383430, 80.375000
-0.000000, -37.383430, 80.500000
-0.000000, -37.383430, 80.625000
-0.000000, -37.383430, 80.750000
1.160641, -36.932184, 16.250000
1.156107, -36.787918, 16.375000
1.156107, -36.787918, 16.500000
1.151573, -36.643652, 16.625000
1.151573, -36.643652, 16.750000
1.151573, -36.643652, 16.875000
1.147039, -36.499385, 17.000000
1.147039, -36.499385, 17.125000
1.147039, -36.499385, 17.250000
1.142506, -36.355119, 17.375000
1.142506, -36.355119, 17.500000
1.142506, -36.355119, 17.625000
1.137972, -36.210853, 17.750000
1.142506, -36.355119, 17.875000
1.133438, -36.066586, 18.000000
1.133438, -36.066586, 18.125000
1.133438, -36.066586, 18.250000
1.133438, -36.066586, 18.375000
1.128904, -35.922320, 18.500000
1.124371, -35.778054, 18.625000
1.124371, -35.778054, 18.750000
1.124371, -35.778054, 18.875000
1.119837, -35.633787, 19.000000
1.119837, -35.633787, 19.125000
1.119837, -35.633787, 19.250000
1.119837, -35.633787, 19.375000
1.115303, -35.489521, 19.500000
1.110769, -35.345255, 19.625000
1.110769, -35.345255, 19.750000
1.106236, -35.200988, 19.875000
1.106236, -35.200988, 20.000000
1.106236, -35.200988, 20.125000
1.101702, -35.056722, 20.250000
1.101702, -35.056722, 20.375000
1.101702, -35.056722, 20.500000
1.101702, -35.056722, 20.625000
1.097168, -34.912456, 20.750000
1.097168, -34.912456, 20.875000
1.097168, -34.912456, 21.000000
1.092634, -34.768189, 21.125000
1.092634, -34.768189, 21.250000
1.092634, -34.768189, 21.375000
1.088101, -34.623923, 21.500000
1.088101, -34.623923, 21.625000
1.088101, -34.623923, 21.750000
1.083567, -34.479657, 21.875000
1.083567, -34.479657, 22.000000
1.083567, -34.479657, 22.125000
1.079033, -34.335390, 22.250000
1.074499, -34.191124, 22.375000
1.074499, -34.191124, 22.500000
1.074499, -34.191124, 22.625000
1.069966, -34.046858, 22.750000
1.069966, -34.046858, 22.875000
1.065432, -33.902591, 23.000000
1.065432, -33.902591, 23.125000
1.065432, -33.902591, 23.250000
1.065432, -33.902591, 23.375000
1.060898, -33.758325, 23.500000
1.060898, -33.758325, 23.625000
1.060898, -33.758325, 23.750000
1.056364, -33.614058, 23.875000
1.056364, -33.614058, 24.000000
1.051831, -33.469792, 24.125000
1.051831, -33.469792, 24.250000
1.051831, -33.469792, 24.375000
1.051831, -33.469792, 24.500000
1.047297, -33.325526, 24.625000
1.047297, -33.325526, 24.750000
1.047297, -33.325526, 24.875000
1.042763, -33.181259, 25.000000
1.042763, -33.181259, 25.125000
1.038229, -33.036993, 25.250000
1.038229, -33.036993, 25.375000
1.038229, -33.036993, 25.500000
1.038229, -33.036993, 25.625000
1.033696, -32.892727, 25.750000
1.033696, -32.892727, 25.875000
1.029162, -32.748460, 26.000000
1.029162, -32.748460, 26.125000
1.024628, -32.604194, 26.250000
1.024628, -32.604194, 26.375000
1.024628, -32.604194, 26.500000
1.020094, -32.459928, 26.625000
1.020094, -32.459928, 26.750000
1.020094, -32.459928, 26.875000
1.020094, -32.459928, 27.000000
1.015561, -32.315661, 27.125000
1.015561, -32.315661, 27.250000
1.015561, -32.315661, 27.375000
1.011027, -32.171395, 27.500000
1.011027, -32.171395, 27.625000
1.006493, -32.027129, 27.750000
1.006493, -32.027129, 27.875000
1.006493, -32.027129, 28.000000
1.006493, -32.027129, 28.125000
1.001959, -31.882862, 28.250000
1.001959, -31.882862, 28.375000
1.001959, -31.882862, 28.500000
0.997426, -31.738596, 28.625000
0.997426, -31.738596, 28.750000
0.997426, -31.738596, 28.875000
0.992892, -31.594330, 29.000000
0.992892, -31.594330, 29.125000
0.988358, -31.450063, 29.250000
0.988358, -31.450063, 29.375000
0.983824, -31.305797, 29.500000
0.983824, -31.305797, 29.625000
0.983824, -31.305797, 29.750000
0.979291, -31.161531, 29.875000
0.979291, -31.161531, 30.000000
0.979291, -31.161531, 30.125000
0.974757, -31.017264, 30.250000
0.974757, -31.017264, 30.375000
0.974757, -31.017264, 30.500000
0.970223, -30.872998, 30.625000
0.970223, -30.872998, 30.750000
0.970223, -30.872998, 30.875000
0.965689, -30.728732, 31.000000
0.965689, -30.728732, 31.125000
0.965689, -30.728732, 31.250000
0.961156, -30.584465, 31.375000
0.961156, -30.584465, 31.500000
0.961156, -30.584465, 31.625000
0.956622, -30.440199, 31.750000
0.956622, -30.440199, 31.875000
0.952088, -30.295933, 32.000000
0.952088, -30.295933, 32.125000
0.952088, -30.295933, 32.250000
0.947554, -30.151666, 32.375000
0.947554, -30.151666, 32.500000
0.947554, -30.151666, 32.625000
0.943021, -30.007400, 32.750000
0.943021, -30.007400, 32.875000
0.943021, -30.007400, 33.000000
0.938487, -29.863134, 33.125000
0.938487, -29.863134, 33.250000
0.933953, -29.718867, 33.375000
0.933953, -29.718867, 33.500000
0.933953, -29.718867, 33.625000
0.929419, -29.574601, 33.750000
0.929419, -29.574601, 33.875000
0.929419, -29.574601, 34.000000
0.924886, -29.430334, 34.125000
0.924886, -29.430334, 34.250000
0.924886, -29.430334, 34.375000
0.920352, -29.286068, 34.500000
0.920352, -29.286068, 34.625000
0.915818, -29.141802, 34.750000
0.915818, -29.141802, 34.875000
0.915818, -29.141802, 35.000000
0.911284, -28.997535, 35.125000
0.911284, -28.997535, 35.250000
0.911284, -28.997535, 35.375000
0.906751, -28.853269, 35.500000
0.906751, -28.853269, 35.625000
0.902217, -28.709003, 35.750000
0.902217, -28.709003, 35.875000
0.902217, -28.709003, 36.000000
0.897683, -28.564736, 36.125000
0.897683, -28.564736, 36.250000
0.897683, -28.564736, 36.375000
0.893149, -28.420470, 36.500000
0.893149, -28.420470, 36.625000
0.893149, -28.420470, 36.750000
0.888616, -28.276204, 36.875000
0.888616, -28.276204, 37.000000
0.888616, -28.276204, 37.125000
0.884082, -28.131937, 37.250000
0.884082, -28.131937, 37.375000
0.879548, -27.987671, 37.500000
0.879548, -27.987671, 37.625000
0.879548, -27.987671, 37.750000
0.875014, -27.843405, 37.875000
0.875014, -27.843405, 38.000000
0.875014, -27.843405, 38.125000
0.875014, -27.843405, 38.250000
0.870480, -27.699138, 38.375000
0.865947, -27.554872, 38.500000
0.865947, -27.554872, 38.625000
0.865947, -27.554872, 38.750000
0.865947, -27.554872, 38.875000
0.861413, -27.410606, 39.000000
0.861413, -27.410606, 39.125000
0.856879, -27.266339, 39.250000
0.856879, -27.266339, 39.375000
0.856879, -27.266339, 39.500000
0.852345, -27.122073, 39.625000
0.852345, -27.122073, 39.750000
0.847812, -26.977807, 39.875000
0.847812, -26.977807, 40.000000
0.847812, -26.977807, 40.125000
0.847812, -26.977807, 40.250000
0.843278, -26.833540, 40.375000
0.843278, -26.833540, 40.500000
0.838744, -26.689274, 40.625000
0.838744, -26.689274, 40.750000
0.838744, -26.689274, 40.875000
0.838744, -26.689274, 41.000000
0.834210, -26.545008, 41.125000
0.834210, -26.545008, 41.250000
0.834210, -26.545008, 41.375000
0.829677, -26.400741, 41.500000
0.829677, -26.400741, 41.625000
0.825143, -26.256475, 41.750000
0.825143, -26.256475, 41.875000
0.825143, -26.256475, 42.000000
0.820609, -26.112209, 42.125000
0.820609, -26.112209, 42.250000
0.816075, -25.967942, 42.375000
0.816075, -25.967942, 42.500000
0.816075, -25.967942, 42.625000
0.811542, -25.823676, 42.750000
0.811542, -25.823676, 42.875000
0.807008, -25.679409, 43.000000
0.807008, -25.679409, 43.125000
0.807008, -25.679409, 43.250000
0.807008, -25.679409, 43.375000
0.802474, -25.535143, 43.500000
0.802474, -25.535143, 43.625000
0.802474, -25.535143, 43.750000
0.802474, -25.535143, 43.875000
0.797940, -25.390877, 44.000000
0.797940, -25.390877, 44.125000
0.793407, -25.246610, 44.250000
0.793407, -25.246610, 44.375000
0.793407, -25.246610, 44.500000
0.788873, -25.102344, 44.625000
0.788873, -25.102344, 44.750000
0.788873, -25.102344, 44.875000
0.784339, -24.958078, 45.000000
0.784339, -24.958078, 45.125000
0.784339, -24.958078, 45.250000
0.779805, -24.813811, 45.375000
0.779805, -24.813811, 45.500000
0.779805, -24.813811, 45.625000
0.775272, -24.669545, 45.750000
0.775272, -24.669545, 45.875000
0.770738, -24.525279, 46.000000
0.770738, -24.525279, 46.125000
0.770738, -24.525279, 46.250000
0.766204, -24.381012, 46.375000
0.766204, -24.381012, 46.500000
0.761670, -24.236746, 46.625000
0.761670, -24.236746, 46.750000
0.761670, -24.236746, 46.875000
0.761670, -24.236746, 47.000000
0.757137, -24.092480, 47.125000
0.757137, -24.092480, 47.250000
0.757137, -24.092480, 47.375000
0.752603, -23.948213, 47.500000
0.752603, -23.948213, 47.625000
0.748069, -23.803947, 47.750000
0.748069, -23.803947, 47.875000
0.748069, -23.803947, 48.000000
0.748069, -23.803947, 48.125000
0.743535, -23.659681, 48.250000
0.743535, -23.659681, 48.375000
0.739002, -23.515414, 48.500000
0.739002, -23.515414, 48.625000
0.739002, -23.515414, 48.750000
0.739002, -23.515414, 48.875000
0.739002, -23.515414, 49.000000
0.739002, -23.515414, 49.125000
0.739002, -23.515414, 49.250000
0.739002, -23.515414, 49.375000
0.739002, -23.515414, 49.500000
0.743535, -23.659681, 49.625000
0.743535, -23.659681, 49.750000
0.743535, -23.659681, 49.875000
0.748069, -23.803947, 50.000000
0.748069, -23.803947, 50.125000
0.748069, -23.803947, 50.250000
0.752603, -23.948213, 50.375000
0.752603, -23.948213, 50.500000
