26.272259, 3.318958, 37.250000
26.272259, 3.318958, 37.375000
26.272259, 3.318958, 37.500000
26.135424, 3.301672, 37.625000
26.135424, 3.301672, 37.750000
26.135424, 3.301672, 37.875000
25.998590, 3.284386, 38.000000
25.998590, 3.284386, 38.125000
25.861755, 3.267099, 38.250000
25.861755, 3.267099, 38.375000
25.861755, 3.267099, 38.500000
25.724920, 3.249813, 38.625000
25.724920, 3.249813, 38.750000
25.724920, 3.249813, 38.875000
25.588085, 3.232527, 39.000000
25.588085, 3.232527, 39.125000
25.588085, 3.232527, 39.250000
25.588085, 3.232527, 39.375000
25.451251, 3.215241, 39.500000
25.451251, 3.215241, 39.625000
25.314416, 3.197954, 39.750000
25.314416, 3.197954, 39.875000
25.314416, 3.197954, 40.000000
25.314416, 3.197954, 40.125000
25.177581, 3.180668, 40.250000
25.177581, 3.180668, 40.375000
25.177581, 3.180668, 40.500000
25.040747, 3.163382, 40.625000
25.040747, 3.163382, 40.750000
25.040747, 3.163382, 40.875000
24.903912, 3.146096, 41.000000
24.903912, 3.146096, 41.125000
24.903912, 3.146096, 41.250000
24.767077, 3.128809, 41.375000
24.767077, 3.128809, 41.500000
24.630243, 3.111523, 41.625000
24.630243, 3.111523, 41.750000
24.630243, 3.111523, 41.875000
24.630243, 3.111523, 42.000000
24.493408, 3.094237, 42.125000
24.493408, 3.094237, 42.250000
24.493408, 3.094237, 42.375000
24.356573, 3.076951, 42.500000
24.356573, 3.076951, 42.625000
24.356573, 3.076951, 42.750000
24.219739, 3.059665, 42.875000
24.219739, 3.059665, 43.000000
24.219739, 3.059665, 43.125000
24.082904, 3.042378, 43.250000
24.082904, 3.042378, 43.375000
23.946069, 3.025092, 43.500000
24.082904, 3.042378, 43.625000
23.946069, 3.025092, 43.750000
23.946069, 3.025092, 43.875000
23.809235, 3.007806, 44.000000
23.809235, 3.007806, 44.125000
23.672400, 2.990520, 44.250000
23.672400, 2.990520, 44.375000
23.672400, 2.990520, 44.500000
23.672400, 2.990520, 44.625000
23.535565, 2.973233, 44.750000
23.535565, 2.973233, 44.875000
23.398731, 2.955947, 45.000000
23.398731, 2.955947, 45.125000
23.398731, 2.955947, 45.250000
23.398731, 2.955947, 45.375000
23.261896, 2.938661, 45.500000
23.261896, 2.938661, 45.625000
23.125061, 2.921375, 45.750000
23.125061, 2.921375, 45.875000
23.125061, 2.921375, 46.000000
23.125061, 2.921375, 46.125000
22.988227, 2.904088, 46.250000
22.988227, 2.904088, 46.375000
22.851392, 2.886802, 46.500000
22.851392, 2.886802, 46.625000
22.851392, 2.886802, 46.750000
22.851392, 2.886802, 46.875000
22.714557, 2.869516, 47.000000
22.714557, 2.869516, 47.125000
22.577722, 2.852230, 47.250000
22.577722, 2.852230, 47.375000
22.577722, 2.852230, 47.500000
22.440888, 2.834943, 47.625000
22.440888, 2.834943, 47.750000
22.440888, 2.834943, 47.875000
22.304053, 2.817657, 48.000000
22.304053, 2.817657, 48.125000
22.304053, 2.817657, 48.250000
22.304053, 2.817657, 48.375000
22.304053, 2.817657, 48.500000
22.304053, 2.817657, 48.625000
22.440888, 2.834943, 48.750000
22.440888, 2.834943, 48.875000
22.577722, 2.852230, 49.000000
22.577722, 2.852230, 49.125000
22.577722, 2.852230, 49.250000
22.714557, 2.869516, 49.375000
22.714557, 2.869516, 49.500000
22.851392, 2.886802, 49.625000
22.851392, 2.886802, 49.750000
22.988227, 2.904088, 49.875000
22.988227, 2.904088, 50.000000
23.125061, 2.921375, 50.125000
23.125061, 2.921375, 50.250000
23.125061, 2.921375, 50.375000
23.261896, 2.938661, 50.500000
23.398731, 2.955947, 50.625000
23.398731, 2.955947, 50.750000
23.398731, 2.955947, 50.875000
23.535565, 2.973233, 51.000000
23.535565, 2.973233, 51.125000
23.672400, 2.990520, 51.250000
23.672400, 2.990520, 51.375000
23.672400, 2.990520, 51.500000
23.809235, 3.007806, 51.625000
23.809235, 3.007806, 51.750000
23.946069, 3.025092, 51.875000
23.946069, 3.025092, 52.000000
24.082904, 3.042378, 52.125000
24.082904, 3.042378, 52.250000
24.219739, 3.059665, 52.375000
24.219739, 3.059665, 52.500000
24.219739, 3.059665, 52.625000
24.356573, 3.076951, 52.750000
24.356573, 3.076951, 52.875000
24.493408, 3.094237, 53.000000
24.493408, 3.094237, 53.125000
24.630243, 3.111523, 53.250000
24.630243, 3.111523, 53.375000
24.767077, 3.128809, 53.500000
24.767077, 3.128809, 53.625000
24.767077, 3.128809, 53.750000
24.903912, 3.146096, 53.875000
24.903912, 3.146096, 54.000000
25.040747, 3.163382, 54.125000
25.040747, 3.163382, 54.250000
25.040747, 3.163382, 54.375000
25.177581, 3.180668, 54.500000
25.177581, 3.180668, 54.625000
25.314416, 3.197954, 54.750000
25.314416, 3.197954, 54.875000
25.451251, 3.215241, 55.000000
25.451251, 3.215241, 55.125000
25.588085, 3.232527, 55.250000
25.588085, 3.232527, 55.375000
25.724920, 3.249813, 55.500000
25.724920, 3.249813, 55.625000
25.724920, 3.249813, 55.750000
25.861755, 3.267099, 55.875000
25.861755, 3.267099, 56.000000
25.998590, 3.284386, 56.125000
25.998590, 3.284386, 56.250000
26.135424, 3.301672, 56.375000
26.135424, 3.301672, 56.500000
26.272259, 3.318958, 56.625000
26.272259, 3.318958, 56.750000
26.409094, 3.336244, 56.875000
26.409094, 3.336244, 57.000000
26.409094, 3.336244, 57.125000
26.682763, 3.370817, 57.250000
26.545928, 3.353531, 57.375000
26.682763, 3.370817, 57.500000
26.682763, 3.370817, 57.625000
26.682763, 3.370817, 57.750000
26.819598, 3.388103, 57.875000
26.819598, 3.388103, 58.000000
26.956432, 3.405389, 58.125000
26.956432, 3.405389, 58.250000
27.093267, 3.422676, 58.375000
27.093267, 3.422676, 58.500000
27.230102, 3.439962, 58.625000
27.230102, 3.439962, 58.750000
27.366936, 3.457248, 58.875000
27.366936, 3.457248, 59.000000
27.366936, 3.457248, 59.125000
27.503771, 3.474534, 59.250000
27.503771, 3.474534, 59.375000
27.640606, 3.491821, 59.500000
27.640606, 3.491821, 59.625000
27.777440, 3.509107, 59.750000
27.777440, 3.509107, 59.875000
27.914275, 3.526393, 60.000000
27.914275, 3.526393, 60.125000
28.051110, 3.543679, 60.250000
28.051110, 3.543679, 60.375000
28.187944, 3.560966, 60.500000
28.324779, 3.578252, 60.625000
28.324779, 3.578252, 60.750000
28.324779, 3.578252, 60.875000
28.324779, 3.578252, 61.000000
28.461614, 3.595538, 61.125000
28.598448, 3.612824, 61.250000
28.598448, 3.612824, 61.375000
28.598448, 3.612824, 61.500000
28.735283, 3.630110, 61.625000
28.735283, 3.630110, 61.750000
28.735283, 3.630110, 61.875000
28.872118, 3.647397, 62.000000
29.008953, 3.664683, 62.125000
29.008953, 3.664683, 62.250000
29.008953, 3.664683, 62.375000
29.145787, 3.681969, 62.500000
29.145787, 3.681969, 62.625000
29.145787, 3.681969, 62.750000
29.282622, 3.699255, 62.875000
29.419457, 3.716542, 63.000000
29.419457, 3.716542, 63.125000
29.419457, 3.716542, 63.250000
29.556291, 3.733828, 63.375000
29.556291, 3.733828, 63.500000
29.693126, 3.751114, 63.625000
29.693126, 3.751114, 63.750000
29.829961, 3.768400, 63.875000
29.829961, 3.768400, 64.000000
29.966795, 3.785687, 64.125000
29.966795, 3.785687, 64.250000
30.103630, 3.802973, 64.375000
30.103630, 3.802973, 64.500000
30.240465, 3.820259, 64.625000
30.240465, 3.820259, 64.750000
30.240465, 3.820259, 64.875000
30.377299, 3.837545, 65.000000
30.377299, 3.837545, 65.125000
30.650969, 3.872118, 65.250000
30.514134, 3.854832, 65.375000
30.650969, 3.872118, 65.500000
30.650969, 3.872118, 65.625000
30.787803, 3.889404, 65.750000
30.787803, 3.889404, 65.875000
30.787803, 3.889404, 66.000000
30.924638, 3.906690, 66.125000
30.924638, 3.906690, 66.250000
31.061473, 3.923977, 66.375000
31.061473, 3.923977, 66.500000
31.198307, 3.941263, 66.625000
31.198307, 3.941263, 66.750000
31.335142, 3.958549, 66.875000
31.335142, 3.958549, 67.000000
31.335142, 3.958549, 67.125000
31.608811, 3.993122, 67.250000
31.608811, 3.993122, 67.375000
31.608811, 3.993122, 67.500000
31.608811, 3.993122, 67.625000
31.745646, 4.010408, 67.750000
31.745646, 4.010408, 67.875000
31.882481, 4.027694, 68.000000
31.882481, 4.027694, 68.125000
32.019316, 4.044980, 68.250000
32.019316, 4.044980, 68.375000
32.156150, 4.062266, 68.500000
32.156150, 4.062266, 68.625000
32.156150, 4.062266, 68.750000
32.292985, 4.079553, 68.875000
32.292985, 4.079553, 69.000000
32.429820, 4.096839, 69.125000
32.566654, 4.114125, 69.250000
32.566654, 4.114125, 69.375000
32.566654, 4.114125, 69.500000
32.703489, 4.131411, 69.625000
32.840324, 4.148698, 69.750000
32.840324, 4.148698, 69.875000
32.840324, 4.148698, 70.000000
32.977158, 4.165984, 70.125000
32.977158, 4.165984, 70.250000
33.113993, 4.183270, 70.375000
33.113993, 4.183270, 70.500000
33.250828, 4.200556, 70.625000
33.250828, 4.200556, 70.750000
33.250828, 4.200556, 70.875000
33.387662, 4.217843, 71.000000
33.387662, 4.217843, 71.125000
33.524497, 4.235129, 71.250000
33.524497, 4.235129, 71.375000
33.661332, 4.252415, 71.500000
33.661332, 4.252415, 71.625000
33.798166, 4.269701, 71.750000
33.798166, 4.269701, 71.875000
33.935001, 4.286988, 72.000000
33.935001, 4.286988, 72.125000
33.935001, 4.286988, 72.250000
34.071836, 4.304274, 72.375000
34.071836, 4.304274, 72.500000
34.208670, 4.321560, 72.625000
34.208670, 4.321560, 72.750000
34.208670, 4.321560, 72.875000
34.345505, 4.338846, 73.000000
34.345505, 4.338846, 73.125000
34.482340, 4.356133, 73.250000
34.482340, 4.356133, 73.375000
34.619174, 4.373419, 73.500000
34.619174, 4.373419, 73.625000
34.756009, 4.390705, 73.750000
34.756009, 4.390705, 73.875000
34.892844, 4.407991, 74.000000
34.892844, 4.407991, 74.125000
34.892844, 4.407991, 74.250000
35.029679, 4.425278, 74.375000
35.029679, 4.425278, 74.500000
35.029679, 4.425278, 74.625000
35.166513, 4.442564, 74.750000
35.166513, 4.442564, 74.875000
35.303348, 4.459850, 75.000000
35.303348, 4.459850, 75.125000
35.303348, 4.459850, 75.250000
35.440183, 4.477136, 75.375000
35.440183, 4.477136, 75.500000
35.577017, 4.494422, 75.625000
35.713852, 4.511709, 75.750000
35.713852, 4.511709, 75.875000
35.850687, 4.528995, 76.000000
35.850687, 4.528995, 76.125000
35.850687, 4.528995, 76.250000
35.987521, 4.546281, 76.375000
35.987521, 4.546281, 76.500000
35.987521, 4.546281, 76.625000
36.124356, 4.563567, 76.750000
36.124356, 4.563567, 76.875000
36.261191, 4.580854, 77.000000
36.261191, 4.580854, 77.125000
36.398025, 4.598140, 77.250000
36.398025, 4.598140, 77.375000
36.534860, 4.615426, 77.500000
36.534860, 4.615426, 77.625000
36.534860, 4.615426, 77.750000
36.671695, 4.632712, 77.875000
36.808529, 4.649999, 78.000000
36.808529, 4.649999, 78.125000
36.808529, 4.649999, 78.250000
36.808529, 4.649999, 78.375000
36.808529, 4.649999, 78.500000
36.808529, 4.649999, 78.625000
36.945364, 4.667285, 78.750000
33.647374, 5.329221, 17.000000
33.511150, 5.307645, 17.125000
33.511150, 5.307645, 17.250000
33.511150, 5.307645, 17.375000
33.511150, 5.307645, 17.500000
33.374926, 5.286069, 17.625000
33.238702, 5.264493, 17.750000
33.374926, 5.286069, 17.875000
33.238702, 5.264493, 18.000000
33.238702, 5.264493, 18.125000
33.102478, 5.242917, 18.250000
33.102478, 5.242917, 18.375000
33.102478, 5.242917, 18.500000
32.966254, 5.221342, 18.625000
33.102478, 5.242917, 18.750000
32.966254, 5.221342, 18.875000
32.966254, 5.221342, 19.000000
32.830029, 5.199766, 19.125000
32.693805, 5.178190, 19.250000
32.693805, 5.178190, 19.375000
32.693805, 5.178190, 19.500000
32.557581, 5.156614, 19.625000
32.557581, 5.156614, 19.750000
32.557581, 5.156614, 19.875000
32.421357, 5.135038, 20.000000
32.421357, 5.135038, 20.125000
32.557581, 5.156614, 20.250000
32.285133, 5.113463, 20.375000
32.285133, 5.113463, 20.500000
32.285133, 5.113463, 20.625000
32.148908, 5.091887, 20.750000
32.148908, 5.091887, 20.875000
32.148908, 5.091887, 21.000000
32.012684, 5.070311, 21.125000
32.012684, 5.070311, 21.250000
32.012684, 5.070311, 21.375000
31.876460, 5.048735, 21.500000
31.876460, 5.048735, 21.625000
31.876460, 5.048735, 21.750000
31.876460, 5.048735, 21.875000
31.740236, 5.027159, 22.000000
31.740236, 5.027159, 22.125000
31.740236, 5.027159, 22.250000
31.604012, 5.005584, 22.375000
31.604012, 5.005584, 22.500000
31.467787, 4.984008, 22.625000
31.467787, 4.984008, 22.750000
31.467787, 4.984008, 22.875000
31.331563, 4.962432, 23.000000
31.331563, 4.962432, 23.125000
31.331563, 4.962432, 23.250000
31.195339, 4.940856, 23.375000
31.195339, 4.940856, 23.500000
31.195339, 4.940856, 23.625000
31.059115, 4.919281, 23.750000
31.059115, 4.919281, 23.875000
31.059115, 4.919281, 24.000000
30.922891, 4.897705, 24.125000
30.922891, 4.897705, 24.250000
30.922891, 4.897705, 24.375000
30.786667, 4.876129, 24.500000
30.786667, 4.876129, 24.625000
30.786667, 4.876129, 24.750000
30.650442, 4.854553, 24.875000
30.650442, 4.854553, 25.000000
30.650442, 4.854553, 25.125000
30.514218, 4.832977, 25.250000
30.514218, 4.832977, 25.375000
30.377994, 4.811402, 25.500000
30.377994, 4.811402, 25.625000
30.377994, 4.811402, 25.750000
30.377994, 4.811402, 25.875000
30.241770, 4.789826, 26.000000
30.241770, 4.789826, 26.125000
30.241770, 4.789826, 26.250000
30.105546, 4.768250, 26.375000
30.105546, 4.768250, 26.500000
30.105546, 4.768250, 26.625000
29.969321, 4.746674, 26.750000
29.969321, 4.746674, 26.875000
29.969321, 4.746674, 27.000000
29.833097, 4.725098, 27.125000
29.833097, 4.725098, 27.250000
29.696873, 4.703523, 27.375000
29.696873, 4.703523, 27.500000
29.696873, 4.703523, 27.625000
29.696873, 4.703523, 27.750000
29.560649, 4.681947, 27.875000
29.560649, 4.681947, 28.000000
29.560649, 4.681947, 28.125000
29.424425, 4.660371, 28.250000
29.424425, 4.660371, 28.375000
29.424425, 4.660371, 28.500000
29.288200, 4.638795, 28.625000
29.288200, 4.638795, 28.750000
29.288200, 4.638795, 28.875000
29.151976, 4.617219, 29.000000
29.151976, 4.617219, 29.125000
29.151976, 4.617219, 29.250000
29.015752, 4.595644, 29.375000
29.015752, 4.595644, 29.500000
29.015752, 4.595644, 29.625000
28.879528, 4.574068, 29.750000
28.879528, 4.574068, 29.875000
28.879528, 4.574068, 30.000000
28.743304, 4.552492, 30.125000
28.743304, 4.552492, 30.250000
28.743304, 4.552492, 30.375000
28.607080, 4.530916, 30.500000
28.607080, 4.530916, 30.625000
28.470855, 4.509340, 30.750000
28.470855, 4.509340, 30.875000
28.470855, 4.509340, 31.000000
28.470855, 4.509340, 31.125000
28.334631, 4.487765, 31.250000
28.334631, 4.487765, 31.375000
28.198407, 4.466189, 31.500000
28.198407, 4.466189, 31.625000
28.198407, 4.466189, 31.750000
28.198407, 4.466189, 31.875000
28.198407, 4.466189, 32.000000
28.062183, 4.444613, 32.125000
28.062183, 4.444613, 32.250000
28.062183, 4.444613, 32.375000
27.925959, 4.423037, 32.500000
27.925959, 4.423037, 32.625000
27.925959, 4.423037, 32.750000
27.789734, 4.401462, 32.875000
27.789734, 4.401462, 33.000000
27.653510, 4.379886, 33.125000
27.653510, 4.379886, 33.250000
27.653510, 4.379886, 33.375000
27.517286, 4.358310, 33.500000
27.517286, 4.358310, 33.625000
27.517286, 4.358310, 33.750000
27.381062, 4.336734, 33.875000
27.381062, 4.336734, 34.000000
27.381062, 4.336734, 34.125000
27.381062, 4.336734, 34.250000
27.244838, 4.315158, 34.375000
27.244838, 4.315158, 34.500000
27.108613, 4.293583, 34.625000
27.108613, 4.293583, 34.750000
27.108613, 4.293583, 34.875000
27.108613, 4.293583, 35.000000
26.972389, 4.272007, 35.125000
26.972389, 4.272007, 35.250000
26.972389, 4.272007, 35.375000
26.836165, 4.250431, 35.500000
26.836165, 4.250431, 35.625000
26.699941, 4.228855, 35.750000
26.699941, 4.228855, 35.875000
26.699941, 4.228855, 36.000000
26.699941, 4.228855, 36.125000
26.563717, 4.207279, 36.250000
26.563717, 4.207279, 36.375000
26.427493, 4.185704, 36.500000
26.427493, 4.185704, 36.625000
26.427493, 4.185704, 36.750000
26.427493, 4.185704, 36.875000
26.291268, 4.164128, 37.000000
26.291268, 4.164128, 37.125000
26.155044, 4.142552, 37.250000
26.155044, 4.142552, 37.375000
26.155044, 4.142552, 37.500000
26.018820, 4.120976, 37.625000
26.018820, 4.120976, 37.750000
26.018820, 4.120976, 37.875000
25.882596, 4.099400, 38.000000
25.882596, 4.099400, 38.125000
25.882596, 4.099400, 38.250000
25.746372, 4.077825, 38.375000
25.746372, 4.077825, 38.500000
25.746372, 4.077825, 38.625000
25.610147, 4.056249, 38.750000
25.610147, 4.056249, 38.875000
25.610147, 4.056249, 39.000000
25.473923, 4.034673, 39.125000
25.473923, 4.034673, 39.250000
25.473923, 4.034673, 39.375000
25.337699, 4.013097, 39.500000
25.473923, 4.034673, 39.625000
25.201475, 3.991521, 39.750000
25.201475, 3.991521, 39.875000
25.201475, 3.991521, 40.000000
25.201475, 3.991521, 40.125000
25.065251, 3.969946, 40.250000
25.065251, 3.969946, 40.375000
24.929026, 3.948370, 40.500000
24.929026, 3.948370, 40.625000
24.929026, 3.948370, 40.750000
24.929026, 3.948370, 40.875000
24.792802, 3.926794, 41.000000
24.792802, 3.926794, 41.125000
24.792802, 3.926794, 41.250000
24.656578, 3.905218, 41.375000
24.656578, 3.905218, 41.500000
24.656578, 3.905218, 41.625000
24.520354, 3.883643, 41.750000
24.520354, 3.883643, 41.875000
24.384130, 3.862067, 42.000000
24.384130, 3.862067, 42.125000
24.384130, 3.862067, 42.250000
24.247906, 3.840491, 42.375000
24.247906, 3.840491, 42.500000
24.247906, 3.840491, 42.625000
24.247906, 3.840491, 42.750000
24.111681, 3.818915, 42.875000
24.111681, 3.818915, 43.000000
24.111681, 3.818915, 43.125000
23.975457, 3.797339, 43.250000
23.975457, 3.797339, 43.375000
23.839233, 3.775764, 43.500000
23.839233, 3.775764, 43.625000
23.839233, 3.775764, 43.750000
23.839233, 3.775764, 43.875000
23.703009, 3.754188, 44.000000
23.703009, 3.754188, 44.125000
23.703009, 3.754188, 44.250000
23.566785, 3.732612, 44.375000
23.566785, 3.732612, 44.500000
23.566785, 3.732612, 44.625000
23.430560, 3.711036, 44.750000
23.430560, 3.711036, 44.875000
23.430560, 3.711036, 45.000000
23.294336, 3.689460, 45.125000
23.294336, 3.689460, 45.250000
23.294336, 3.689460, 45.375000
23.294336, 3.689460, 45.500000
23.158112, 3.667885, 45.625000
23.021888, 3.646309, 45.750000
23.021888, 3.646309, 45.875000
23.021888, 3.646309, 46.000000
23.021888, 3.646309, 46.125000
22.885664, 3.624733, 46.250000
22.885664, 3.624733, 46.375000
22.885664, 3.624733, 46.500000
22.749439, 3.603157, 46.625000
22.749439, 3.603157, 46.750000
22.749439, 3.603157, 46.875000
22.613215, 3.581581, 47.000000
22.613215, 3.581581, 47.125000
22.476991, 3.560006, 47.250000
22.476991, 3.560006, 47.375000
22.476991, 3.560006, 47.500000
22.340767, 3.538430, 47.625000
22.340767, 3.538430, 47.750000
22.340767, 3.538430, 47.875000
22.340767, 3.538430, 48.000000
22.204543, 3.516854, 48.125000
22.204543, 3.516854, 48.250000
22.204543, 3.516854, 48.375000
22.204543, 3.516854, 48.500000
22.340767, 3.538430, 48.625000
22.340767, 3.538430, 48.750000
22.476991, 3.560006, 48.875000
22.476991, 3.560006, 49.000000
22.476991, 3.560006, 49.125000
22.613215, 3.581581, 49.250000
22.613215, 3.581581, 49.375000
22.613215, 3.581581, 49.500000
22.749439, 3.603157, 49.625000
22.885664, 3.624733, 49.750000
22.885664, 3.624733, 49.875000
22.885664, 3.624733, 50.000000
23.021888, 3.646309, 50.125000
23.021888, 3.646309, 50.250000
23.158112, 3.667885, 50.375000
23.158112, 3.667885, 50.500000
23.158112, 3.667885, 50.625000
23.294336, 3.689460, 50.750000
23.294336, 3.689460, 50.875000
23.430560, 3.711036, 51.000000
23.430560, 3.711036, 51.125000
23.566785, 3.732612, 51.250000
23.566785, 3.732612, 51.375000
23.703009, 3.754188, 51.500000
23.703009, 3.754188, 51.625000
23.839233, 3.775764, 51.750000
23.839233, 3.775764, 51.875000
23.839233, 3.775764, 52.000000
23.975457, 3.797339, 52.125000
23.975457, 3.797339, 52.250000
24.111681, 3.818915, 52.375000
24.111681, 3.818915, 52.500000
24.247906, 3.840491, 52.625000
24.247906, 3.840491, 52.750000
24.384130, 3.862067, 52.875000
24.384130, 3.862067, 53.000000
24.384130, 3.862067, 53.125000
24.520354, 3.883643, 53.250000
24.520354, 3.883643, 53.375000
24.656578, 3.905218, 53.500000
24.656578, 3.905218, 53.625000
24.792802, 3.926794, 53.750000
24.792802, 3.926794, 53.875000
24.792802, 3.926794, 54.000000
24.929026, 3.948370, 54.125000
24.929026, 3.948370, 54.250000
25.065251, 3.969946, 54.375000
25.065251, 3.969946, 54.500000
25.065251, 3.969946, 54.625000
25.201475, 3.991521, 54.750000
25.201475, 3.991521, 54.875000
25.337699, 4.013097, 55.000000
25.337699, 4.013097, 55.125000
25.473923, 4.034673, 55.250000
25.473923, 4.034673, 55.375000
25.610147, 4.056249, 55.500000
25.610147, 4.056249, 55.625000
25.746372, 4.077825, 55.750000
25.746372, 4.077825, 55.875000
25.882596, 4.099400, 56.000000
25.882596, 4.099400, 56.125000
26.018820, 4.120976, 56.250000
26.018820, 4.120976, 56.375000
26.018820, 4.120976, 56.500000
26.155044, 4.142552, 56.625000
26.291268, 4.164128, 56.750000
26.291268, 4.164128, 56.875000
26.291268, 4.164128, 57.000000
26.427493, 4.185704, 57.125000
26.427493, 4.185704, 57.250000
26.563717, 4.207279, 57.375000
26.563717, 4.207279, 57.500000
26.563717, 4.207279, 57.625000
26.699941, 4.228855, 57.750000
26.836165, 4.250431, 57.875000
26.836165, 4.250431, 58.000000
26.836165, 4.250431, 58.125000
26.836165, 4.250431, 58.250000
26.972389, 4.272007, 58.375000
27.108613, 4.293583, 58.500000
27.108613, 4.293583, 58.625000
27.108613, 4.293583, 58.750000
27.244838, 4.315158, 58.875000
27.244838, 4.315158, 59.000000
27.381062, 4.336734, 59.125000
27.381062, 4.336734, 59.250000
27.381062, 4.336734, 59.375000
27.517286, 4.358310, 59.500000
27.653510, 4.379886, 59.625000
27.653510, 4.379886, 59.750000
27.789734, 4.401462, 59.875000
27.789734, 4.401462, 60.000000
27.789734, 4.401462, 60.125000
27.925959, 4.423037, 60.250000
28.062183, 4.444613, 60.375000
28.062183, 4.444613, 60.500000
28.062183, 4.444613, 60.625000
28.198407, 4.466189, 60.750000
28.334631, 4.487765, 60.875000
28.334631, 4.487765, 61.000000
28.334631, 4.487765, 61.125000
28.470855, 4.509340, 61.250000
28.470855, 4.509340, 61.375000
28.607080, 4.530916, 61.500000
28.607080, 4.530916, 61.625000
28.607080, 4.530916, 61.750000
28.743304, 4.552492, 61.875000
28.743304, 4.552492, 62.000000
28.879528, 4.574068, 62.125000
28.879528, 4.574068, 62.250000
28.879528, 4.574068, 62.375000
29.015752, 4.595644, 62.500000
29.015752, 4.595644, 62.625000
29.288200, 4.638795, 62.750000
29.151976, 4.617219, 62.875000
29.288200, 4.638795, 63.000000
29.288200, 4.638795, 63.125000
29.424425, 4.660371, 63.250000
29.424425, 4.660371, 63.375000
29.560649, 4.681947, 63.500000
29.560649, 4.681947, 63.625000
29.696873, 4.703523, 63.750000
29.833097, 4.725098, 63.875000
29.696873, 4.703523, 64.000000
29.969321, 4.746674, 64.125000
29.833097, 4.725098, 64.250000
29.969321, 4.746674, 64.375000
29.969321, 4.746674, 64.500000
30.105546, 4.768250, 64.625000
30.105546, 4.768250, 64.750000
30.105546, 4.768250, 64.875000
30.241770, 4.789826, 65.000000
30.241770, 4.789826, 65.125000
30.377994, 4.811402, 65.250000
30.377994, 4.811402, 65.375000
30.514218, 4.832977, 65.500000
30.514218, 4.832977, 65.625000
30.650442, 4.854553, 65.750000
30.650442, 4.854553, 65.875000
30.786667, 4.876129, 66.000000
30.922891, 4.897705, 66.125000
30.786667, 4.876129, 66.250000
30.922891, 4.897705, 66.375000
30.922891, 4.897705, 66.500000
31.195339, 4.940856, 66.625000
31.059115, 4.919281, 66.750000
31.195339, 4.940856, 66.875000
31.195339, 4.940856, 67.000000
31.331563, 4.962432, 67.125000
31.331563, 4.962432, 67.250000
31.467787, 4.984008, 67.375000
31.467787, 4.984008, 67.500000
31.604012, 5.005584, 67.625000
31.604012, 5.005584, 67.750000
31.740236, 5.027159, 67.875000
31.740236, 5.027159, 68.000000
31.740236, 5.027159, 68.125000
31.876460, 5.048735, 68.250000
31.876460, 5.048735, 68.375000
32.012684, 5.070311, 68.500000
32.012684, 5.070311, 68.625000
32.148908, 5.091887, 68.750000
32.285133, 5.113463, 68.875000
32.285133, 5.113463, 69.000000
32.285133, 5.113463, 69.125000
32.285133, 5.113463, 69.250000
32.421357, 5.135038, 69.375000
32.421357, 5.135038, 69.500000
32.557581, 5.156614, 69.625000
32.693805, 5.178190, 69.750000
32.693805, 5.178190, 69.875000
32.693805, 5.178190, 70.000000
32.830029, 5.199766, 70.125000
32.830029, 5.199766, 70.250000
32.966254, 5.221342, 70.375000
32.966254, 5.221342, 70.500000
33.102478, 5.242917, 70.625000
33.102478, 5.242917, 70.750000
33.238702, 5.264493, 70.875000
33.238702, 5.264493, 71.000000
33.238702, 5.264493, 71.125000
33.374926, 5.286069, 71.250000
33.374926, 5.286069, 71.375000
33.511150, 5.307645, 71.500000
33.511150, 5.307645, 71.625000
33.647374, 5.329221, 71.750000
33.647374, 5.329221, 71.875000
33.783599, 5.350796, 72.000000
33.783599, 5.350796, 72.125000
33.783599, 5.350796, 72.250000
33.919823, 5.372372, 72.375000
33.919823, 5.372372, 72.500000
34.056047, 5.393948, 72.625000
34.056047, 5.393948, 72.750000
34.192271, 5.415524, 72.875000
34.192271, 5.415524, 73.000000
34.328495, 5.437100, 73.125000
34.328495, 5.437100, 73.250000
34.328495, 5.437100, 73.375000
34.464720, 5.458675, 73.500000
34.464720, 5.458675, 73.625000
34.600944, 5.480251, 73.750000
34.600944, 5.480251, 73.875000
34.737168, 5.501827, 74.000000
34.737168, 5.501827, 74.125000
34.737168, 5.501827, 74.250000
34.873392, 5.523403, 74.375000
34.873392, 5.523403, 74.500000
35.009616, 5.544978, 74.625000
35.009616, 5.544978, 74.750000
35.145841, 5.566554, 74.875000
35.145841, 5.566554, 75.000000
35.145841, 5.566554, 75.125000
35.282065, 5.588130, 75.250000
35.282065, 5.588130, 75.375000
35.418289, 5.609706, 75.500000
35.418289, 5.609706, 75.625000
35.554513, 5.631282, 75.750000
35.554513, 5.631282, 75.875000
35.554513, 5.631282, 76.000000
35.690737, 5.652857, 76.125000
35.690737, 5.652857, 76.250000
35.826962, 5.674433, 76.375000
35.826962, 5.674433, 76.500000
35.963186, 5.696009, 76.625000
35.963186, 5.696009, 76.750000
35.963186, 5.696009, 76.875000
36.099410, 5.717585, 77.000000
36.099410, 5.717585, 77.125000
36.235634, 5.739161, 77.250000
36.235634, 5.739161, 77.375000
36.371858, 5.760736, 77.500000
36.371858, 5.760736, 77.625000
36.371858, 5.760736, 77.750000
36.508082, 5.782312, 77.875000
36.644307, 5.803888, 78.000000
36.644307, 5.803888, 78.125000
36.780531, 5.825464, 78.250000
36.780531, 5.825464, 78.375000
36.780531, 5.825464, 78.500000
36.780531, 5.825464, 78.625000
36.780531, 5.825464, 78.750000
36.780531, 5.825464, 78.875000
36.644307, 5.803888, 79.000000
33.869814, 6.461013, 16.875000
33.734335, 6.435169, 17.000000
33.598856, 6.409325, 17.125000
33.463377, 6.383481, 17.250000
33.463377, 6.383481, 17.375000
33.463377, 6.383481, 17.500000
33.327897, 6.357636, 17.625000
33.327897, 6.357636, 17.750000
33.327897, 6.357636, 17.875000
33.327897, 6.357636, 18.000000
33.327897, 6.357636, 18.125000
33.192418, 6.331792, 18.250000
33.192418, 6.331792, 18.375000
33.056939, 6.305948, 18.500000
33.056939, 6.305948, 18.625000
33.056939, 6.305948, 18.750000
32.921460, 6.280104, 18.875000
32.921460, 6.280104, 19.000000
32.921460, 6.280104, 19.125000
32.785980, 6.254260, 19.250000
32.785980, 6.254260, 19.375000
32.650501, 6.228416, 19.500000
32.650501, 6.228416, 19.625000
32.515022, 6.202572, 19.750000
32.650501, 6.228416, 19.875000
32.379543, 6.176728, 20.000000
32.379543, 6.176728, 20.125000
32.379543, 6.176728, 20.250000
32.379543, 6.176728, 20.375000
32.244063, 6.150884, 20.500000
32.244063, 6.150884, 20.625000
32.244063, 6.150884, 20.750000
32.244063, 6.150884, 20.875000
32.108584, 6.125040, 21.000000
32.108584, 6.125040, 21.125000
32.108584, 6.125040, 21.250000
31.973105, 6.099196, 21.375000
31.973105, 6.099196, 21.500000
31.837626, 6.073352, 21.625000
31.837626, 6.073352, 21.750000
31.837626, 6.073352, 21.875000
31.702146, 6.047508, 22.000000
31.702146, 6.047508, 22.125000
31.702146, 6.047508, 22.250000
31.702146, 6.047508, 22.375000
31.566667, 6.021664, 22.500000
31.431188, 5.995820, 22.625000
31.431188, 5.995820, 22.750000
31.431188, 5.995820, 22.875000
31.295709, 5.969976, 23.000000
31.295709, 5.969976, 23.125000
31.295709, 5.969976, 23.250000
31.295709, 5.969976, 23.375000
31.160229, 5.944132, 23.500000
31.160229, 5.944132, 23.625000
31.160229, 5.944132, 23.750000
31.160229, 5.944132, 23.875000
31.024750, 5.918288, 24.000000
31.024750, 5.918288, 24.125000
30.889271, 5.892444, 24.250000
30.889271, 5.892444, 24.375000
30.889271, 5.892444, 24.500000
30.753792, 5.866599, 24.625000
30.753792, 5.866599, 24.750000
30.753792, 5.866599, 24.875000
30.618312, 5.840755, 25.000000
30.618312, 5.840755, 25.125000
30.618312, 5.840755, 25.250000
30.482833, 5.814911, 25.375000
30.482833, 5.814911, 25.500000
30.482833, 5.814911, 25.625000
30.347354, 5.789067, 25.750000
30.347354, 5.789067, 25.875000
30.211874, 5.763223, 26.000000
30.211874, 5.763223, 26.125000
30.211874, 5.763223, 26.250000
30.076395, 5.737379, 26.375000
30.076395, 5.737379, 26.500000
30.076395, 5.737379, 26.625000
29.940916, 5.711535, 26.750000
29.940916, 5.711535, 26.875000
29.940916, 5.711535, 27.000000
29.940916, 5.711535, 27.125000
29.805437, 5.685691, 27.250000
29.805437, 5.685691, 27.375000
29.669957, 5.659847, 27.500000
29.669957, 5.659847, 27.625000
29.669957, 5.659847, 27.750000
29.669957, 5.659847, 27.875000
29.534478, 5.634003, 28.000000
29.534478, 5.634003, 28.125000
29.398999, 5.608159, 28.250000
29.398999, 5.608159, 28.375000
29.398999, 5.608159, 28.500000
29.398999, 5.608159, 28.625000
29.398999, 5.608159, 28.750000
29.263520, 5.582315, 28.875000
29.128040, 5.556471, 29.000000
29.128040, 5.556471, 29.125000
29.128040, 5.556471, 29.250000
29.128040, 5.556471, 29.375000
28.992561, 5.530627, 29.500000
28.992561, 5.530627, 29.625000
28.857082, 5.504783, 29.750000
28.992561, 5.530627, 29.875000
28.857082, 5.504783, 30.000000
28.857082, 5.504783, 30.125000
28.721603, 5.478939, 30.250000
28.721603, 5.478939, 30.375000
28.721603, 5.478939, 30.500000
28.586123, 5.453095, 30.625000
28.586123, 5.453095, 30.750000
28.586123, 5.453095, 30.875000
28.450644, 5.427251, 31.000000
28.450644, 5.427251, 31.125000
28.450644, 5.427251, 31.250000
28.315165, 5.401407, 31.375000
28.315165, 5.401407, 31.500000
28.315165, 5.401407, 31.625000
28.179686, 5.375563, 31.750000
28.179686, 5.375563, 31.875000
28.179686, 5.375563, 32.000000
28.044206, 5.349718, 32.125000
28.044206, 5.349718, 32.250000
28.044206, 5.349718, 32.375000
27.908727, 5.323874, 32.500000
27.908727, 5.323874, 32.625000
27.908727, 5.323874, 32.750000
27.773248, 5.298030, 32.875000
27.773248, 5.298030, 33.000000
27.637769, 5.272186, 33.125000
27.637769, 5.272186, 33.250000
27.637769, 5.272186, 33.375000
27.502289, 5.246342, 33.500000
27.502289, 5.246342, 33.625000
27.502289, 5.246342, 33.750000
27.502289, 5.246342, 33.875000
27.366810, 5.220498, 34.000000
27.366810, 5.220498, 34.125000
27.366810, 5.220498, 34.250000
27.231331, 5.194654, 34.375000
27.231331, 5.194654, 34.500000
27.231331, 5.194654, 34.625000
27.095852, 5.168810, 34.750000
27.095852, 5.168810, 34.875000
26.960372, 5.142966, 35.000000
26.960372, 5.142966, 35.125000
26.960372, 5.142966, 35.250000
26.960372, 5.142966, 35.375000
26.824893, 5.117122, 35.500000
26.824893, 5.117122, 35.625000
26.689414, 5.091278, 35.750000
26.689414, 5.091278, 35.875000
26.689414, 5.091278, 36.000000
26.689414, 5.091278, 36.125000
26.553935, 5.065434, 36.250000
26.553935, 5.065434, 36.375000
26.553935, 5.065434, 36.500000
26.418455, 5.039590, 36.625000
26.418455, 5.039590, 36.750000
26.282976, 5.013746, 36.875000
26.282976, 5.013746, 37.000000
26.282976, 5.013746, 37.125000
26.282976, 5.013746, 37.250000
26.147497, 4.987902, 37.375000
26.147497, 4.987902, 37.500000
26.012018, 4.962058, 37.625000
26.012018, 4.962058, 37.750000
26.012018, 4.962058, 37.875000
25.876538, 4.936214, 38.000000
25.876538, 4.936214, 38.125000
25.876538, 4.936214, 38.250000
25.741059, 4.910370, 38.375000
25.741059, 4.910370, 38.500000
25.741059, 4.910370, 38.625000
25.605580, 4.884526, 38.750000
25.605580, 4.884526, 38.875000
25.605580, 4.884526, 39.000000
25.470100, 4.858682, 39.125000
25.470100, 4.858682, 39.250000
25.334621, 4.832837, 39.375000
25.334621, 4.832837, 39.500000
25.334621, 4.832837, 39.625000
25.199142, 4.806993, 39.750000
25.199142, 4.806993, 39.875000
25.199142, 4.806993, 40.000000
25.199142, 4.806993, 40.125000
25.063663, 4.781149, 40.250000
25.063663, 4.781149, 40.375000
25.063663, 4.781149, 40.500000
24.928183, 4.755305, 40.625000
24.928183, 4.755305, 40.750000
24.792704, 4.729461, 40.875000
24.792704, 4.729461, 41.000000
24.792704, 4.729461, 41.125000
24.792704, 4.729461, 41.250000
24.657225, 4.703617, 41.375000
24.521746, 4.677773, 41.500000
24.521746, 4.677773, 41.625000
24.521746, 4.677773, 41.750000
24.521746, 4.677773, 41.875000
24.386266, 4.651929, 42.000000
24.386266, 4.651929, 42.125000
24.250787, 4.626085, 42.250000
24.250787, 4.626085, 42.375000
24.250787, 4.626085, 42.500000
24.250787, 4.626085, 42.625000
24.115308, 4.600241, 42.750000
24.115308, 4.600241, 42.875000
24.115308, 4.600241, 43.000000
23.979829, 4.574397, 43.125000
23.979829, 4.574397, 43.250000
23.979829, 4.574397, 43.375000
23.844349, 4.548553, 43.500000
23.844349, 4.548553, 43.625000
23.708870, 4.522709, 43.750000
23.708870, 4.522709, 43.875000
23.708870, 4.522709, 44.000000
23.573391, 4.496865, 44.125000
23.573391, 4.496865, 44.250000
23.573391, 4.496865, 44.375000
23.437912, 4.471021, 44.500000
23.437912, 4.471021, 44.625000
23.573391, 4.496865, 44.750000
23.437912, 4.471021, 44.875000
23.302432, 4.445177, 45.000000
23.302432, 4.445177, 45.125000
23.302432, 4.445177, 45.250000
23.166953, 4.419333, 45.375000
23.166953, 4.419333, 45.500000
23.166953, 4.419333, 45.625000
23.031474, 4.393489, 45.750000
23.031474, 4.393489, 45.875000
22.895995, 4.367645, 46.000000
23.031474, 4.393489, 46.125000
22.895995, 4.367645, 46.250000
22.760515, 4.341801, 46.375000
22.760515, 4.341801, 46.500000
22.760515, 4.341801, 46.625000
22.760515, 4.341801, 46.750000
22.625036, 4.315956, 46.875000
22.760515, 4.341801, 47.000000
22.625036, 4.315956, 47.125000
22.489557, 4.290112, 47.250000
22.489557, 4.290112, 47.375000
22.354078, 4.264268, 47.500000
22.354078, 4.264268, 47.625000
22.489557, 4.290112, 47.750000
22.218598, 4.238424, 47.875000
22.218598, 4.238424, 48.000000
22.218598, 4.238424, 48.125000
22.218598, 4.238424, 48.250000
22.218598, 4.238424, 48.375000
22.218598, 4.238424, 48.500000
22.218598, 4.238424, 48.625000
22.354078, 4.264268, 48.750000
22.354078, 4.264268, 48.875000
22.354078, 4.264268, 49.000000
22.354078, 4.264268, 49.125000
22.489557, 4.290112, 49.250000
22.489557, 4.290112, 49.375000
22.625036, 4.315956, 49.500000
22.625036, 4.315956, 49.625000
22.760515, 4.341801, 49.750000
22.895995, 4.367645, 49.875000
22.895995, 4.367645, 50.000000
22.895995, 4.367645, 50.125000
23.031474, 4.393489, 50.250000
23.031474, 4.393489, 50.375000
23.031474, 4.393489, 50.500000
23.166953, 4.419333, 50.625000
23.166953, 4.419333, 50.750000
23.302432, 4.445177, 50.875000
23.302432, 4.445177, 51.000000
23.437912, 4.471021, 51.125000
23.573391, 4.496865, 51.250000
23.437912, 4.471021, 51.375000
23.573391, 4.496865, 51.500000
23.573391, 4.496865, 51.625000
23.708870, 4.522709, 51.750000
23.844349, 4.548553, 51.875000
23.844349, 4.548553, 52.000000
23.979829, 4.574397, 52.125000
23.979829, 4.574397, 52.250000
23.979829, 4.574397, 52.375000
24.115308, 4.600241, 52.500000
24.115308, 4.600241, 52.625000
24.250787, 4.626085, 52.750000
24.250787, 4.626085, 52.875000
24.386266, 4.651929, 53.000000
24.386266, 4.651929, 53.125000
24.521746, 4.677773, 53.250000
24.521746, 4.677773, 53.375000
24.521746, 4.677773, 53.500000
24.657225, 4.703617, 53.625000
24.657225, 4.703617, 53.750000
24.657225, 4.703617, 53.875000
24.792704, 4.729461, 54.000000
24.792704, 4.729461, 54.125000
24.928183, 4.755305, 54.250000
24.928183, 4.755305, 54.375000
25.063663, 4.781149, 54.500000
25.063663, 4.781149, 54.625000
25.063663, 4.781149, 54.750000
25.199142, 4.806993, 54.875000
25.199142, 4.806993, 55.000000
25.334621, 4.832837, 55.125000
25.334621, 4.832837, 55.250000
25.470100, 4.858682, 55.375000
25.470100, 4.858682, 55.500000
25.605580, 4.884526, 55.625000
25.605580, 4.884526, 55.750000
25.741059, 4.910370, 55.875000
25.741059, 4.910370, 56.000000
25.876538, 4.936214, 56.125000
25.876538, 4.936214, 56.250000
25.876538, 4.936214, 56.375000
26.012018, 4.962058, 56.500000
26.012018, 4.962058, 56.625000
26.147497, 4.987902, 56.750000
26.147497, 4.987902, 56.875000
26.147497, 4.987902, 57.000000
26.282976, 5.013746, 57.125000
26.282976, 5.013746, 57.250000
26.418455, 5.039590, 57.375000
26.418455, 5.039590, 57.500000
26.553935, 5.065434, 57.625000
26.553935, 5.065434, 57.750000
26.689414, 5.091278, 57.875000
26.689414, 5.091278, 58.000000
26.689414, 5.091278, 58.125000
26.824893, 5.117122, 58.250000
26.824893, 5.117122, 58.375000
26.960372, 5.142966, 58.500000
26.960372, 5.142966, 58.625000
27.095852, 5.168810, 58.750000
27.095852, 5.168810, 58.875000
27.095852, 5.168810, 59.000000
27.231331, 5.194654, 59.125000
27.231331, 5.194654, 59.250000
27.366810, 5.220498, 59.375000
27.366810, 5.220498, 59.500000
27.502289, 5.246342, 59.625000
27.502289, 5.246342, 59.750000
27.637769, 5.272186, 59.875000
27.637769, 5.272186, 60.000000
27.908727, 5.323874, 60.125000
27.773248, 5.298030, 60.250000
27.908727, 5.323874, 60.375000
27.908727, 5.323874, 60.500000
28.044206, 5.349718, 60.625000
28.179686, 5.375563, 60.750000
28.179686, 5.375563, 60.875000
28.179686, 5.375563, 61.000000
28.315165, 5.401407, 61.125000
28.315165, 5.401407, 61.250000
28.315165, 5.401407, 61.375000
28.450644, 5.427251, 61.500000
28.450644, 5.427251, 61.625000
28.586123, 5.453095, 61.750000
28.586123, 5.453095, 61.875000
28.721603, 5.478939, 62.000000
28.721603, 5.478939, 62.125000
28.857082, 5.504783, 62.250000
28.857082, 5.504783, 62.375000
28.857082, 5.504783, 62.500000
28.992561, 5.530627, 62.625000
28.992561, 5.530627, 62.750000
29.128040, 5.556471, 62.875000
29.128040, 5.556471, 63.000000
29.128040, 5.556471, 63.125000
29.263520, 5.582315, 63.250000
29.263520, 5.582315, 63.375000
29.398999, 5.608159, 63.500000
29.398999, 5.608159, 63.625000
29.534478, 5.634003, 63.750000
29.534478, 5.634003, 63.875000
29.669957, 5.659847, 64.000000
29.669957, 5.659847, 64.125000
29.669957, 5.659847, 64.250000
29.805437, 5.685691, 64.375000
29.805437, 5.685691, 64.500000
29.940916, 5.711535, 64.625000
29.940916, 5.711535, 64.750000
30.076395, 5.737379, 64.875000
30.076395, 5.737379, 65.000000
30.211874, 5.763223, 65.125000
30.211874, 5.763223, 65.250000
30.347354, 5.789067, 65.375000
30.347354, 5.789067, 65.500000
30.347354, 5.789067, 65.625000
30.482833, 5.814911, 65.750000
30.482833, 5.814911, 65.875000
30.618312, 5.840755, 66.000000
30.618312, 5.840755, 66.125000
30.753792, 5.866599, 66.250000
30.753792, 5.866599, 66.375000
31.024750, 5.918288, 66.500000
31.024750, 5.918288, 66.625000
31.024750, 5.918288, 66.750000
31.024750, 5.918288, 66.875000
31.024750, 5.918288, 67.000000
31.160229, 5.944132, 67.125000
31.295709, 5.969976, 67.250000
31.295709, 5.969976, 67.375000
31.431188, 5.995820, 67.500000
31.431188, 5.995820, 67.625000
31.431188, 5.995820, 67.750000
31.566667, 6.021664, 67.875000
31.566667, 6.021664, 68.000000
31.702146, 6.047508, 68.125000
31.702146, 6.047508, 68.250000
31.837626, 6.073352, 68.375000
31.837626, 6.073352, 68.500000
31.837626, 6.073352, 68.625000
32.108584, 6.125040, 68.750000
31.973105, 6.099196, 68.875000
32.108584, 6.125040, 69.000000
32.108584, 6.125040, 69.125000
32.244063, 6.150884, 69.250000
32.244063, 6.150884, 69.375000
32.379543, 6.176728, 69.500000
32.379543, 6.176728, 69.625000
32.515022, 6.202572, 69.750000
32.515022, 6.202572, 69.875000
32.650501, 6.228416, 70.000000
32.650501, 6.228416, 70.125000
32.650501, 6.228416, 70.250000
32.785980, 6.254260, 70.375000
32.785980, 6.254260, 70.500000
32.921460, 6.280104, 70.625000
33.056939, 6.305948, 70.750000
33.056939, 6.305948, 70.875000
33.056939, 6.305948, 71.000000
33.192418, 6.331792, 71.125000
33.192418, 6.331792, 71.250000
33.192418, 6.331792, 71.375000
33.327897, 6.357636, 71.500000
33.463377, 6.383481, 71.625000
33.463377, 6.383481, 71.750000
33.463377, 6.383481, 71.875000
33.598856, 6.409325, 72.000000
33.598856, 6.409325, 72.125000
33.734335, 6.435169, 72.250000
33.734335, 6.435169, 72.375000
33.869814, 6.461013, 72.500000
33.869814, 6.461013, 72.625000
34.005294, 6.486857, 72.750000
34.005294, 6.486857, 72.875000
34.005294, 6.486857, 73.000000
34.140773, 6.512701, 73.125000
34.140773, 6.512701, 73.250000
34.276252, 6.538545, 73.375000
34.276252, 6.538545, 73.500000
34.411731, 6.564389, 73.625000
34.411731, 6.564389, 73.750000
34.411731, 6.564389, 73.875000
34.547211, 6.590233, 74.000000
34.547211, 6.590233, 74.125000
34.682690, 6.616077, 74.250000
34.682690, 6.616077, 74.375000
34.818169, 6.641921, 74.500000
34.818169, 6.641921, 74.625000
34.818169, 6.641921, 74.750000
34.953649, 6.667765, 74.875000
34.953649, 6.667765, 75.000000
34.953649, 6.667765, 75.125000
35.089128, 6.693609, 75.250000
35.224607, 6.719453, 75.375000
35.224607, 6.719453, 75.500000
35.224607, 6.719453, 75.625000
35.360086, 6.745297, 75.750000
35.360086, 6.745297, 75.875000
35.495566, 6.771141, 76.000000
35.495566, 6.771141, 76.125000
35.631045, 6.796985, 76.250000
35.631045, 6.796985, 76.375000
35.631045, 6.796985, 76.500000
35.766524, 6.822829, 76.625000
35.766524, 6.822829, 76.750000
35.902003, 6.848673, 76.875000
35.902003, 6.848673, 77.000000
36.037483, 6.874517, 77.125000
36.037483, 6.874517, 77.250000
36.037483, 6.874517, 77.375000
36.308441, 6.926206, 77.500000
36.308441, 6.926206, 77.625000
36.308441, 6.926206, 77.750000
36.443920, 6.952050, 77.875000
36.443920, 6.952050, 78.000000
36.579400, 6.977894, 78.125000
36.579400, 6.977894, 78.250000
36.579400, 6.977894, 78.375000
36.579400, 6.977894, 78.500000
36.714879, 7.003738, 78.625000
36.850358, 7.029582, 78.750000
36.714879, 7.003738, 78.875000
36.714879, 7.003738, 79.000000
36.579400, 6.977894, 79.125000
33.246355, 7.431441, 16.875000
33.246355, 7.431441, 17.000000
33.111754, 7.401354, 17.125000
33.246355, 7.431441, 17.250000
32.977153, 7.371267, 17.375000
32.977153, 7.371267, 17.500000
32.842553, 7.341180, 17.625000
32.842553, 7.341180, 17.750000
32.977153, 7.371267, 17.875000
32.842553, 7.341180, 18.000000
32.707952, 7.311093, 18.125000
32.707952, 7.311093, 18.250000
32.707952, 7.311093, 18.375000
32.707952, 7.311093, 18.500000
32.573351, 7.281007, 18.625000
32.573351, 7.281007, 18.750000
32.438751, 7.250920, 18.875000
32.438751, 7.250920, 19.000000
32.304150, 7.220833, 19.125000
32.438751, 7.250920, 19.250000
32.304150, 7.220833, 19.375000
32.304150, 7.220833, 19.500000
32.169550, 7.190746, 19.625000
32.034949, 7.160659, 19.750000
32.034949, 7.160659, 19.875000
32.034949, 7.160659, 20.000000
32.034949, 7.160659, 20.125000
31.900348, 7.130573, 20.250000
31.900348, 7.130573, 20.375000
31.900348, 7.130573, 20.500000
31.765748, 7.100486, 20.625000
31.765748, 7.100486, 20.750000
31.765748, 7.100486, 20.875000
31.765748, 7.100486, 21.000000
31.631147, 7.070399, 21.125000
31.631147, 7.070399, 21.250000
31.631147, 7.070399, 21.375000
31.496546, 7.040312, 21.500000
31.496546, 7.040312, 21.625000
31.361946, 7.010225, 21.750000
31.361946, 7.010225, 21.875000
31.361946, 7.010225, 22.000000
31.227345, 6.980139, 22.125000
31.227345, 6.980139, 22.250000
31.227345, 6.980139, 22.375000
31.092745, 6.950052, 22.500000
31.092745, 6.950052, 22.625000
30.958144, 6.919965, 22.750000
30.958144, 6.919965, 22.875000
30.958144, 6.919965, 23.000000
30.958144, 6.919965, 23.125000
30.823543, 6.889878, 23.250000
30.823543, 6.889878, 23.375000
30.823543, 6.889878, 23.500000
30.688943, 6.859791, 23.625000
30.688943, 6.859791, 23.750000
30.688943, 6.859791, 23.875000
30.554342, 6.829705, 24.000000
30.554342, 6.829705, 24.125000
30.554342, 6.829705, 24.250000
30.419741, 6.799618, 24.375000
30.419741, 6.799618, 24.500000
30.419741, 6.799618, 24.625000
30.285141, 6.769531, 24.750000
30.285141, 6.769531, 24.875000
30.150540, 6.739444, 25.000000
30.150540, 6.739444, 25.125000
30.150540, 6.739444, 25.250000
30.150540, 6.739444, 25.375000
30.015940, 6.709357, 25.500000
30.015940, 6.709357, 25.625000
30.015940, 6.709357, 25.750000
29.881339, 6.679271, 25.875000
29.881339, 6.679271, 26.000000
29.881339, 6.679271, 26.125000
29.746738, 6.649184, 26.250000
29.746738, 6.649184, 26.375000
29.612138, 6.619097, 26.500000
29.612138, 6.619097, 26.625000
29.612138, 6.619097, 26.750000
29.477537, 6.589010, 26.875000
29.477537, 6.589010, 27.000000
29.477537, 6.589010, 27.125000
29.477537, 6.589010, 27.250000
29.342936, 6.558923, 27.375000
29.342936, 6.558923, 27.500000
29.208336, 6.528837, 27.625000
29.208336, 6.528837, 27.750000
29.208336, 6.528837, 27.875000
29.208336, 6.528837, 28.000000
29.073735, 6.498750, 28.125000
29.073735, 6.498750, 28.250000
29.073735, 6.498750, 28.375000
29.073735, 6.498750, 28.500000
28.939135, 6.468663, 28.625000
28.939135, 6.468663, 28.750000
28.804534, 6.438576, 28.875000
28.804534, 6.438576, 29.000000
28.804534, 6.438576, 29.125000
28.804534, 6.438576, 29.250000
28.669933, 6.408489, 29.375000
28.669933, 6.408489, 29.500000
28.669933, 6.408489, 29.625000
28.535333, 6.378403, 29.750000
28.535333, 6.378403, 29.875000
28.400732, 6.348316, 30.000000
28.400732, 6.348316, 30.125000
28.400732, 6.348316, 30.250000
28.266131, 6.318229, 30.375000
28.266131, 6.318229, 30.500000
28.266131, 6.318229, 30.625000
28.131531, 6.288142, 30.750000
28.131531, 6.288142, 30.875000
28.131531, 6.288142, 31.000000
28.131531, 6.288142, 31.125000
27.996930, 6.258055, 31.250000
27.996930, 6.258055, 31.375000
27.862330, 6.227969, 31.500000
27.862330, 6.227969, 31.625000
27.862330, 6.227969, 31.750000
27.727729, 6.197882, 31.875000
27.727729, 6.197882, 32.000000
27.727729, 6.197882, 32.125000
27.593128, 6.167795, 32.250000
27.593128, 6.167795, 32.375000
27.593128, 6.167795, 32.500000
27.593128, 6.167795, 32.625000
27.458528, 6.137708, 32.750000
27.458528, 6.137708, 32.875000
27.458528, 6.137708, 33.000000
27.323927, 6.107621, 33.125000
27.323927, 6.107621, 33.250000
27.189326, 6.077535, 33.375000
27.189326, 6.077535, 33.500000
27.189326, 6.077535, 33.625000
27.189326, 6.077535, 33.750000
27.054726, 6.047448, 33.875000
27.054726, 6.047448, 34.000000
27.054726, 6.047448, 34.125000
26.920125, 6.017361, 34.250000
26.920125, 6.017361, 34.375000
26.920125, 6.017361, 34.500000
26.785525, 5.987274, 34.625000
26.785525, 5.987274, 34.750000
26.785525, 5.987274, 34.875000
26.650924, 5.957187, 35.000000
26.650924, 5.957187, 35.125000
26.516323, 5.927100, 35.250000
26.516323, 5.927100, 35.375000
26.516323, 5.927100, 35.500000
26.381723, 5.897014, 35.625000
26.381723, 5.897014, 35.750000
26.381723, 5.897014, 35.875000
26.381723, 5.897014, 36.000000
26.247122, 5.866927, 36.125000
26.247122, 5.866927, 36.250000
26.112521, 5.836840, 36.375000
26.112521, 5.836840, 36.500000
26.112521, 5.836840, 36.625000
26.112521, 5.836840, 36.750000
25.977921, 5.806753, 36.875000
25.977921, 5.806753, 37.000000
25.843320, 5.776666, 37.125000
25.843320, 5.776666, 37.250000
25.843320, 5.776666, 37.375000
25.708720, 5.746580, 37.500000
25.708720, 5.746580, 37.625000
25.708720, 5.746580, 37.750000
25.708720, 5.746580, 37.875000
25.574119, 5.716493, 38.000000
25.574119, 5.716493, 38.125000
25.439518, 5.686406, 38.250000
25.439518, 5.686406, 38.375000
25.304918, 5.656319, 38.500000
25.304918, 5.656319, 38.625000
25.304918, 5.656319, 38.750000
25.304918, 5.656319, 38.875000
25.170317, 5.626232, 39.000000
25.170317, 5.626232, 39.125000
25.170317, 5.626232, 39.250000
25.035716, 5.596146, 39.375000
25.035716, 5.596146, 39.500000
25.035716, 5.596146, 39.625000
25.035716, 5.596146, 39.750000
24.901116, 5.566059, 39.875000
24.901116, 5.566059, 40.000000
24.901116, 5.566059, 40.125000
24.766515, 5.535972, 40.250000
24.766515, 5.535972, 40.375000
24.631915, 5.505885, 40.500000
24.631915, 5.505885, 40.625000
24.631915, 5.505885, 40.750000
24.497314, 5.475798, 40.875000
24.497314, 5.475798, 41.000000
24.362713, 5.445712, 41.125000
24.362713, 5.445712, 41.250000
24.362713, 5.445712, 41.375000
24.362713, 5.445712, 41.500000
24.228113, 5.415625, 41.625000
24.228113, 5.415625, 41.750000
24.228113, 5.415625, 41.875000
24.093512, 5.385538, 42.000000
24.093512, 5.385538, 42.125000
24.093512, 5.385538, 42.250000
23.958911, 5.355451, 42.375000
23.958911, 5.355451, 42.500000
23.958911, 5.355451, 42.625000
23.824311, 5.325364, 42.750000
23.824311, 5.325364, 42.875000
23.824311, 5.325364, 43.000000
23.824311, 5.325364, 43.125000
23.689710, 5.295278, 43.250000
23.555110, 5.265191, 43.375000
23.555110, 5.265191, 43.500000
23.555110, 5.265191, 43.625000
23.555110, 5.265191, 43.750000
23.420509, 5.235104, 43.875000
23.285908, 5.205017, 44.000000
23.285908, 5.205017, 44.125000
