-11.464045, 12.207968, 47.000000
-11.564607, 12.315055, 47.125000
-11.564607, 12.315055, 47.250000
-11.564607, 12.315055, 47.375000
-11.665169, 12.422143, 47.500000
-11.665169, 12.422143, 47.625000
-11.665169, 12.422143, 47.750000
-11.665169, 12.422143, 47.875000
-11.765730, 12.529230, 48.000000
-11.765730, 12.529230, 48.125000
-11.765730, 12.529230, 48.250000
-11.866292, 12.636318, 48.375000
-11.866292, 12.636318, 48.500000
-11.866292, 12.636318, 48.625000
-11.966854, 12.743405, 48.750000
-12.067416, 12.850493, 48.875000
-11.966854, 12.743405, 49.000000
-11.966854, 12.743405, 49.125000
-12.067416, 12.850493, 49.250000
-12.067416, 12.850493, 49.375000
-12.067416, 12.850493, 49.500000
-12.167978, 12.957580, 49.625000
-12.167978, 12.957580, 49.750000
-12.167978, 12.957580, 49.875000
-12.167978, 12.957580, 50.000000
-12.167978, 12.957580, 50.125000
-12.268539, 13.064667, 50.250000
-12.369101, 13.171755, 50.375000
-12.369101, 13.171755, 50.500000
-12.268539, 13.064667, 50.625000
-12.369101, 13.171755, 50.750000
-12.369101, 13.171755, 50.875000
-12.369101, 13.171755, 51.000000
-12.369101, 13.171755, 51.125000
-12.469663, 13.278842, 51.250000
-12.469663, 13.278842, 51.375000
-12.469663, 13.278842, 51.500000
-12.469663, 13.278842, 51.625000
-12.570225, 13.385930, 51.750000
-12.570225, 13.385930, 51.875000
-12.570225, 13.385930, 52.000000
-12.771348, 13.600105, 52.125000
-12.670787, 13.493017, 52.250000
-12.670787, 13.493017, 52.375000
-12.670787, 13.493017, 52.500000
-12.771348, 13.600105, 52.625000
-12.771348, 13.600105, 52.750000
-12.871910, 13.707192, 52.875000
-12.771348, 13.600105, 53.000000
-12.771348, 13.600105, 53.125000
-12.871910, 13.707192, 53.250000
-12.972472, 13.814280, 53.375000
-12.871910, 13.707192, 53.500000
-12.871910, 13.707192, 53.625000
-12.972472, 13.814280, 53.750000
-12.972472, 13.814280, 53.875000
-13.073034, 13.921367, 54.000000
-13.073034, 13.921367, 54.125000
-13.073034, 13.921367, 54.250000
-13.073034, 13.921367, 54.375000
-13.073034, 13.921367, 54.500000
-13.173596, 14.028454, 54.625000
-13.173596, 14.028454, 54.750000
-13.274157, 14.135542, 54.875000
-13.274157, 14.135542, 55.000000
-13.274157, 14.135542, 55.125000
-13.274157, 14.135542, 55.250000
-13.274157, 14.135542, 55.375000
-13.475281, 14.349717, 55.500000
-13.374719, 14.242629, 55.625000
-13.374719, 14.242629, 55.750000
-13.475281, 14.349717, 55.875000
-13.374719, 14.242629, 56.000000
-13.475281, 14.349717, 56.125000
-13.475281, 14.349717, 56.250000
-13.575843, 14.456804, 56.375000
-13.676405, 14.563892, 56.500000
-13.575843, 14.456804, 56.625000
-13.676405, 14.563892, 56.750000
-13.575843, 14.456804, 56.875000
-13.575843, 14.456804, 57.000000
-13.676405, 14.563892, 57.125000
-13.676405, 14.563892, 57.250000
-13.776966, 14.670979, 57.375000
-13.776966, 14.670979, 57.500000
-13.776966, 14.670979, 57.625000
-13.877528, 14.778066, 57.750000
-13.877528, 14.778066, 57.875000
-13.877528, 14.778066, 58.000000
-13.978090, 14.885154, 58.125000
-13.978090, 14.885154, 58.250000
-13.978090, 14.885154, 58.375000
-13.978090, 14.885154, 58.500000
-13.978090, 14.885154, 58.625000
-14.078652, 14.992241, 58.750000
-14.078652, 14.992241, 58.875000
-14.179213, 15.099329, 59.000000
-14.179213, 15.099329, 59.125000
-14.179213, 15.099329, 59.250000
-14.179213, 15.099329, 59.375000
-14.179213, 15.099329, 59.500000
-14.279775, 15.206416, 59.625000
-14.179213, 15.099329, 59.750000
-14.279775, 15.206416, 59.875000
-14.279775, 15.206416, 60.000000
-14.380337, 15.313504, 60.125000
-14.380337, 15.313504, 60.250000
-14.380337, 15.313504, 60.375000
-14.380337, 15.313504, 60.500000
-14.480899, 15.420591, 60.625000
-14.480899, 15.420591, 60.750000
-14.480899, 15.420591, 60.875000
-14.480899, 15.420591, 61.000000
-14.581461, 15.527679, 61.125000
-14.480899, 15.420591, 61.250000
-14.581461, 15.527679, 61.375000
-14.682022, 15.634766, 61.500000
-14.682022, 15.634766, 61.625000
-14.682022, 15.634766, 61.750000
-14.682022, 15.634766, 61.875000
-14.782584, 15.741853, 62.000000
-14.782584, 15.741853, 62.125000
-14.782584, 15.741853, 62.250000
-14.782584, 15.741853, 62.375000
-14.782584, 15.741853, 62.500000
-14.782584, 15.741853, 62.625000
-14.782584, 15.741853, 62.750000
-14.983708, 15.956028, 62.875000
-14.983708, 15.956028, 63.000000
-14.983708, 15.956028, 63.125000
-14.983708, 15.956028, 63.250000
-15.084270, 16.063116, 63.375000
-15.084270, 16.063116, 63.500000
-15.184831, 16.170203, 63.625000
-15.084270, 16.063116, 63.750000
-15.084270, 16.063116, 63.875000
-15.184831, 16.170203, 64.000000
-15.184831, 16.170203, 64.125000
-15.285393, 16.277291, 64.250000
-15.285393, 16.277291, 64.375000
-15.285393, 16.277291, 64.500000
-15.385955, 16.384378, 64.625000
-15.385955, 16.384378, 64.750000
-15.385955, 16.384378, 64.875000
-15.385955, 16.384378, 65.000000
-15.385955, 16.384378, 65.125000
-15.385955, 16.384378, 65.250000
-15.385955, 16.384378, 65.375000
-15.486517, 16.491465, 65.500000
-15.587079, 16.598553, 65.625000
-15.587079, 16.598553, 65.750000
-15.587079, 16.598553, 65.875000
-15.587079, 16.598553, 66.000000
-15.587079, 16.598553, 66.125000
-15.687640, 16.705640, 66.250000
-15.687640, 16.705640, 66.375000
-15.687640, 16.705640, 66.500000
-15.687640, 16.705640, 66.625000
-15.687640, 16.705640, 66.750000
-15.888764, 16.919815, 66.875000
-15.788202, 16.812728, 67.000000
-15.788202, 16.812728, 67.125000
-15.888764, 16.919815, 67.250000
-15.888764, 16.919815, 67.375000
-15.888764, 16.919815, 67.500000
-15.989326, 17.026903, 67.625000
-15.888764, 16.919815, 67.750000
-15.989326, 17.026903, 67.875000
-15.989326, 17.026903, 68.000000
-16.089888, 17.133990, 68.125000
-15.989326, 17.026903, 68.250000
-15.989326, 17.026903, 68.375000
-16.190449, 17.241078, 68.500000
-16.190449, 17.241078, 68.625000
-16.089888, 17.133990, 68.750000
-16.089888, 17.133990, 68.875000
-16.190449, 17.241078, 69.000000
-16.190449, 17.241078, 69.125000
-16.291011, 17.348165, 69.250000
-16.190449, 17.241078, 69.375000
-16.291011, 17.348165, 69.500000
-16.391573, 17.455252, 69.625000
-16.391573, 17.455252, 69.750000
-16.391573, 17.455252, 69.875000
-16.391573, 17.455252, 70.000000
-16.391573, 17.455252, 70.125000
-16.492135, 17.562340, 70.250000
-16.492135, 17.562340, 70.375000
-16.492135, 17.562340, 70.500000
-16.592697, 17.669427, 70.625000
-16.592697, 17.669427, 70.750000
-16.693258, 17.776515, 70.875000
-16.592697, 17.669427, 71.000000
-16.693258, 17.776515, 71.125000
-16.693258, 17.776515, 71.250000
-16.693258, 17.776515, 71.375000
-16.793820, 17.883602, 71.500000
-16.793820, 17.883602, 71.625000
-16.793820, 17.883602, 71.750000
-16.793820, 17.883602, 71.875000
-16.894382, 17.990690, 72.000000
-16.894382, 17.990690, 72.125000
-16.894382, 17.990690, 72.250000
-16.894382, 17.990690, 72.375000
-16.994944, 18.097777, 72.500000
-16.994944, 18.097777, 72.625000
-16.994944, 18.097777, 72.750000
-17.095506, 18.204864, 72.875000
-17.095506, 18.204864, 73.000000
-17.095506, 18.204864, 73.125000
-17.196067, 18.311952, 73.250000
-17.196067, 18.311952, 73.375000
-17.196067, 18.311952, 73.500000
-17.196067, 18.311952, 73.625000
-17.296629, 18.419039, 73.750000
-17.296629, 18.419039, 73.875000
-17.296629, 18.419039, 74.000000
-17.397191, 18.526127, 74.125000
-17.397191, 18.526127, 74.250000
-17.397191, 18.526127, 74.375000
-17.397191, 18.526127, 74.500000
-17.497753, 18.633214, 74.625000
-17.497753, 18.633214, 74.750000
-17.598315, 18.740302, 74.875000
-17.598315, 18.740302, 75.000000
-17.598315, 18.740302, 75.125000
-17.598315, 18.740302, 75.250000
-17.598315, 18.740302, 75.375000
-17.598315, 18.740302, 75.500000
-17.698876, 18.847389, 75.625000
-17.698876, 18.847389, 75.750000
-17.698876, 18.847389, 75.875000
-17.698876, 18.847389, 76.000000
-17.799438, 18.954477, 76.125000
-17.799438, 18.954477, 76.250000
-17.900000, 19.061564, 76.375000
-17.799438, 18.954477, 76.500000
-17.799438, 18.954477, 76.625000
-17.799438, 18.954477, 76.750000
-17.900000, 19.061564, 76.875000
-17.900000, 19.061564, 77.000000
-17.900000, 19.061564, 77.125000
-17.799438, 18.954477, 77.250000
-17.900000, 19.061564, 77.375000
-17.799438, 18.954477, 77.500000
-17.900000, 19.061564, 77.625000
-17.900000, 19.061564, 77.750000
-17.799438, 18.954477, 77.875000
-17.397191, 18.526127, 78.000000
-21.710058, 21.710058, 9.500000
-21.813934, 21.813934, 9.625000
-21.813934, 21.813934, 9.750000
-21.710058, 21.710058, 9.875000
-21.398430, 21.398430, 10.000000
-21.710058, 21.710058, 10.125000
-21.710058, 21.710058, 10.250000
-21.398430, 21.398430, 10.375000
-21.398430, 21.398430, 10.500000
-21.502306, 21.502306, 10.625000
-21.606182, 21.606182, 10.750000
-21.502306, 21.502306, 10.875000
-21.190678, 21.190678, 11.000000
-21.086803, 21.086803, 11.125000
-21.190678, 21.190678, 11.250000
-21.086803, 21.086803, 11.375000
-21.086803, 21.086803, 11.500000
-20.982927, 20.982927, 11.625000
-21.086803, 21.086803, 11.750000
-20.879051, 20.879051, 11.875000
-20.671299, 20.671299, 12.000000
-20.775175, 20.775175, 12.125000
-20.775175, 20.775175, 12.250000
-20.671299, 20.671299, 12.375000
-20.671299, 20.671299, 12.500000
-20.671299, 20.671299, 12.625000
-20.567423, 20.567423, 12.750000
-20.463547, 20.463547, 12.875000
-20.463547, 20.463547, 13.000000
-20.359671, 20.359671, 13.125000
-20.463547, 20.463547, 13.250000
-20.359671, 20.359671, 13.375000
-20.359671, 20.359671, 13.500000
-20.255796, 20.255796, 13.625000
-20.255796, 20.255796, 13.750000
-20.255796, 20.255796, 13.875000
-20.151920, 20.151920, 14.000000
-20.048044, 20.048044, 14.125000
-20.048044, 20.048044, 14.250000
-19.944168, 19.944168, 14.375000
-19.840292, 19.840292, 14.500000
-19.840292, 19.840292, 14.625000
-19.840292, 19.840292, 14.750000
-19.736416, 19.736416, 14.875000
-19.736416, 19.736416, 15.000000
-19.736416, 19.736416, 15.125000
-19.736416, 19.736416, 15.250000
-19.736416, 19.736416, 15.375000
-19.632540, 19.632540, 15.500000
-19.528664, 19.528664, 15.625000
-19.528664, 19.528664, 15.750000
-19.528664, 19.528664, 15.875000
-19.424789, 19.424789, 16.000000
-19.424789, 19.424789, 16.125000
-19.320913, 19.320913, 16.250000
-19.320913, 19.320913, 16.375000
-19.320913, 19.320913, 16.500000
-19.217037, 19.217037, 16.625000
-19.217037, 19.217037, 16.750000
-19.217037, 19.217037, 16.875000
-19.113161, 19.113161, 17.000000
-19.113161, 19.113161, 17.125000
-19.009285, 19.009285, 17.250000
-19.009285, 19.009285, 17.375000
-18.905409, 18.905409, 17.500000
-18.905409, 18.905409, 17.625000
-18.905409, 18.905409, 17.750000
-18.905409, 18.905409, 17.875000
-18.801533, 18.801533, 18.000000
-18.801533, 18.801533, 18.125000
-18.697657, 18.697657, 18.250000
-18.697657, 18.697657, 18.375000
-18.593782, 18.593782, 18.500000
-18.593782, 18.593782, 18.625000
-18.489906, 18.489906, 18.750000
-18.489906, 18.489906, 18.875000
-18.489906, 18.489906, 19.000000
-18.489906, 18.489906, 19.125000
-18.282154, 18.282154, 19.250000
-18.282154, 18.282154, 19.375000
-18.282154, 18.282154, 19.500000
-18.386030, 18.386030, 19.625000
-18.282154, 18.282154, 19.750000
-18.178278, 18.178278, 19.875000
-18.178278, 18.178278, 20.000000
-18.074402, 18.074402, 20.125000
-18.074402, 18.074402, 20.250000
-18.074402, 18.074402, 20.375000
-18.074402, 18.074402, 20.500000
-17.970526, 17.970526, 20.625000
-17.970526, 17.970526, 20.750000
-17.970526, 17.970526, 20.875000
-17.762775, 17.762775, 21.000000
-17.762775, 17.762775, 21.125000
-17.762775, 17.762775, 21.250000
-17.658899, 17.658899, 21.375000
-17.658899, 17.658899, 21.500000
-17.658899, 17.658899, 21.625000
-17.658899, 17.658899, 21.750000
-17.555023, 17.555023, 21.875000
-17.555023, 17.555023, 22.000000
-17.451147, 17.451147, 22.125000
-17.555023, 17.555023, 22.250000
-17.347271, 17.347271, 22.375000
-17.347271, 17.347271, 22.500000
-17.451147, 17.451147, 22.625000
-17.347271, 17.347271, 22.750000
-17.347271, 17.347271, 22.875000
-17.243395, 17.243395, 23.000000
-17.139519, 17.139519, 23.125000
-17.139519, 17.139519, 23.250000
-17.139519, 17.139519, 23.375000
-17.035643, 17.035643, 23.500000
-17.035643, 17.035643, 23.625000
-17.035643, 17.035643, 23.750000
-17.035643, 17.035643, 23.875000
-17.035643, 17.035643, 24.000000
-16.931768, 16.931768, 24.125000
-16.931768, 16.931768, 24.250000
-16.931768, 16.931768, 24.375000
-16.724016, 16.724016, 24.500000
-16.724016, 16.724016, 24.625000
-16.724016, 16.724016, 24.750000
-16.724016, 16.724016, 24.875000
-16.724016, 16.724016, 25.000000
-16.620140, 16.620140, 25.125000
-16.516264, 16.516264, 25.250000
-16.516264, 16.516264, 25.375000
-16.516264, 16.516264, 25.500000
-16.516264, 16.516264, 25.625000
-16.308512, 16.308512, 25.750000
-16.308512, 16.308512, 25.875000
-16.308512, 16.308512, 26.000000
-16.204636, 16.204636, 26.125000
-16.204636, 16.204636, 26.250000
-16.204636, 16.204636, 26.375000
-16.100761, 16.100761, 26.500000
-16.100761, 16.100761, 26.625000
-15.996885, 15.996885, 26.750000
-15.996885, 15.996885, 26.875000
-15.996885, 15.996885, 27.000000
-15.996885, 15.996885, 27.125000
-15.893009, 15.893009, 27.250000
-15.893009, 15.893009, 27.375000
-15.789133, 15.789133, 27.500000
-15.893009, 15.893009, 27.625000
-15.789133, 15.789133, 27.750000
-15.685257, 15.685257, 27.875000
-15.685257, 15.685257, 28.000000
-15.685257, 15.685257, 28.125000
-15.477505, 15.477505, 28.250000
-15.477505, 15.477505, 28.375000
-15.581381, 15.581381, 28.500000
-15.477505, 15.477505, 28.625000
-15.477505, 15.477505, 28.750000
-15.373629, 15.373629, 28.875000
-15.373629, 15.373629, 29.000000
-15.269754, 15.269754, 29.125000
-15.165878, 15.165878, 29.250000
-15.165878, 15.165878, 29.375000
-15.269754, 15.269754, 29.500000
-15.165878, 15.165878, 29.625000
-15.165878, 15.165878, 29.750000
-15.062002, 15.062002, 29.875000
-14.958126, 14.958126, 30.000000
-14.958126, 14.958126, 30.125000
-14.958126, 14.958126, 30.250000
-14.854250, 14.854250, 30.375000
-14.854250, 14.854250, 30.500000
-14.854250, 14.854250, 30.625000
-14.854250, 14.854250, 30.750000
-14.750374, 14.750374, 30.875000
-14.646498, 14.646498, 31.000000
-14.646498, 14.646498, 31.125000
-14.542622, 14.542622, 31.250000
-14.542622, 14.542622, 31.375000
-14.646498, 14.646498, 31.500000
-14.542622, 14.542622, 31.625000
-14.438747, 14.438747, 31.750000
-14.438747, 14.438747, 31.875000
-14.438747, 14.438747, 32.000000
-14.438747, 14.438747, 32.125000
-14.334871, 14.334871, 32.250000
-14.230995, 14.230995, 32.375000
-14.334871, 14.334871, 32.500000
-14.230995, 14.230995, 32.625000
-14.127119, 14.127119, 32.750000
-14.127119, 14.127119, 32.875000
-14.127119, 14.127119, 33.000000
-14.127119, 14.127119, 33.125000
-14.023243, 14.023243, 33.250000
-14.023243, 14.023243, 33.375000
-13.919367, 13.919367, 33.500000
-13.919367, 13.919367, 33.625000
-13.919367, 13.919367, 33.750000
-13.815491, 13.815491, 33.875000
-13.815491, 13.815491, 34.000000
-13.815491, 13.815491, 34.125000
-13.815491, 13.815491, 34.250000
-13.711615, 13.711615, 34.375000
-13.711615, 13.711615, 34.500000
-13.607740, 13.607740, 34.625000
-13.607740, 13.607740, 34.750000
-13.503864, 13.503864, 34.875000
-13.503864, 13.503864, 35.000000
-13.607740, 13.607740, 35.125000
-13.399988, 13.399988, 35.250000
-13.399988, 13.399988, 35.375000
-13.296112, 13.296112, 35.500000
-13.296112, 13.296112, 35.625000
-13.296112, 13.296112, 35.750000
-13.192236, 13.192236, 35.875000
-13.192236, 13.192236, 36.000000
-13.192236, 13.192236, 36.125000
-13.088360, 13.088360, 36.250000
-12.984484, 12.984484, 36.375000
-12.984484, 12.984484, 36.500000
-12.984484, 12.984484, 36.625000
-12.984484, 12.984484, 36.750000
-12.984484, 12.984484, 36.875000
-12.984484, 12.984484, 37.000000
-12.880608, 12.880608, 37.125000
-12.880608, 12.880608, 37.250000
-12.776733, 12.776733, 37.375000
-12.776733, 12.776733, 37.500000
-12.672857, 12.672857, 37.625000
-12.672857, 12.672857, 37.750000
-12.568981, 12.568981, 37.875000
-12.568981, 12.568981, 38.000000
-12.568981, 12.568981, 38.125000
-12.465105, 12.465105, 38.250000
-12.465105, 12.465105, 38.375000
-12.361229, 12.361229, 38.500000
-12.361229, 12.361229, 38.625000
-12.257353, 12.257353, 38.750000
-12.257353, 12.257353, 38.875000
-12.257353, 12.257353, 39.000000
-12.153477, 12.153477, 39.125000
-12.153477, 12.153477, 39.250000
-12.049601, 12.049601, 39.375000
-12.049601, 12.049601, 39.500000
-12.049601, 12.049601, 39.625000
-11.945726, 11.945726, 39.750000
-11.945726, 11.945726, 39.875000
-11.945726, 11.945726, 40.000000
-11.841850, 11.841850, 40.125000
-11.841850, 11.841850, 40.250000
-11.737974, 11.737974, 40.375000
-11.737974, 11.737974, 40.500000
-11.737974, 11.737974, 40.625000
-11.737974, 11.737974, 40.750000
-11.634098, 11.634098, 40.875000
-11.634098, 11.634098, 41.000000
-11.530222, 11.530222, 41.125000
-11.530222, 11.530222, 41.250000
-11.634098, 11.634098, 41.375000
-11.530222, 11.530222, 41.500000
-11.426346, 11.426346, 41.625000
-11.426346, 11.426346, 41.750000
-11.322470, 11.322470, 41.875000
-11.426346, 11.426346, 42.000000
-11.218594, 11.218594, 42.125000
-11.218594, 11.218594, 42.250000
-11.218594, 11.218594, 42.375000
-11.218594, 11.218594, 42.500000
-11.114719, 11.114719, 42.625000
-11.218594, 11.218594, 42.750000
-11.218594, 11.218594, 42.875000
-11.218594, 11.218594, 43.000000
-11.322470, 11.322470, 43.125000
-11.322470, 11.322470, 43.250000
-11.218594, 11.218594, 43.375000
-11.218594, 11.218594, 43.500000
-11.218594, 11.218594, 43.625000
-11.218594, 11.218594, 43.750000
-11.322470, 11.322470, 43.875000
-11.322470, 11.322470, 44.000000
-11.322470, 11.322470, 44.125000
-11.322470, 11.322470, 44.250000
-11.426346, 11.426346, 44.375000
-11.426346, 11.426346, 44.500000
-11.530222, 11.530222, 44.625000
-11.530222, 11.530222, 44.750000
-11.634098, 11.634098, 44.875000
-11.530222, 11.530222, 45.000000
-11.530222, 11.530222, 45.125000
-11.634098, 11.634098, 45.250000
-11.530222, 11.530222, 45.375000
-11.634098, 11.634098, 45.500000
-11.634098, 11.634098, 45.625000
-11.634098, 11.634098, 45.750000
-11.634098, 11.634098, 45.875000
-11.634098, 11.634098, 46.000000
-11.634098, 11.634098, 46.125000
-11.634098, 11.634098, 46.250000
-11.737974, 11.737974, 46.375000
-11.841850, 11.841850, 46.500000
-11.841850, 11.841850, 46.625000
-11.841850, 11.841850, 46.750000
-12.049601, 12.049601, 46.875000
-11.945726, 11.945726, 47.000000
-11.945726, 11.945726, 47.125000
-12.049601, 12.049601, 47.250000
-11.945726, 11.945726, 47.375000
-12.049601, 12.049601, 47.500000
-12.049601, 12.049601, 47.625000
-12.049601, 12.049601, 47.750000
-12.049601, 12.049601, 47.875000
-12.153477, 12.153477, 48.000000
-12.153477, 12.153477, 48.125000
-12.257353, 12.257353, 48.250000
-12.257353, 12.257353, 48.375000
-12.257353, 12.257353, 48.500000
-12.361229, 12.361229, 48.625000
-12.361229, 12.361229, 48.750000
-12.361229, 12.361229, 48.875000
-12.465105, 12.465105, 49.000000
-12.465105, 12.465105, 49.125000
-12.465105, 12.465105, 49.250000
-12.465105, 12.465105, 49.375000
-12.568981, 12.568981, 49.500000
-12.568981, 12.568981, 49.625000
-12.568981, 12.568981, 49.750000
-12.568981, 12.568981, 49.875000
-12.672857, 12.672857, 50.000000
-12.672857, 12.672857, 50.125000
-12.672857, 12.672857, 50.250000
-12.672857, 12.672857, 50.375000
-12.776733, 12.776733, 50.500000
-12.880608, 12.880608, 50.625000
-12.776733, 12.776733, 50.750000
-12.776733, 12.776733, 50.875000
-12.880608, 12.880608, 51.000000
-12.880608, 12.880608, 51.125000
-12.984484, 12.984484, 51.250000
-12.880608, 12.880608, 51.375000
-12.880608, 12.880608, 51.500000
-12.880608, 12.880608, 51.625000
-12.984484, 12.984484, 51.750000
-12.984484, 12.984484, 51.875000
-12.984484, 12.984484, 52.000000
-12.984484, 12.984484, 52.125000
-13.088360, 13.088360, 52.250000
-13.192236, 13.192236, 52.375000
-13.088360, 13.088360, 52.500000
-13.192236, 13.192236, 52.625000
-13.192236, 13.192236, 52.750000
-13.296112, 13.296112, 52.875000
-13.296112, 13.296112, 53.000000
-13.399988, 13.399988, 53.125000
-13.399988, 13.399988, 53.250000
-13.296112, 13.296112, 53.375000
-13.399988, 13.399988, 53.500000
-13.399988, 13.399988, 53.625000
-13.503864, 13.503864, 53.750000
-13.399988, 13.399988, 53.875000
-13.503864, 13.503864, 54.000000
-13.503864, 13.503864, 54.125000
-13.607740, 13.607740, 54.250000
-13.607740, 13.607740, 54.375000
-13.607740, 13.607740, 54.500000
-13.607740, 13.607740, 54.625000
-13.711615, 13.711615, 54.750000
-13.711615, 13.711615, 54.875000
-13.711615, 13.711615, 55.000000
-13.815491, 13.815491, 55.125000
-13.815491, 13.815491, 55.250000
-13.815491, 13.815491, 55.375000
-13.919367, 13.919367, 55.500000
-13.919367, 13.919367, 55.625000
-13.919367, 13.919367, 55.750000
-13.919367, 13.919367, 55.875000
-13.919367, 13.919367, 56.000000
-14.023243, 14.023243, 56.125000
-14.023243, 14.023243, 56.250000
-14.023243, 14.023243, 56.375000
-14.023243, 14.023243, 56.500000
-14.127119, 14.127119, 56.625000
-14.127119, 14.127119, 56.750000
-14.127119, 14.127119, 56.875000
-14.230995, 14.230995, 57.000000
-14.127119, 14.127119, 57.125000
-14.230995, 14.230995, 57.250000
-14.230995, 14.230995, 57.375000
-14.334871, 14.334871, 57.500000
-14.334871, 14.334871, 57.625000
-14.334871, 14.334871, 57.750000
-14.334871, 14.334871, 57.875000
-14.334871, 14.334871, 58.000000
-14.334871, 14.334871, 58.125000
-14.438747, 14.438747, 58.250000
-14.438747, 14.438747, 58.375000
-14.542622, 14.542622, 58.500000
-14.542622, 14.542622, 58.625000
-14.542622, 14.542622, 58.750000
-14.542622, 14.542622, 58.875000
-14.542622, 14.542622, 59.000000
-14.646498, 14.646498, 59.125000
-14.750374, 14.750374, 59.250000
-14.646498, 14.646498, 59.375000
-14.750374, 14.750374, 59.500000
-14.750374, 14.750374, 59.625000
-14.750374, 14.750374, 59.750000
-14.854250, 14.854250, 59.875000
-14.854250, 14.854250, 60.000000
-14.854250, 14.854250, 60.125000
-14.854250, 14.854250, 60.250000
-14.854250, 14.854250, 60.375000
-14.854250, 14.854250, 60.500000
-14.958126, 14.958126, 60.625000
-14.958126, 14.958126, 60.750000
-14.958126, 14.958126, 60.875000
-15.062002, 15.062002, 61.000000
-15.062002, 15.062002, 61.125000
-15.165878, 15.165878, 61.250000
-15.062002, 15.062002, 61.375000
-15.165878, 15.165878, 61.500000
-15.165878, 15.165878, 61.625000
-15.165878, 15.165878, 61.750000
-15.269754, 15.269754, 61.875000
-15.269754, 15.269754, 62.000000
-15.269754, 15.269754, 62.125000
-15.269754, 15.269754, 62.250000
-15.269754, 15.269754, 62.375000
-15.373629, 15.373629, 62.500000
-15.477505, 15.477505, 62.625000
-15.477505, 15.477505, 62.750000
-15.477505, 15.477505, 62.875000
-15.477505, 15.477505, 63.000000
-15.477505, 15.477505, 63.125000
-15.477505, 15.477505, 63.250000
-15.581381, 15.581381, 63.375000
-15.581381, 15.581381, 63.500000
-15.685257, 15.685257, 63.625000
-15.685257, 15.685257, 63.750000
-15.685257, 15.685257, 63.875000
-15.685257, 15.685257, 64.000000
-15.685257, 15.685257, 64.125000
-15.789133, 15.789133, 64.250000
-15.789133, 15.789133, 64.375000
-15.789133, 15.789133, 64.500000
-15.789133, 15.789133, 64.625000
-15.893009, 15.893009, 64.750000
-15.893009, 15.893009, 64.875000
-15.893009, 15.893009, 65.000000
-15.996885, 15.996885, 65.125000
-15.996885, 15.996885, 65.250000
-16.100761, 16.100761, 65.375000
-16.100761, 16.100761, 65.500000
-16.100761, 16.100761, 65.625000
-16.100761, 16.100761, 65.750000
-16.100761, 16.100761, 65.875000
-16.100761, 16.100761, 66.000000
-16.100761, 16.100761, 66.125000
-16.204636, 16.204636, 66.250000
-16.308512, 16.308512, 66.375000
-16.204636, 16.204636, 66.500000
-16.204636, 16.204636, 66.625000
-16.308512, 16.308512, 66.750000
-16.308512, 16.308512, 66.875000
-16.412388, 16.412388, 67.000000
-16.412388, 16.412388, 67.125000
-16.412388, 16.412388, 67.250000
-16.412388, 16.412388, 67.375000
-16.516264, 16.516264, 67.500000
-16.516264, 16.516264, 67.625000
-16.516264, 16.516264, 67.750000
-16.516264, 16.516264, 67.875000
-16.516264, 16.516264, 68.000000
-16.620140, 16.620140, 68.125000
-16.620140, 16.620140, 68.250000
-16.620140, 16.620140, 68.375000
-16.620140, 16.620140, 68.500000
-16.724016, 16.724016, 68.625000
-16.724016, 16.724016, 68.750000
-16.724016, 16.724016, 68.875000
-16.724016, 16.724016, 69.000000
-16.827892, 16.827892, 69.125000
-16.827892, 16.827892, 69.250000
-16.827892, 16.827892, 69.375000
-16.827892, 16.827892, 69.500000
-16.931768, 16.931768, 69.625000
-16.827892, 16.827892, 69.750000
-16.931768, 16.931768, 69.875000
-17.035643, 17.035643, 70.000000
-17.035643, 17.035643, 70.125000
-17.035643, 17.035643, 70.250000
-17.035643, 17.035643, 70.375000
-17.139519, 17.139519, 70.500000
-17.139519, 17.139519, 70.625000
-17.139519, 17.139519, 70.750000
-17.139519, 17.139519, 70.875000
-17.243395, 17.243395, 71.000000
-17.243395, 17.243395, 71.125000
-17.243395, 17.243395, 71.250000
-17.347271, 17.347271, 71.375000
-17.347271, 17.347271, 71.500000
-17.347271, 17.347271, 71.625000
-17.347271, 17.347271, 71.750000
-17.451147, 17.451147, 71.875000
-17.555023, 17.555023, 72.000000
-17.555023, 17.555023, 72.125000
-17.451147, 17.451147, 72.250000
-17.555023, 17.555023, 72.375000
-17.555023, 17.555023, 72.500000
-17.555023, 17.555023, 72.625000
-17.658899, 17.658899, 72.750000
-17.658899, 17.658899, 72.875000
-17.658899, 17.658899, 73.000000
-17.762775, 17.762775, 73.125000
-17.762775, 17.762775, 73.250000
-17.762775, 17.762775, 73.375000
-17.762775, 17.762775, 73.500000
-17.866650, 17.866650, 73.625000
-17.866650, 17.866650, 73.750000
-17.866650, 17.866650, 73.875000
-17.866650, 17.866650, 74.000000
-17.970526, 17.970526, 74.125000
-17.970526, 17.970526, 74.250000
-17.970526, 17.970526, 74.375000
-17.970526, 17.970526, 74.500000
-18.074402, 18.074402, 74.625000
-18.074402, 18.074402, 74.750000
-18.074402, 18.074402, 74.875000
-18.178278, 18.178278, 75.000000
-18.178278, 18.178278, 75.125000
-18.178278, 18.178278, 75.250000
-18.282154, 18.282154, 75.375000
-18.282154, 18.282154, 75.500000
-18.282154, 18.282154, 75.625000
-18.282154, 18.282154, 75.750000
-18.282154, 18.282154, 75.875000
-18.282154, 18.282154, 76.000000
-18.386030, 18.386030, 76.125000
-18.386030, 18.386030, 76.250000
-18.386030, 18.386030, 76.375000
-18.386030, 18.386030, 76.500000
-18.489906, 18.489906, 76.625000
-18.489906, 18.489906, 76.750000
-18.489906, 18.489906, 76.875000
-18.489906, 18.489906, 77.000000
-18.489906, 18.489906, 77.125000
-18.489906, 18.489906, 77.250000
-18.489906, 18.489906, 77.375000
-18.489906, 18.489906, 77.500000
-18.489906, 18.489906, 77.625000
-18.386030, 18.386030, 77.750000
-18.386030, 18.386030, 77.875000
-18.593782, 18.593782, 78.000000
-22.702537, 21.319101, 9.375000
-22.702537, 21.319101, 9.500000
-22.595449, 21.218539, 9.625000
-22.595449, 21.218539, 9.750000
-22.060012, 20.715730, 9.875000
-22.274187, 20.916854, 10.000000
-22.381275, 21.017416, 10.125000
-22.381275, 21.017416, 10.250000
-22.274187, 20.916854, 10.625000
-22.060012, 20.715730, 10.750000
-22.060012, 20.715730, 10.875000
-21.952925, 20.615169, 11.000000
-22.060012, 20.715730, 11.125000
-21.952925, 20.615169, 11.250000
-21.845837, 20.514607, 11.375000
-21.738750, 20.414045, 11.500000
-21.738750, 20.414045, 11.625000
-21.631662, 20.313483, 11.750000
-21.524575, 20.212921, 11.875000
-21.524575, 20.212921, 12.000000
-21.417488, 20.112360, 12.125000
-21.417488, 20.112360, 12.250000
-21.417488, 20.112360, 12.375000
-21.417488, 20.112360, 12.500000
-21.310400, 20.011798, 12.625000
-21.310400, 20.011798, 12.750000
-21.203313, 19.911236, 12.875000
-21.203313, 19.911236, 13.000000
-21.203313, 19.911236, 13.125000
-21.096225, 19.810674, 13.250000
-20.989138, 19.710112, 13.375000
-21.096225, 19.810674, 13.500000
-21.096225, 19.810674, 13.625000
-20.989138, 19.710112, 13.750000
-20.774963, 19.508989, 13.875000
-20.774963, 19.508989, 14.000000
-20.774963, 19.508989, 14.125000
-20.667876, 19.408427, 14.250000
-20.667876, 19.408427, 14.375000
-20.667876, 19.408427, 14.500000
-20.667876, 19.408427, 14.625000
-20.560788, 19.307865, 14.750000
-20.560788, 19.307865, 14.875000
-20.453701, 19.207303, 15.000000
-20.346613, 19.106742, 15.125000
-20.346613, 19.106742, 15.250000
-20.346613, 19.106742, 15.375000
-20.346613, 19.106742, 15.500000
-20.239526, 19.006180, 15.625000
-20.239526, 19.006180, 15.750000
-20.132438, 18.905618, 15.875000
-20.025351, 18.805056, 16.000000
-20.025351, 18.805056, 16.125000
-20.025351, 18.805056, 16.250000
-20.025351, 18.805056, 16.375000
-19.918263, 18.704494, 16.500000
-19.918263, 18.704494, 16.625000
-19.918263, 18.704494, 16.750000
-19.811176, 18.603933, 16.875000
-19.811176, 18.603933, 17.000000
-19.811176, 18.603933, 17.125000
-19.811176, 18.603933, 17.250000
-19.597001, 18.402809, 17.375000
-19.597001, 18.402809, 17.500000
-19.597001, 18.402809, 17.625000
-19.489914, 18.302247, 17.750000
-19.489914, 18.302247, 17.875000
-19.489914, 18.302247, 18.000000
-19.382826, 18.201685, 18.125000
-19.382826, 18.201685, 18.250000
-19.275739, 18.101124, 18.375000
-19.275739, 18.101124, 18.500000
-19.275739, 18.101124, 18.625000
-19.168651, 18.000562, 18.750000
-19.168651, 18.000562, 18.875000
-19.168651, 18.000562, 19.000000
-19.061564, 17.900000, 19.125000
-19.061564, 17.900000, 19.250000
-18.954477, 17.799438, 19.375000
-18.954477, 17.799438, 19.500000
-18.954477, 17.799438, 19.625000
-18.847389, 17.698876, 19.750000
-18.954477, 17.799438, 19.875000
-18.847389, 17.698876, 20.000000
-18.847389, 17.698876, 20.125000
-18.740302, 17.598315, 20.250000
-18.740302, 17.598315, 20.375000
-18.633214, 17.497753, 20.500000
-18.526127, 17.397191, 20.625000
-18.526127, 17.397191, 20.750000
-18.526127, 17.397191, 20.875000
-18.526127, 17.397191, 21.000000
-18.526127, 17.397191, 21.125000
-18.311952, 17.196067, 21.250000
-18.419039, 17.296629, 21.375000
-18.311952, 17.196067, 21.500000
-18.204864, 17.095506, 21.625000
-18.204864, 17.095506, 21.750000
-18.204864, 17.095506, 21.875000
-18.204864, 17.095506, 22.000000
-18.097777, 16.994944, 22.125000
-18.097777, 16.994944, 22.250000
-18.097777, 16.994944, 22.375000
-17.990690, 16.894382, 22.500000
-17.990690, 16.894382, 22.625000
-17.883602, 16.793820, 22.750000
-17.883602, 16.793820, 22.875000
-17.883602, 16.793820, 23.000000
-17.883602, 16.793820, 23.125000
-17.776515, 16.693258, 23.250000
-17.669427, 16.592697, 23.375000
-17.669427, 16.592697, 23.500000
-17.669427, 16.592697, 23.625000
-17.669427, 16.592697, 23.750000
-17.562340, 16.492135, 23.875000
-17.669427, 16.592697, 24.000000
-17.455252, 16.391573, 24.125000
-17.455252, 16.391573, 24.250000
-17.348165, 16.291011, 24.375000
-17.348165, 16.291011, 24.500000
-17.348165, 16.291011, 24.625000
-17.348165, 16.291011, 24.750000
-17.241078, 16.190449, 24.875000
-17.133990, 16.089888, 25.000000
-17.133990, 16.089888, 25.125000
-17.133990, 16.089888, 25.250000
-17.026903, 15.989326, 25.375000
-17.026903, 15.989326, 25.500000
-16.919815, 15.888764, 25.625000
-16.919815, 15.888764, 25.750000
-16.812728, 15.788202, 25.875000
-16.812728, 15.788202, 26.000000
-16.812728, 15.788202, 26.125000
-16.812728, 15.788202, 26.250000
-16.705640, 15.687640, 26.375000
-16.812728, 15.788202, 26.500000
-16.705640, 15.687640, 26.625000
-16.705640, 15.687640, 26.750000
-16.598553, 15.587079, 26.875000
-16.598553, 15.587079, 27.000000
-16.491465, 15.486517, 27.125000
-16.491465, 15.486517, 27.250000
-16.491465, 15.486517, 27.375000
-16.277291, 15.285393, 27.500000
-16.277291, 15.285393, 27.625000
-16.170203, 15.184831, 27.750000
-16.170203, 15.184831, 27.875000
-16.277291, 15.285393, 28.000000
-16.170203, 15.184831, 28.125000
-16.170203, 15.184831, 28.250000
-16.063116, 15.084270, 28.375000
-16.063116, 15.084270, 28.500000
-15.956028, 14.983708, 28.625000
-16.063116, 15.084270, 28.750000
-15.848941, 14.883146, 28.875000
-15.848941, 14.883146, 29.000000
-15.848941, 14.883146, 29.125000
-15.741853, 14.782584, 29.250000
-15.741853, 14.782584, 29.375000
-15.741853, 14.782584, 29.500000
-15.634766, 14.682022, 29.625000
-15.634766, 14.682022, 29.750000
-15.527679, 14.581461, 29.875000
-15.527679, 14.581461, 30.000000
-15.527679, 14.581461, 30.125000
-15.527679, 14.581461, 30.250000
-15.527679, 14.581461, 30.375000
-15.420591, 14.480899, 30.500000
-15.420591, 14.480899, 30.625000
-15.313504, 14.380337, 30.750000
-15.206416, 14.279775, 30.875000
-15.206416, 14.279775, 31.000000
-15.099329, 14.179213, 31.125000
-15.206416, 14.279775, 31.250000
-15.099329, 14.179213, 31.375000
-15.099329, 14.179213, 31.500000
-14.992241, 14.078652, 31.625000
-14.992241, 14.078652, 31.750000
-14.885154, 13.978090, 31.875000
-14.885154, 13.978090, 32.000000
-14.885154, 13.978090, 32.125000
-14.885154, 13.978090, 32.250000
-14.778066, 13.877528, 32.375000
-14.670979, 13.776966, 32.500000
-14.670979, 13.776966, 32.625000
-14.670979, 13.776966, 32.750000
-14.670979, 13.776966, 32.875000
-14.670979, 13.776966, 33.000000
-14.456804, 13.575843, 33.125000
-14.563892, 13.676405, 33.250000
-14.456804, 13.575843, 33.375000
-14.456804, 13.575843, 33.500000
-14.349717, 13.475281, 33.625000
-14.349717, 13.475281, 33.750000
-14.349717, 13.475281, 33.875000
-14.242629, 13.374719, 34.000000
-14.242629, 13.374719, 34.125000
-14.242629, 13.374719, 34.250000
-14.135542, 13.274157, 34.375000
-14.135542, 13.274157, 34.500000
-14.028454, 13.173596, 34.625000
-14.028454, 13.173596, 34.750000
-14.028454, 13.173596, 34.875000
-13.921367, 13.073034, 35.000000
-13.921367, 13.073034, 35.125000
-13.921367, 13.073034, 35.250000
-13.814280, 12.972472, 35.375000
-13.814280, 12.972472, 35.500000
-13.814280, 12.972472, 35.625000
-13.707192, 12.871910, 35.750000
-13.707192, 12.871910, 35.875000
-13.600105, 12.771348, 36.000000
-13.600105, 12.771348, 36.125000
-13.600105, 12.771348, 36.250000
-13.493017, 12.670787, 36.375000
-13.385930, 12.570225, 36.500000
-13.385930, 12.570225, 36.625000
-13.385930, 12.570225, 36.750000
-13.385930, 12.570225, 36.875000
-13.385930, 12.570225, 37.000000
-13.171755, 12.369101, 37.125000
-13.278842, 12.469663, 37.250000
-13.171755, 12.369101, 37.375000
-13.171755, 12.369101, 37.500000
-13.064667, 12.268539, 37.625000
-13.064667, 12.268539, 37.750000
-12.957580, 12.167978, 37.875000
-12.957580, 12.167978, 38.000000
-12.957580, 12.167978, 38.125000
-12.957580, 12.167978, 38.250000
-12.850493, 12.067416, 38.375000
-12.743405, 11.966854, 38.500000
-12.743405, 11.966854, 38.625000
-12.850493, 12.067416, 38.750000
-12.743405, 11.966854, 38.875000
-12.743405, 11.966854, 39.000000
-12.636318, 11.866292, 39.125000
-12.529230, 11.765730, 39.250000
-12.529230, 11.765730, 39.375000
-12.422143, 11.665169, 39.500000
-12.422143, 11.665169, 39.625000
-12.422143, 11.665169, 39.750000
-12.422143, 11.665169, 39.875000
-12.422143, 11.665169, 40.000000
-12.422143, 11.665169, 40.125000
-12.315055, 11.564607, 40.250000
-12.207968, 11.464045, 40.375000
-12.207968, 11.464045, 40.500000
-12.207968, 11.464045, 40.625000
-12.100880, 11.363483, 40.750000
-12.100880, 11.363483, 40.875000
-12.100880, 11.363483, 41.000000
-12.100880, 11.363483, 41.125000
-11.886706, 11.162360, 41.250000
-11.886706, 11.162360, 41.375000
-11.886706, 11.162360, 41.500000
-11.779618, 11.061798, 41.625000
-11.779618, 11.061798, 41.750000
-11.779618, 11.061798, 41.875000
-11.672531, 10.961236, 42.000000
-11.779618, 11.061798, 42.125000
-11.565443, 10.860674, 42.250000
-11.565443, 10.860674, 42.375000
-11.672531, 10.961236, 42.500000
-11.672531, 10.961236, 42.625000
-11.672531, 10.961236, 42.750000
-11.672531, 10.961236, 42.875000
-11.672531, 10.961236, 43.000000
-11.565443, 10.860674, 43.125000
-11.565443, 10.860674, 43.250000
-11.672531, 10.961236, 43.375000
-11.672531, 10.961236, 43.500000
-11.672531, 10.961236, 43.625000
-11.672531, 10.961236, 43.750000
-11.672531, 10.961236, 43.875000
-11.886706, 11.162360, 44.000000
-11.779618, 11.061798, 44.125000
-11.672531, 10.961236, 44.250000
-11.672531, 10.961236, 44.375000
-11.779618, 11.061798, 44.500000
-11.779618, 11.061798, 44.625000
-11.779618, 11.061798, 44.750000
-11.886706, 11.162360, 44.875000
-11.886706, 11.162360, 45.000000
-11.993793, 11.262921, 45.125000
-11.993793, 11.262921, 45.250000
-11.993793, 11.262921, 45.375000
-11.993793, 11.262921, 45.500000
-11.993793, 11.262921, 45.625000
-12.100880, 11.363483, 45.750000
-12.100880, 11.363483, 45.875000
-12.100880, 11.363483, 46.000000
-12.100880, 11.363483, 46.125000
-12.207968, 11.464045, 46.250000
-12.207968, 11.464045, 46.375000
-12.315055, 11.564607, 46.500000
-12.315055, 11.564607, 46.625000
-12.315055, 11.564607, 46.750000
-12.315055, 11.564607, 46.875000
-12.315055, 11.564607, 47.000000
-12.315055, 11.564607, 47.125000
-12.422143, 11.665169, 47.250000
-12.529230, 11.765730, 47.375000
-12.529230, 11.765730, 47.500000
-12.529230, 11.765730, 47.625000
-12.529230, 11.765730, 47.750000
-12.636318, 11.866292, 47.875000
-12.636318, 11.866292, 48.000000
-12.636318, 11.866292, 48.125000
-12.636318, 11.866292, 48.250000
-12.636318, 11.866292, 48.375000
-12.636318, 11.866292, 48.500000
-12.743405, 11.966854, 48.625000
-12.743405, 11.966854, 48.750000
-12.743405, 11.966854, 48.875000
-12.850493, 12.067416, 49.000000
-12.850493, 12.067416, 49.125000
-12.850493, 12.067416, 49.250000
-12.957580, 12.167978, 49.375000
-12.957580, 12.167978, 49.500000
-12.957580, 12.167978, 49.625000
-13.064667, 12.268539, 49.750000
-13.064667, 12.268539, 49.875000
-13.064667, 12.268539, 50.000000
-13.064667, 12.268539, 50.125000
-13.064667, 12.268539, 50.250000
-13.171755, 12.369101, 50.375000
-13.171755, 12.369101, 50.500000
-13.171755, 12.369101, 50.625000
-13.171755, 12.369101, 50.750000
-13.278842, 12.469663, 50.875000
-13.278842, 12.469663, 51.000000
-13.278842, 12.469663, 51.125000
-13.278842, 12.469663, 51.250000
-13.385930, 12.570225, 51.375000
-13.385930, 12.570225, 51.500000
-13.493017, 12.670787, 51.625000
-13.493017, 12.670787, 51.750000
-13.493017, 12.670787, 51.875000
-13.493017, 12.670787, 52.000000
-13.600105, 12.771348, 52.125000
-13.600105, 12.771348, 52.250000
-13.600105, 12.771348, 52.375000
-13.707192, 12.871910, 52.500000
-13.707192, 12.871910, 52.625000
-13.707192, 12.871910, 52.750000
-13.707192, 12.871910, 52.875000
-13.707192, 12.871910, 53.000000
-13.814280, 12.972472, 53.125000
-13.814280, 12.972472, 53.250000
-13.814280, 12.972472, 53.375000
-13.814280, 12.972472, 53.500000
-13.814280, 12.972472, 53.625000
-13.921367, 13.073034, 53.750000
-13.921367, 13.073034, 53.875000
-14.028454, 13.173596, 54.000000
-13.921367, 13.073034, 54.125000
-14.028454, 13.173596, 54.250000
-14.028454, 13.173596, 54.375000
-14.135542, 13.274157, 54.500000
-14.135542, 13.274157, 54.625000
-14.135542, 13.274157, 54.750000
-14.135542, 13.274157, 54.875000
-14.242629, 13.374719, 55.000000
-14.242629, 13.374719, 55.125000
-14.242629, 13.374719, 55.250000
-14.349717, 13.475281, 55.375000
-14.349717, 13.475281, 55.500000
-14.349717, 13.475281, 55.625000
-14.349717, 13.475281, 55.750000
-14.349717, 13.475281, 55.875000
-14.456804, 13.575843, 56.000000
-14.456804, 13.575843, 56.125000
-14.456804, 13.575843, 56.250000
-14.563892, 13.676405, 56.375000
-14.563892, 13.676405, 56.500000
-14.563892, 13.676405, 56.625000
-14.563892, 13.676405, 56.750000
-14.670979, 13.776966, 56.875000
-14.670979, 13.776966, 57.000000
-14.670979, 13.776966, 57.125000
-14.670979, 13.776966, 57.250000
-14.778066, 13.877528, 57.375000
-14.778066, 13.877528, 57.500000
-14.778066, 13.877528, 57.625000
-14.778066, 13.877528, 57.750000
-14.778066, 13.877528, 57.875000
-14.885154, 13.978090, 58.000000
-14.885154, 13.978090, 58.125000
-14.885154, 13.978090, 58.250000
-14.885154, 13.978090, 58.375000
-14.992241, 14.078652, 58.500000
-15.099329, 14.179213, 58.625000
-15.099329, 14.179213, 58.750000
-15.099329, 14.179213, 58.875000
-15.099329, 14.179213, 59.000000
-15.099329, 14.179213, 59.125000
-15.206416, 14.279775, 59.250000
-15.099329, 14.179213, 59.375000
-15.206416, 14.279775, 59.500000
-15.206416, 14.279775, 59.625000
-15.206416, 14.279775, 59.750000
-15.313504, 14.380337, 59.875000
-15.313504, 14.380337, 60.000000
-15.313504, 14.380337, 60.125000
-15.420591, 14.480899, 60.250000
-15.420591, 14.480899, 60.375000
-15.420591, 14.480899, 60.500000
-15.420591, 14.480899, 60.625000
-15.527679, 14.581461, 60.750000
-15.527679, 14.581461, 60.875000
-15.527679, 14.581461, 61.000000
-15.634766, 14.682022, 61.125000
-15.634766, 14.682022, 61.250000
-15.634766, 14.682022, 61.375000
-15.634766, 14.682022, 61.500000
-15.741853, 14.782584, 61.625000
-15.741853, 14.782584, 61.750000
-15.741853, 14.782584, 61.875000
-15.848941, 14.883146, 62.000000
-15.848941, 14.883146, 62.125000
-15.848941, 14.883146, 62.250000
-15.848941, 14.883146, 62.375000
-15.848941, 14.883146, 62.500000
-16.063116, 15.084270, 62.625000
-16.063116, 15.084270, 62.750000
-15.956028, 14.983708, 62.875000
-16.063116, 15.084270, 63.000000
-16.063116, 15.084270, 63.125000
-16.170203, 15.184831, 63.250000
-16.170203, 15.184831, 63.375000
-16.170203, 15.184831, 63.500000
-16.170203, 15.184831, 63.625000
-16.170203, 15.184831, 63.750000
-16.170203, 15.184831, 63.875000
-16.277291, 15.285393, 64.000000
-16.277291, 15.285393, 64.125000
-16.277291, 15.285393, 64.250000
-16.384378, 15.385955, 64.375000
-16.277291, 15.285393, 64.500000
-16.384378, 15.385955, 64.625000
-16.491465, 15.486517, 64.750000
-16.491465, 15.486517, 64.875000
-16.491465, 15.486517, 65.000000
-16.491465, 15.486517, 65.125000
-16.491465, 15.486517, 65.250000
-16.598553, 15.587079, 65.375000
-16.598553, 15.587079, 65.500000
-16.598553, 15.587079, 65.625000
-16.598553, 15.587079, 65.750000
-16.598553, 15.587079, 65.875000
-16.598553, 15.587079, 66.000000
-16.705640, 15.687640, 66.125000
-16.705640, 15.687640, 66.250000
-16.812728, 15.788202, 66.375000
-16.812728, 15.788202, 66.500000
-16.919815, 15.888764, 66.625000
-16.812728, 15.788202, 66.750000
-16.812728, 15.788202, 66.875000
-16.919815, 15.888764, 67.000000
-16.919815, 15.888764, 67.125000
-17.026903, 15.989326, 67.250000
-16.919815, 15.888764, 67.375000
-17.026903, 15.989326, 67.500000
-17.026903, 15.989326, 67.625000
-17.026903, 15.989326, 67.750000
-17.026903, 15.989326, 67.875000
-17.133990, 16.089888, 68.000000
-17.133990, 16.089888, 68.125000
-17.133990, 16.089888, 68.250000
-17.241078, 16.190449, 68.375000
-17.133990, 16.089888, 68.500000
-17.241078, 16.190449, 68.625000
-17.241078, 16.190449, 68.750000
-17.348165, 16.291011, 68.875000
-17.348165, 16.291011, 69.000000
-17.348165, 16.291011, 69.125000
-17.455252, 16.391573, 69.250000
-17.455252, 16.391573, 69.375000
-17.455252, 16.391573, 69.500000
-17.455252, 16.391573, 69.625000
-17.455252, 16.391573, 69.750000
-17.562340, 16.492135, 69.875000
-17.562340, 16.492135, 70.000000
-17.562340, 16.492135, 70.125000
-17.669427, 16.592697, 70.250000
-17.669427, 16.592697, 70.375000
-17.669427, 16.592697, 70.500000
-17.669427, 16.592697, 70.625000
-17.669427, 16.592697, 70.750000
-17.776515, 16.693258, 70.875000
-17.776515, 16.693258, 71.000000
-17.883602, 16.793820, 71.125000
-17.883602, 16.793820, 71.250000
-17.883602, 16.793820, 71.375000
-17.990690, 16.894382, 71.500000
-17.990690, 16.894382, 71.625000
-17.990690, 16.894382, 71.750000
-18.097777, 16.994944, 71.875000
-17.990690, 16.894382, 72.000000
-18.097777, 16.994944, 72.125000
-18.097777, 16.994944, 72.250000
-18.097777, 16.994944, 72.375000
-18.097777, 16.994944, 72.500000
-18.204864, 17.095506, 72.625000
-18.311952, 17.196067, 72.750000
-18.204864, 17.095506, 72.875000
-18.311952, 17.196067, 73.000000
-18.311952, 17.196067, 73.125000
-18.419039, 17.296629, 73.250000
-18.419039, 17.296629, 73.375000
-18.419039, 17.296629, 73.500000
-18.419039, 17.296629, 73.625000
-18.526127, 17.397191, 73.750000
-18.526127, 17.397191, 73.875000
-18.633214, 17.497753, 74.000000
-18.633214, 17.497753, 74.125000
-18.633214, 17.497753, 74.250000
-18.633214, 17.497753, 74.375000
-18.633214, 17.497753, 74.500000
-18.633214, 17.497753, 74.625000
-18.847389, 17.698876, 74.750000
-18.740302, 17.598315, 74.875000
-18.740302, 17.598315, 75.000000
-18.847389, 17.698876, 75.125000
-18.740302, 17.598315, 75.250000
-18.954477, 17.799438, 75.375000
-18.847389, 17.698876, 75.500000
-18.847389, 17.698876, 75.625000
-18.847389, 17.698876, 75.750000
-18.954477, 17.799438, 75.875000
-18.954477, 17.799438, 76.000000
-18.954477, 17.799438, 76.125000
-18.954477, 17.799438, 76.250000
-19.061564, 17.900000, 76.375000
-19.061564, 17.900000, 76.500000
-19.061564, 17.900000, 76.625000
-19.061564, 17.900000, 76.750000
-19.168651, 18.000562, 76.875000
-19.168651, 18.000562, 77.000000
-19.061564, 17.900000, 77.125000
-19.061564, 17.900000, 77.250000
-19.061564, 17.900000, 77.375000
-19.061564, 17.900000, 77.500000
-19.168651, 18.000562, 77.625000
-19.275739, 18.101124, 77.750000
-19.061564, 17.900000, 77.875000
-19.168651, 18.000562, 78.000000
-23.801757, 20.984071, 9.375000
-23.581370, 20.789775, 9.500000
-23.360984, 20.595478, 9.625000
-23.471177, 20.692626, 9.750000
-23.471177, 20.692626, 9.875000
-23.471177, 20.692626, 10.000000
-23.471177, 20.692626, 10.125000
-23.581370, 20.789775, 10.250000
-23.360984, 20.595478, 10.375000
-23.250790, 20.498329, 10.500000
-23.250790, 20.498329, 10.625000
-23.250790, 20.498329, 10.750000
-23.140597, 20.401181, 10.875000
-23.030404, 20.304032, 11.000000
-22.920210, 20.206884, 11.125000
-22.920210, 20.206884, 11.250000
-22.920210, 20.206884, 11.375000
-22.699824, 20.012587, 11.500000
-22.699824, 20.012587, 11.625000
-22.589630, 19.915438, 11.750000
-22.479437, 19.818290, 11.875000
-22.479437, 19.818290, 12.000000
-22.479437, 19.818290, 12.125000
-22.479437, 19.818290, 12.250000
-22.479437, 19.818290, 12.375000
-22.369244, 19.721141, 12.500000
-22.259050, 19.623993, 12.625000
-22.259050, 19.623993, 12.750000
-22.259050, 19.623993, 12.875000
-22.148857, 19.526844, 13.000000
-22.148857, 19.526844, 13.125000
-22.038664, 19.429696, 13.250000
-22.038664, 19.429696, 13.375000
-22.038664, 19.429696, 13.500000
-21.928471, 19.332547, 13.625000
-21.818277, 19.235399, 13.750000
-21.818277, 19.235399, 13.875000
-21.928471, 19.332547, 14.000000
-21.708084, 19.138250, 14.125000
-21.708084, 19.138250, 14.250000
-21.597891, 19.041102, 14.375000
-21.597891, 19.041102, 14.500000
-21.597891, 19.041102, 14.625000
-21.487697, 18.943953, 14.750000
-21.377504, 18.846805, 14.875000
-21.377504, 18.846805, 15.000000
-21.267311, 18.749656, 15.125000
-21.267311, 18.749656, 15.250000
-21.267311, 18.749656, 15.375000
-21.267311, 18.749656, 15.500000
-21.267311, 18.749656, 15.625000
-21.046924, 18.555359, 15.750000
-21.046924, 18.555359, 15.875000
-21.046924, 18.555359, 16.000000
-20.936731, 18.458211, 16.125000
-20.936731, 18.458211, 16.250000
-20.826537, 18.361063, 16.375000
-20.826537, 18.361063, 16.500000
-20.936731, 18.458211, 16.625000
-20.826537, 18.361063, 16.750000
-20.716344, 18.263914, 16.875000
-20.716344, 18.263914, 17.000000
-20.606151, 18.166766, 17.125000
-20.716344, 18.263914, 17.250000
-20.606151, 18.166766, 17.375000
-20.606151, 18.166766, 17.500000
-20.495957, 18.069617, 17.625000
-20.495957, 18.069617, 17.750000
-20.385764, 17.972469, 17.875000
-20.385764, 17.972469, 18.000000
-20.385764, 17.972469, 18.125000
-20.275571, 17.875320, 18.250000
-20.275571, 17.875320, 18.375000
-20.165377, 17.778172, 18.500000
-20.165377, 17.778172, 18.625000
-20.165377, 17.778172, 18.750000
-20.055184, 17.681023, 18.875000
-20.055184, 17.681023, 19.000000
-19.944991, 17.583875, 19.125000
-19.834797, 17.486726, 19.250000
-19.944991, 17.583875, 19.375000
-19.944991, 17.583875, 19.500000
-19.834797, 17.486726, 19.625000
-19.834797, 17.486726, 19.750000
-19.724604, 17.389578, 19.875000
-19.724604, 17.389578, 20.000000
-19.724604, 17.389578, 20.125000
-19.504218, 17.195281, 20.250000
-19.504218, 17.195281, 20.375000
-19.504218, 17.195281, 20.500000
-19.614411, 17.292429, 20.625000
-19.394024, 17.098132, 20.750000
-19.394024, 17.098132, 20.875000
-19.283831, 17.000984, 21.000000
-19.283831, 17.000984, 21.125000
-19.283831, 17.000984, 21.250000
-19.283831, 17.000984, 21.375000
-19.173638, 16.903835, 21.500000
-19.173638, 16.903835, 21.625000
-19.173638, 16.903835, 21.750000
-19.173638, 16.903835, 21.875000
-19.063444, 16.806687, 22.000000
-18.953251, 16.709538, 22.125000
-18.953251, 16.709538, 22.250000
-18.953251, 16.709538, 22.375000
-18.953251, 16.709538, 22.500000
-18.843058, 16.612390, 22.625000
-18.843058, 16.612390, 22.750000
