-6.772677, -2.438314, 34.375000
-6.772677, -2.438314, 34.500000
-6.910895, -2.488075, 34.625000
-6.772677, -2.438314, 34.750000
-6.910895, -2.488075, 34.875000
-7.049113, -2.537837, 35.000000
-7.049113, -2.537837, 35.125000
-7.187331, -2.587598, 35.250000
-7.187331, -2.587598, 35.375000
-7.187331, -2.587598, 35.500000
-7.187331, -2.587598, 35.625000
-7.187331, -2.587598, 35.750000
-7.187331, -2.587598, 35.875000
-7.325549, -2.637360, 36.000000
-7.325549, -2.637360, 36.125000
-7.325549, -2.637360, 36.250000
-7.463766, -2.687121, 36.375000
-7.463766, -2.687121, 36.500000
-7.463766, -2.687121, 36.625000
-7.740202, -2.786644, 36.750000
-7.601984, -2.736883, 36.875000
-7.601984, -2.736883, 37.000000
-7.740202, -2.786644, 37.125000
-7.740202, -2.786644, 37.250000
-7.740202, -2.786644, 37.375000
-7.740202, -2.786644, 37.500000
-7.878420, -2.836406, 37.625000
-7.878420, -2.836406, 37.750000
-8.016638, -2.886167, 37.875000
-8.016638, -2.886167, 38.000000
-8.016638, -2.886167, 38.125000
-8.016638, -2.886167, 38.250000
-8.154856, -2.935929, 38.375000
-8.154856, -2.935929, 38.500000
-8.154856, -2.935929, 38.625000
-8.154856, -2.935929, 38.750000
-8.293074, -2.985690, 38.875000
-8.293074, -2.985690, 39.000000
-8.293074, -2.985690, 39.125000
-8.431292, -3.035452, 39.250000
-8.431292, -3.035452, 39.375000
-8.569510, -3.085213, 39.500000
-8.569510, -3.085213, 39.625000
-8.707728, -3.134975, 39.750000
-8.569510, -3.085213, 39.875000
-8.707728, -3.134975, 40.000000
-8.707728, -3.134975, 40.125000
-8.707728, -3.134975, 40.250000
-8.707728, -3.134975, 40.375000
-8.845945, -3.184736, 40.500000
-8.845945, -3.184736, 40.625000
-8.984163, -3.234498, 40.750000
-8.984163, -3.234498, 40.875000
-9.122381, -3.284259, 41.000000
-9.122381, -3.284259, 41.125000
-9.122381, -3.284259, 41.250000
-9.260599, -3.334021, 41.375000
-9.260599, -3.334021, 41.500000
-9.260599, -3.334021, 41.625000
-9.260599, -3.334021, 41.750000
-9.260599, -3.334021, 41.875000
-9.260599, -3.334021, 42.000000
-9.398817, -3.383782, 42.125000
-9.398817, -3.383782, 42.250000
-9.398817, -3.383782, 42.375000
-9.537035, -3.433544, 42.500000
-9.537035, -3.433544, 42.625000
-9.537035, -3.433544, 42.750000
-9.675253, -3.483305, 42.875000
-9.675253, -3.483305, 43.000000
-9.813471, -3.533067, 43.125000
-9.813471, -3.533067, 43.250000
-9.813471, -3.533067, 43.375000
-9.951689, -3.582828, 43.500000
-9.951689, -3.582828, 43.625000
-9.951689, -3.582828, 43.750000
-10.089907, -3.632590, 43.875000
-10.089907, -3.632590, 44.000000
-10.089907, -3.632590, 44.125000
-10.089907, -3.632590, 44.250000
-10.089907, -3.632590, 44.375000
-10.228124, -3.682351, 44.500000
-10.228124, -3.682351, 44.625000
-10.366342, -3.732113, 44.750000
-10.366342, -3.732113, 44.875000
-10.366342, -3.732113, 45.000000
-10.366342, -3.732113, 45.125000
-10.366342, -3.732113, 45.250000
-10.504560, -3.781874, 45.375000
-10.504560, -3.781874, 45.500000
-10.504560, -3.781874, 45.625000
-10.780996, -3.881397, 45.750000
-10.642778, -3.831636, 45.875000
-10.642778, -3.831636, 46.000000
-10.780996, -3.881397, 46.125000
-10.780996, -3.881397, 46.250000
-10.919214, -3.931159, 46.375000
-10.780996, -3.881397, 46.500000
-10.780996, -3.881397, 46.625000
-10.919214, -3.931159, 46.750000
-11.057432, -3.980920, 46.875000
-11.057432, -3.980920, 47.000000
-11.057432, -3.980920, 47.125000
-11.057432, -3.980920, 47.250000
-11.195650, -4.030682, 47.375000
-11.195650, -4.030682, 47.500000
-11.333868, -4.080443, 47.625000
-11.195650, -4.030682, 47.750000
-11.195650, -4.030682, 47.875000
-11.333868, -4.080443, 48.000000
-11.333868, -4.080443, 48.125000
-11.333868, -4.080443, 48.250000
-11.472085, -4.130205, 48.375000
-11.472085, -4.130205, 48.500000
-11.472085, -4.130205, 48.625000
-11.472085, -4.130205, 48.750000
-11.610303, -4.179966, 48.875000
-11.610303, -4.179966, 49.000000
-11.748521, -4.229728, 49.125000
-11.748521, -4.229728, 49.250000
-11.886739, -4.279489, 49.375000
-11.886739, -4.279489, 49.500000
-12.024957, -4.329251, 49.625000
-11.886739, -4.279489, 49.750000
-11.886739, -4.279489, 49.875000
-11.886739, -4.279489, 50.000000
-12.024957, -4.329251, 50.125000
-12.024957, -4.329251, 50.250000
-12.163175, -4.379012, 50.375000
-12.163175, -4.379012, 50.500000
-12.301393, -4.428774, 50.625000
-12.301393, -4.428774, 50.750000
-12.301393, -4.428774, 50.875000
-12.301393, -4.428774, 51.000000
-12.439611, -4.478535, 51.125000
-12.439611, -4.478535, 51.250000
-12.439611, -4.478535, 51.375000
-12.439611, -4.478535, 51.500000
-12.577829, -4.528297, 51.625000
-12.577829, -4.528297, 51.750000
-12.577829, -4.528297, 51.875000
-12.716047, -4.578058, 52.000000
-12.716047, -4.578058, 52.125000
-12.716047, -4.578058, 52.250000
-12.854264, -4.627820, 52.375000
-12.854264, -4.627820, 52.500000
-12.854264, -4.627820, 52.625000
-12.854264, -4.627820, 52.750000
-12.992482, -4.677581, 52.875000
-12.992482, -4.677581, 53.000000
-13.130700, -4.727343, 53.125000
-13.130700, -4.727343, 53.250000
-13.130700, -4.727343, 53.375000
-13.268918, -4.777104, 53.500000
-13.130700, -4.727343, 53.625000
-13.268918, -4.777104, 53.750000
-13.268918, -4.777104, 53.875000
-13.407136, -4.826866, 54.000000
-13.407136, -4.826866, 54.125000
-13.407136, -4.826866, 54.250000
-13.407136, -4.826866, 54.375000
-13.407136, -4.826866, 54.500000
-13.545354, -4.876627, 54.625000
-13.545354, -4.876627, 54.750000
-13.545354, -4.876627, 54.875000
-13.683572, -4.926389, 55.000000
-13.683572, -4.926389, 55.125000
-13.683572, -4.926389, 55.250000
-13.821790, -4.976151, 55.375000
-13.821790, -4.976151, 55.500000
-13.821790, -4.976151, 55.625000
-13.960008, -5.025912, 55.750000
-13.960008, -5.025912, 55.875000
-13.960008, -5.025912, 56.000000
-13.960008, -5.025912, 56.125000
-14.098226, -5.075674, 56.250000
-14.098226, -5.075674, 56.375000
-14.236443, -5.125435, 56.500000
-14.236443, -5.125435, 56.625000
-14.098226, -5.075674, 56.750000
-14.236443, -5.125435, 56.875000
-14.236443, -5.125435, 57.000000
-14.374661, -5.175197, 57.125000
-14.374661, -5.175197, 57.250000
-14.374661, -5.175197, 57.375000
-14.374661, -5.175197, 57.500000
-14.512879, -5.224958, 57.625000
-14.651097, -5.274720, 57.750000
-14.512879, -5.224958, 57.875000
-14.651097, -5.274720, 58.000000
-14.651097, -5.274720, 58.125000
-14.789315, -5.324481, 58.250000
-14.789315, -5.324481, 58.375000
-14.789315, -5.324481, 58.500000
-14.789315, -5.324481, 58.625000
-14.789315, -5.324481, 58.750000
-14.927533, -5.374243, 58.875000
-14.927533, -5.374243, 59.000000
-14.927533, -5.374243, 59.125000
-14.927533, -5.374243, 59.250000
-15.065751, -5.424004, 59.375000
-15.203969, -5.473766, 59.500000
-15.065751, -5.424004, 59.625000
-15.203969, -5.473766, 59.750000
-15.203969, -5.473766, 59.875000
-15.203969, -5.473766, 60.000000
-15.342187, -5.523527, 60.125000
-15.342187, -5.523527, 60.250000
-15.480405, -5.573289, 60.375000
-15.480405, -5.573289, 60.500000
-15.480405, -5.573289, 60.625000
-15.480405, -5.573289, 60.750000
-15.618622, -5.623050, 60.875000
-15.618622, -5.623050, 61.000000
-15.756840, -5.672812, 61.125000
-15.756840, -5.672812, 61.250000
-15.756840, -5.672812, 61.375000
-15.895058, -5.722573, 61.500000
-15.756840, -5.672812, 61.625000
-15.895058, -5.722573, 61.750000
-15.895058, -5.722573, 61.875000
-15.895058, -5.722573, 62.000000
-16.033276, -5.772335, 62.125000
-16.033276, -5.772335, 62.250000
-16.033276, -5.772335, 62.375000
-16.033276, -5.772335, 62.500000
-16.171494, -5.822096, 62.625000
-16.171494, -5.822096, 62.750000
-16.309712, -5.871858, 62.875000
-16.309712, -5.871858, 63.000000
-16.309712, -5.871858, 63.125000
-16.309712, -5.871858, 63.250000
-16.447930, -5.921619, 63.375000
-16.447930, -5.921619, 63.500000
-16.447930, -5.921619, 63.625000
-16.447930, -5.921619, 63.750000
-16.586148, -5.971381, 63.875000
-16.586148, -5.971381, 64.000000
-16.586148, -5.971381, 64.125000
-16.862583, -6.070904, 64.250000
-16.724366, -6.021142, 64.375000
-16.724366, -6.021142, 64.500000
-16.724366, -6.021142, 64.625000
-16.862583, -6.070904, 64.750000
-16.862583, -6.070904, 64.875000
-17.000801, -6.120665, 65.000000
-17.000801, -6.120665, 65.125000
-17.000801, -6.120665, 65.250000
-17.000801, -6.120665, 65.375000
-17.139019, -6.170427, 65.500000
-17.139019, -6.170427, 65.625000
-17.277237, -6.220188, 65.750000
-17.277237, -6.220188, 65.875000
-17.277237, -6.220188, 66.000000
-17.277237, -6.220188, 66.125000
-17.415455, -6.269950, 66.250000
-17.415455, -6.269950, 66.375000
-17.415455, -6.269950, 66.500000
-17.415455, -6.269950, 66.625000
-17.553673, -6.319711, 66.750000
-17.553673, -6.319711, 66.875000
-17.553673, -6.319711, 67.000000
-17.691891, -6.369473, 67.125000
-17.691891, -6.369473, 67.250000
-17.691891, -6.369473, 67.375000
-17.691891, -6.369473, 67.500000
-17.830109, -6.419234, 67.625000
-17.830109, -6.419234, 67.750000
-17.968327, -6.468996, 67.875000
-18.106545, -6.518757, 68.000000
-18.106545, -6.518757, 68.125000
-18.106545, -6.518757, 68.250000
-18.106545, -6.518757, 68.375000
-18.106545, -6.518757, 68.500000
-18.106545, -6.518757, 68.625000
-18.244762, -6.568519, 68.750000
-18.244762, -6.568519, 68.875000
-18.244762, -6.568519, 69.000000
-18.244762, -6.568519, 69.125000
-18.521198, -6.668042, 69.250000
-18.382980, -6.618280, 69.375000
-18.521198, -6.668042, 69.500000
-18.521198, -6.668042, 69.625000
-18.521198, -6.668042, 69.750000
-18.521198, -6.668042, 69.875000
-18.659416, -6.717803, 70.000000
-18.659416, -6.717803, 70.125000
-18.659416, -6.717803, 70.250000
-18.797634, -6.767565, 70.375000
-18.797634, -6.767565, 70.500000
-18.797634, -6.767565, 70.625000
-18.797634, -6.767565, 70.750000
-18.935852, -6.817326, 70.875000
-19.074070, -6.867088, 71.000000
-19.074070, -6.867088, 71.125000
-18.935852, -6.817326, 71.250000
-19.074070, -6.867088, 71.375000
-19.074070, -6.867088, 71.500000
-19.212288, -6.916849, 71.625000
-19.212288, -6.916849, 71.750000
-19.212288, -6.916849, 71.875000
-19.212288, -6.916849, 72.000000
-19.212288, -6.916849, 72.125000
-19.350506, -6.966611, 72.250000
-19.350506, -6.966611, 72.375000
-19.488724, -7.016372, 72.500000
-19.488724, -7.016372, 72.625000
-19.626941, -7.066134, 72.750000
-19.626941, -7.066134, 72.875000
-19.626941, -7.066134, 73.000000
-19.765159, -7.115895, 73.125000
-19.765159, -7.115895, 73.250000
-19.765159, -7.115895, 73.375000
-19.903377, -7.165657, 73.500000
-19.903377, -7.165657, 73.625000
-19.903377, -7.165657, 73.750000
-20.041595, -7.215418, 73.875000
-20.041595, -7.215418, 74.000000
-20.041595, -7.215418, 74.125000
-20.179813, -7.265180, 74.250000
-20.179813, -7.265180, 74.375000
-20.179813, -7.265180, 74.500000
-20.318031, -7.314941, 74.625000
-20.318031, -7.314941, 74.750000
-20.456249, -7.364703, 74.875000
-20.318031, -7.314941, 75.000000
-20.318031, -7.314941, 75.125000
-20.456249, -7.364703, 75.250000
-20.456249, -7.364703, 75.375000
-20.456249, -7.364703, 75.500000
-20.456249, -7.364703, 75.625000
-20.594467, -7.414464, 75.750000
-20.594467, -7.414464, 75.875000
-20.594467, -7.414464, 76.000000
-20.732685, -7.464226, 76.125000
-20.870903, -7.513987, 76.250000
-20.870903, -7.513987, 76.375000
-21.009120, -7.563749, 76.500000
-21.009120, -7.563749, 76.625000
-21.009120, -7.563749, 76.750000
-21.009120, -7.563749, 76.875000
-21.009120, -7.563749, 77.000000
-21.147338, -7.613510, 77.125000
-21.147338, -7.613510, 77.250000
-21.285556, -7.663272, 77.375000
-21.285556, -7.663272, 77.500000
-21.285556, -7.663272, 77.625000
-21.423774, -7.713033, 77.750000
-21.561992, -7.762795, 77.875000
-21.561992, -7.762795, 78.000000
-21.561992, -7.762795, 78.125000
-21.700210, -7.812556, 78.250000
-21.700210, -7.812556, 78.375000
-21.700210, -7.812556, 78.500000
-21.700210, -7.812556, 78.625000
-21.700210, -7.812556, 78.750000
-21.838428, -7.862318, 78.875000
-21.838428, -7.862318, 79.000000
-21.976646, -7.912079, 79.125000
-21.976646, -7.912079, 79.250000
-21.976646, -7.912079, 79.375000
-22.114864, -7.961841, 79.500000
-22.114864, -7.961841, 79.625000
-22.114864, -7.961841, 79.750000
-22.253081, -8.011602, 79.875000
-22.114864, -7.961841, 80.000000
-22.114864, -7.961841, 80.125000
-22.253081, -8.011602, 80.250000
-22.253081, -8.011602, 80.375000
-22.391299, -8.061364, 80.500000
-22.253081, -8.011602, 80.625000
-22.253081, -8.011602, 80.750000
-22.253081, -8.011602, 80.875000
-22.253081, -8.011602, 81.000000
-22.391299, -8.061364, 81.125000
-4.097599, -1.622354, 23.625000
-4.097599, -1.622354, 23.750000
-4.097599, -1.622354, 23.875000
-3.961013, -1.568276, 24.000000
-4.097599, -1.622354, 24.125000
-4.097599, -1.622354, 24.250000
-3.961013, -1.568276, 24.375000
-3.961013, -1.568276, 24.500000
-3.961013, -1.568276, 24.625000
-4.097599, -1.622354, 24.750000
-4.097599, -1.622354, 24.875000
-4.097599, -1.622354, 25.000000
-4.097599, -1.622354, 25.125000
-4.234186, -1.676433, 25.250000
-4.097599, -1.622354, 25.375000
-4.097599, -1.622354, 25.500000
-4.234186, -1.676433, 25.625000
-4.234186, -1.676433, 25.750000
-4.234186, -1.676433, 25.875000
-4.234186, -1.676433, 26.000000
-4.234186, -1.676433, 26.125000
-4.234186, -1.676433, 26.250000
-4.234186, -1.676433, 26.375000
-4.234186, -1.676433, 26.500000
-4.370773, -1.730511, 26.625000
-4.507359, -1.784590, 26.750000
-4.507359, -1.784590, 26.875000
-4.370773, -1.730511, 27.000000
-4.507359, -1.784590, 27.125000
-4.507359, -1.784590, 27.250000
-4.507359, -1.784590, 27.375000
-4.507359, -1.784590, 27.500000
-4.643946, -1.838668, 27.625000
-4.643946, -1.838668, 27.750000
-4.643946, -1.838668, 27.875000
-4.780533, -1.892747, 28.000000
-4.780533, -1.892747, 28.125000
-4.780533, -1.892747, 28.250000
-4.780533, -1.892747, 28.375000
-4.780533, -1.892747, 28.500000
-4.917119, -1.946825, 28.625000
-4.917119, -1.946825, 28.750000
-4.917119, -1.946825, 28.875000
-5.053706, -2.000904, 29.000000
-5.053706, -2.000904, 29.125000
-5.053706, -2.000904, 29.250000
-5.053706, -2.000904, 29.375000
-5.053706, -2.000904, 29.500000
-5.190293, -2.054982, 29.625000
-5.190293, -2.054982, 29.750000
-5.190293, -2.054982, 29.875000
-5.190293, -2.054982, 30.000000
-5.326879, -2.109061, 30.125000
-5.326879, -2.109061, 30.250000
-5.463466, -2.163139, 30.375000
-5.463466, -2.163139, 30.500000
-5.463466, -2.163139, 30.625000
-5.600053, -2.217218, 30.750000
-5.463466, -2.163139, 30.875000
-5.463466, -2.163139, 31.000000
-5.600053, -2.217218, 31.125000
-5.600053, -2.217218, 31.250000
-5.736639, -2.271296, 31.375000
-5.736639, -2.271296, 31.500000
-5.873226, -2.325375, 31.625000
-6.009813, -2.379453, 31.750000
-5.873226, -2.325375, 31.875000
-5.873226, -2.325375, 32.000000
-6.009813, -2.379453, 32.125000
-6.009813, -2.379453, 32.250000
-6.009813, -2.379453, 32.375000
-6.009813, -2.379453, 32.500000
-6.146399, -2.433532, 32.625000
-6.282986, -2.487610, 32.750000
-6.282986, -2.487610, 32.875000
-6.282986, -2.487610, 33.000000
-6.282986, -2.487610, 33.125000
-6.282986, -2.487610, 33.250000
-6.419572, -2.541689, 33.375000
-6.419572, -2.541689, 33.500000
-6.419572, -2.541689, 33.625000
-6.556159, -2.595767, 33.750000
-6.556159, -2.595767, 33.875000
-6.556159, -2.595767, 34.000000
-6.692746, -2.649846, 34.125000
-6.692746, -2.649846, 34.250000
-6.692746, -2.649846, 34.375000
-6.692746, -2.649846, 34.500000
-6.965919, -2.758002, 34.625000
-6.829332, -2.703924, 34.750000
-6.829332, -2.703924, 34.875000
-6.829332, -2.703924, 35.000000
-6.965919, -2.758002, 35.125000
-6.965919, -2.758002, 35.250000
-7.102506, -2.812081, 35.375000
-7.102506, -2.812081, 35.500000
-7.102506, -2.812081, 35.625000
-7.375679, -2.920238, 35.750000
-7.239092, -2.866159, 35.875000
-7.239092, -2.866159, 36.000000
-7.239092, -2.866159, 36.125000
-7.239092, -2.866159, 36.250000
-7.375679, -2.920238, 36.375000
-7.375679, -2.920238, 36.500000
-7.375679, -2.920238, 36.625000
-7.512266, -2.974316, 36.750000
-7.512266, -2.974316, 36.875000
-7.512266, -2.974316, 37.000000
-7.648852, -3.028395, 37.125000
-7.648852, -3.028395, 37.250000
-7.648852, -3.028395, 37.375000
-7.785439, -3.082473, 37.500000
-7.648852, -3.028395, 37.625000
-7.785439, -3.082473, 37.750000
-7.785439, -3.082473, 37.875000
-7.922026, -3.136552, 38.000000
-7.922026, -3.136552, 38.125000
-7.922026, -3.136552, 38.250000
-8.058612, -3.190630, 38.375000
-8.058612, -3.190630, 38.500000
-8.058612, -3.190630, 38.625000
-8.195199, -3.244709, 38.750000
-8.195199, -3.244709, 38.875000
-8.195199, -3.244709, 39.000000
-8.195199, -3.244709, 39.125000
-8.331786, -3.298787, 39.250000
-8.331786, -3.298787, 39.375000
-8.468372, -3.352866, 39.500000
-8.468372, -3.352866, 39.625000
-8.604959, -3.406944, 39.750000
-8.468372, -3.352866, 39.875000
-8.604959, -3.406944, 40.000000
-8.604959, -3.406944, 40.125000
-8.604959, -3.406944, 40.250000
-8.741546, -3.461023, 40.375000
-8.741546, -3.461023, 40.500000
-8.741546, -3.461023, 40.625000
-8.878132, -3.515101, 40.750000
-8.878132, -3.515101, 40.875000
-8.878132, -3.515101, 41.000000
-9.014719, -3.569180, 41.125000
-9.014719, -3.569180, 41.250000
-9.151305, -3.623258, 41.375000
-9.014719, -3.569180, 41.500000
-9.151305, -3.623258, 41.625000
-9.287892, -3.677337, 41.750000
-9.151305, -3.623258, 41.875000
-9.287892, -3.677337, 42.000000
-9.424479, -3.731415, 42.125000
-9.287892, -3.677337, 42.250000
-9.424479, -3.731415, 42.375000
-9.424479, -3.731415, 42.500000
-9.561065, -3.785494, 42.625000
-9.561065, -3.785494, 42.750000
-9.561065, -3.785494, 42.875000
-9.697652, -3.839572, 43.000000
-9.561065, -3.785494, 43.125000
-9.561065, -3.785494, 43.250000
-9.697652, -3.839572, 43.375000
-9.697652, -3.839572, 43.500000
-9.834239, -3.893651, 43.625000
-9.834239, -3.893651, 43.750000
-9.834239, -3.893651, 43.875000
-9.970825, -3.947729, 44.000000
-9.970825, -3.947729, 44.125000
-10.107412, -4.001808, 44.250000
-10.107412, -4.001808, 44.375000
-10.107412, -4.001808, 44.500000
-10.107412, -4.001808, 44.625000
-10.243999, -4.055886, 44.750000
-10.243999, -4.055886, 44.875000
-10.243999, -4.055886, 45.000000
-10.243999, -4.055886, 45.125000
-10.380585, -4.109964, 45.250000
-10.380585, -4.109964, 45.375000
-10.517172, -4.164043, 45.500000
-10.517172, -4.164043, 45.625000
-10.517172, -4.164043, 45.750000
-10.517172, -4.164043, 45.875000
-10.653759, -4.218121, 46.000000
-10.653759, -4.218121, 46.125000
-10.653759, -4.218121, 46.250000
-10.653759, -4.218121, 46.375000
-10.653759, -4.218121, 46.500000
-10.653759, -4.218121, 46.625000
-10.790345, -4.272200, 46.750000
-10.926932, -4.326278, 46.875000
-10.926932, -4.326278, 47.000000
-10.926932, -4.326278, 47.125000
-11.063519, -4.380357, 47.250000
-11.063519, -4.380357, 47.375000
-10.926932, -4.326278, 47.500000
-11.063519, -4.380357, 47.625000
-11.200105, -4.434435, 47.750000
-11.200105, -4.434435, 47.875000
-11.200105, -4.434435, 48.000000
-11.200105, -4.434435, 48.125000
-11.200105, -4.434435, 48.250000
-11.336692, -4.488514, 48.375000
-11.336692, -4.488514, 48.500000
-11.336692, -4.488514, 48.625000
-11.336692, -4.488514, 48.750000
-11.473278, -4.542592, 48.875000
-11.473278, -4.542592, 49.000000
-11.473278, -4.542592, 49.125000
-11.609865, -4.596671, 49.250000
-11.609865, -4.596671, 49.375000
-11.746452, -4.650749, 49.500000
-11.746452, -4.650749, 49.625000
-11.883038, -4.704828, 49.750000
-11.883038, -4.704828, 49.875000
-11.883038, -4.704828, 50.000000
-12.019625, -4.758906, 50.125000
-11.883038, -4.704828, 50.250000
-11.883038, -4.704828, 50.375000
-12.019625, -4.758906, 50.500000
-12.019625, -4.758906, 50.625000
-12.156212, -4.812985, 50.750000
-12.156212, -4.812985, 50.875000
-12.292798, -4.867063, 51.000000
-12.292798, -4.867063, 51.125000
-12.292798, -4.867063, 51.250000
-12.429385, -4.921142, 51.375000
-12.429385, -4.921142, 51.500000
-12.429385, -4.921142, 51.625000
-12.429385, -4.921142, 51.750000
-12.429385, -4.921142, 51.875000
-12.565972, -4.975220, 52.000000
-12.429385, -4.921142, 52.125000
-12.702558, -5.029299, 52.250000
-12.839145, -5.083377, 52.375000
-12.702558, -5.029299, 52.500000
-12.839145, -5.083377, 52.625000
-12.975732, -5.137456, 52.750000
-12.839145, -5.083377, 52.875000
-12.975732, -5.137456, 53.000000
-12.975732, -5.137456, 53.125000
-12.975732, -5.137456, 53.250000
-12.975732, -5.137456, 53.375000
-12.975732, -5.137456, 53.500000
-13.112318, -5.191534, 53.625000
-13.112318, -5.191534, 53.750000
-13.112318, -5.191534, 53.875000
-13.112318, -5.191534, 54.000000
-13.248905, -5.245613, 54.125000
-13.248905, -5.245613, 54.250000
-13.248905, -5.245613, 54.375000
-13.385492, -5.299691, 54.500000
-13.522078, -5.353770, 54.625000
-13.522078, -5.353770, 54.750000
-13.522078, -5.353770, 54.875000
-13.522078, -5.353770, 55.000000
-13.658665, -5.407848, 55.125000
-13.522078, -5.353770, 55.250000
-13.795252, -5.461926, 55.375000
-13.658665, -5.407848, 55.500000
-13.658665, -5.407848, 55.625000
-13.658665, -5.407848, 55.750000
-13.795252, -5.461926, 55.875000
-13.795252, -5.461926, 56.000000
-13.931838, -5.516005, 56.125000
-13.931838, -5.516005, 56.250000
-13.931838, -5.516005, 56.375000
-14.068425, -5.570083, 56.500000
-14.068425, -5.570083, 56.625000
-14.068425, -5.570083, 56.750000
-14.205011, -5.624162, 56.875000
-14.341598, -5.678240, 57.000000
-14.205011, -5.624162, 57.125000
-14.341598, -5.678240, 57.250000
-14.205011, -5.624162, 57.375000
-14.205011, -5.624162, 57.500000
-14.341598, -5.678240, 57.625000
-14.341598, -5.678240, 57.750000
-14.478185, -5.732319, 57.875000
-14.341598, -5.678240, 58.000000
-14.614771, -5.786397, 58.125000
-14.478185, -5.732319, 58.250000
-14.614771, -5.786397, 58.375000
-14.751358, -5.840476, 58.500000
-14.614771, -5.786397, 58.625000
-14.614771, -5.786397, 58.750000
-14.751358, -5.840476, 58.875000
-14.887945, -5.894554, 59.000000
-14.887945, -5.894554, 59.125000
-14.887945, -5.894554, 59.250000
-14.887945, -5.894554, 59.375000
-14.887945, -5.894554, 59.500000
-15.024531, -5.948633, 59.625000
-15.024531, -5.948633, 59.750000
-15.161118, -6.002711, 59.875000
-15.297705, -6.056790, 60.000000
-15.161118, -6.002711, 60.125000
-15.161118, -6.002711, 60.250000
-15.161118, -6.002711, 60.375000
-15.297705, -6.056790, 60.500000
-15.297705, -6.056790, 60.625000
-15.297705, -6.056790, 60.750000
-15.297705, -6.056790, 60.875000
-15.434291, -6.110868, 61.000000
-15.434291, -6.110868, 61.125000
-15.570878, -6.164947, 61.250000
-15.570878, -6.164947, 61.375000
-15.570878, -6.164947, 61.500000
-15.844051, -6.273104, 61.625000
-15.707465, -6.219025, 61.750000
-15.707465, -6.219025, 61.875000
-15.844051, -6.273104, 62.000000
-15.844051, -6.273104, 62.125000
-15.844051, -6.273104, 62.250000
-15.980638, -6.327182, 62.375000
-15.980638, -6.327182, 62.500000
-15.980638, -6.327182, 62.625000
-15.980638, -6.327182, 62.750000
-16.253811, -6.435339, 62.875000
-16.117225, -6.381261, 63.000000
-16.117225, -6.381261, 63.125000
-16.117225, -6.381261, 63.250000
-16.253811, -6.435339, 63.375000
-16.253811, -6.435339, 63.500000
-16.253811, -6.435339, 63.625000
-16.253811, -6.435339, 63.750000
-16.390398, -6.489418, 63.875000
-16.526984, -6.543496, 64.000000
-16.526984, -6.543496, 64.125000
-16.526984, -6.543496, 64.250000
-16.526984, -6.543496, 64.375000
-16.663571, -6.597575, 64.500000
-16.663571, -6.597575, 64.625000
-16.663571, -6.597575, 64.750000
-16.663571, -6.597575, 64.875000
-16.936744, -6.705731, 65.000000
-16.936744, -6.705731, 65.125000
-16.936744, -6.705731, 65.250000
-16.936744, -6.705731, 65.375000
-16.936744, -6.705731, 65.500000
-17.073331, -6.759810, 65.625000
-17.073331, -6.759810, 65.750000
-17.073331, -6.759810, 65.875000
-17.073331, -6.759810, 66.000000
-17.209918, -6.813888, 66.125000
-17.209918, -6.813888, 66.250000
-17.209918, -6.813888, 66.375000
-17.209918, -6.813888, 66.500000
-17.346504, -6.867967, 66.625000
-17.346504, -6.867967, 66.750000
-17.346504, -6.867967, 66.875000
-17.483091, -6.922045, 67.000000
-17.483091, -6.922045, 67.125000
-17.483091, -6.922045, 67.250000
-17.483091, -6.922045, 67.375000
-17.756264, -7.030202, 67.500000
-17.619678, -6.976124, 67.625000
-17.619678, -6.976124, 67.750000
-17.756264, -7.030202, 67.875000
-17.756264, -7.030202, 68.000000
-17.892851, -7.084281, 68.125000
-17.892851, -7.084281, 68.250000
-18.029438, -7.138359, 68.375000
-17.892851, -7.084281, 68.500000
-18.029438, -7.138359, 68.625000
-18.166024, -7.192438, 68.750000
-18.029438, -7.138359, 68.875000
-18.166024, -7.192438, 69.000000
-18.302611, -7.246516, 69.125000
-18.302611, -7.246516, 69.250000
-18.166024, -7.192438, 69.375000
-18.439198, -7.300595, 69.500000
-18.302611, -7.246516, 69.625000
-18.302611, -7.246516, 69.750000
-18.439198, -7.300595, 69.875000
-18.439198, -7.300595, 70.000000
-18.439198, -7.300595, 70.125000
-18.575784, -7.354673, 70.250000
-18.575784, -7.354673, 70.375000
-18.575784, -7.354673, 70.500000
-18.712371, -7.408752, 70.625000
-18.712371, -7.408752, 70.750000
-18.712371, -7.408752, 70.875000
-18.712371, -7.408752, 71.000000
-18.848958, -7.462830, 71.125000
-18.848958, -7.462830, 71.250000
-18.848958, -7.462830, 71.375000
-18.985544, -7.516909, 71.500000
-19.122131, -7.570987, 71.625000
-19.122131, -7.570987, 71.750000
-19.122131, -7.570987, 71.875000
-19.258717, -7.625066, 72.000000
-19.122131, -7.570987, 72.125000
-19.122131, -7.570987, 72.250000
-19.258717, -7.625066, 72.375000
-19.395304, -7.679144, 72.500000
-19.395304, -7.679144, 72.625000
-19.258717, -7.625066, 72.750000
-19.395304, -7.679144, 72.875000
-19.531891, -7.733223, 73.000000
-19.531891, -7.733223, 73.125000
-19.668477, -7.787301, 73.250000
-19.668477, -7.787301, 73.375000
-19.668477, -7.787301, 73.500000
-19.668477, -7.787301, 73.625000
-19.805064, -7.841380, 73.750000
-19.941651, -7.895458, 73.875000
-19.941651, -7.895458, 74.000000
-19.805064, -7.841380, 74.125000
-20.078237, -7.949537, 74.250000
-20.078237, -7.949537, 74.375000
-19.941651, -7.895458, 74.500000
-20.078237, -7.949537, 74.625000
-20.214824, -8.003615, 74.750000
-20.078237, -7.949537, 74.875000
-20.214824, -8.003615, 75.000000
-20.214824, -8.003615, 75.125000
-20.214824, -8.003615, 75.250000
-20.214824, -8.003615, 75.375000
-20.351411, -8.057693, 75.500000
-20.351411, -8.057693, 75.625000
-20.487997, -8.111772, 75.750000
-20.624584, -8.165850, 75.875000
-20.624584, -8.165850, 76.000000
-20.624584, -8.165850, 76.125000
-20.624584, -8.165850, 76.250000
-20.624584, -8.165850, 76.375000
-20.761171, -8.219929, 76.500000
-20.761171, -8.219929, 76.625000
-20.761171, -8.219929, 76.750000
-20.897757, -8.274007, 76.875000
-20.897757, -8.274007, 77.000000
-20.897757, -8.274007, 77.125000
-21.034344, -8.328086, 77.250000
-21.034344, -8.328086, 77.375000
-21.170931, -8.382164, 77.500000
-21.170931, -8.382164, 77.625000
-21.170931, -8.382164, 77.750000
-21.307517, -8.436243, 77.875000
-21.307517, -8.436243, 78.000000
-21.307517, -8.436243, 78.125000
-21.444104, -8.490321, 78.250000
-21.444104, -8.490321, 78.375000
-21.580690, -8.544400, 78.500000
-21.580690, -8.544400, 78.625000
-21.717277, -8.598478, 78.750000
-21.717277, -8.598478, 78.875000
-21.580690, -8.544400, 79.000000
-21.717277, -8.598478, 79.125000
-21.717277, -8.598478, 79.250000
-21.853864, -8.652557, 79.375000
-21.853864, -8.652557, 79.500000
-21.990450, -8.706635, 79.625000
-21.853864, -8.652557, 79.750000
-21.990450, -8.706635, 79.875000
-21.990450, -8.706635, 80.000000
-22.127037, -8.760714, 80.125000
-22.127037, -8.760714, 80.250000
-21.990450, -8.706635, 80.375000
-21.990450, -8.706635, 80.500000
-21.990450, -8.706635, 80.625000
-21.990450, -8.706635, 80.750000
-22.127037, -8.760714, 80.875000
-22.127037, -8.760714, 81.000000
-21.990450, -8.706635, 81.125000
-22.127037, -8.760714, 81.250000
-3.774977, -1.633578, 23.125000
-3.774977, -1.633578, 23.250000
-3.774977, -1.633578, 23.375000
-3.640156, -1.575236, 23.500000
-3.774977, -1.633578, 23.625000
-3.774977, -1.633578, 23.750000
-3.774977, -1.633578, 23.875000
-3.909798, -1.691920, 24.000000
-3.774977, -1.633578, 24.125000
-3.640156, -1.575236, 24.250000
-3.909798, -1.691920, 24.375000
-3.909798, -1.691920, 24.500000
-3.909798, -1.691920, 24.625000
-3.909798, -1.691920, 24.750000
-3.909798, -1.691920, 24.875000
-3.909798, -1.691920, 25.000000
-3.909798, -1.691920, 25.125000
-3.909798, -1.691920, 25.250000
-3.909798, -1.691920, 25.375000
-3.909798, -1.691920, 25.500000
-3.909798, -1.691920, 25.625000
-4.044618, -1.750263, 25.750000
-4.044618, -1.750263, 25.875000
-4.044618, -1.750263, 26.000000
-4.179439, -1.808605, 26.125000
-4.314259, -1.866947, 26.250000
-4.179439, -1.808605, 26.375000
-4.179439, -1.808605, 26.500000
-4.314259, -1.866947, 26.625000
-4.314259, -1.866947, 26.750000
-4.449080, -1.925289, 26.875000
-4.314259, -1.866947, 27.000000
-4.449080, -1.925289, 27.125000
-4.449080, -1.925289, 27.250000
-4.583901, -1.983631, 27.375000
-4.449080, -1.925289, 27.500000
-4.583901, -1.983631, 27.625000
-4.583901, -1.983631, 27.750000
-4.718721, -2.041973, 27.875000
-4.718721, -2.041973, 28.000000
-4.718721, -2.041973, 28.125000
-4.718721, -2.041973, 28.250000
-4.718721, -2.041973, 28.375000
-4.853542, -2.100315, 28.500000
-4.988362, -2.158657, 28.625000
-4.853542, -2.100315, 28.750000
-4.853542, -2.100315, 28.875000
-4.988362, -2.158657, 29.000000
-4.988362, -2.158657, 29.125000
-4.988362, -2.158657, 29.250000
-4.988362, -2.158657, 29.375000
-5.123183, -2.216999, 29.500000
-5.123183, -2.216999, 29.625000
-5.123183, -2.216999, 29.750000
-5.258004, -2.275341, 29.875000
-5.123183, -2.216999, 30.000000
-5.258004, -2.275341, 30.125000
-5.392824, -2.333683, 30.250000
-5.392824, -2.333683, 30.375000
-5.392824, -2.333683, 30.500000
-5.392824, -2.333683, 30.625000
-5.527645, -2.392026, 30.750000
-5.527645, -2.392026, 30.875000
-5.662465, -2.450368, 31.000000
-5.662465, -2.450368, 31.125000
-5.662465, -2.450368, 31.250000
-5.662465, -2.450368, 31.375000
-5.797286, -2.508710, 31.500000
-5.797286, -2.508710, 31.625000
-5.797286, -2.508710, 31.750000
-5.797286, -2.508710, 31.875000
-5.932107, -2.567052, 32.000000
-5.932107, -2.567052, 32.125000
-5.932107, -2.567052, 32.250000
-6.066927, -2.625394, 32.375000
-6.066927, -2.625394, 32.500000
-6.066927, -2.625394, 32.625000
-6.336568, -2.742078, 32.750000
-6.201748, -2.683736, 32.875000
-6.201748, -2.683736, 33.000000
-6.201748, -2.683736, 33.125000
-6.201748, -2.683736, 33.250000
-6.336568, -2.742078, 33.375000
-6.471389, -2.800420, 33.500000
-6.336568, -2.742078, 33.625000
-6.471389, -2.800420, 33.750000
-6.471389, -2.800420, 33.875000
-6.606210, -2.858762, 34.000000
-6.606210, -2.858762, 34.125000
-6.741030, -2.917104, 34.250000
-6.741030, -2.917104, 34.375000
-6.741030, -2.917104, 34.500000
-6.741030, -2.917104, 34.625000
-6.875851, -2.975446, 34.750000
-6.875851, -2.975446, 34.875000
-6.875851, -2.975446, 35.000000
-7.010671, -3.033788, 35.125000
-7.145492, -3.092131, 35.250000
-7.010671, -3.033788, 35.375000
-7.010671, -3.033788, 35.500000
-7.145492, -3.092131, 35.625000
-7.145492, -3.092131, 35.750000
-7.145492, -3.092131, 35.875000
-7.280313, -3.150473, 36.000000
-7.145492, -3.092131, 36.125000
-7.280313, -3.150473, 36.250000
-7.280313, -3.150473, 36.375000
-7.549954, -3.267157, 36.500000
-7.415133, -3.208815, 36.625000
-7.415133, -3.208815, 36.750000
-7.549954, -3.267157, 36.875000
-7.549954, -3.267157, 37.000000
-7.549954, -3.267157, 37.125000
-7.684775, -3.325499, 37.250000
-7.684775, -3.325499, 37.375000
-7.684775, -3.325499, 37.500000
-7.684775, -3.325499, 37.625000
-7.819595, -3.383841, 37.750000
-7.819595, -3.383841, 37.875000
-7.954416, -3.442183, 38.000000
-7.954416, -3.442183, 38.125000
-7.954416, -3.442183, 38.250000
-8.089236, -3.500525, 38.375000
-7.954416, -3.442183, 38.500000
-7.954416, -3.442183, 38.625000
-8.089236, -3.500525, 38.750000
-8.089236, -3.500525, 38.875000
-8.224057, -3.558867, 39.000000
-8.224057, -3.558867, 39.125000
-8.224057, -3.558867, 39.250000
-8.358878, -3.617209, 39.375000
-8.358878, -3.617209, 39.500000
-8.358878, -3.617209, 39.625000
-8.493698, -3.675551, 39.750000
-8.628519, -3.733893, 39.875000
-8.628519, -3.733893, 40.000000
-8.628519, -3.733893, 40.125000
-8.628519, -3.733893, 40.250000
-8.763339, -3.792236, 40.375000
-8.763339, -3.792236, 40.500000
-8.763339, -3.792236, 40.625000
-8.763339, -3.792236, 40.750000
-8.898160, -3.850578, 40.875000
-8.898160, -3.850578, 41.000000
-8.898160, -3.850578, 41.125000
-8.898160, -3.850578, 41.250000
-9.032981, -3.908920, 41.375000
-9.167801, -3.967262, 41.500000
-9.167801, -3.967262, 41.625000
-9.167801, -3.967262, 41.750000
-9.302622, -4.025604, 41.875000
-9.302622, -4.025604, 42.000000
-9.302622, -4.025604, 42.125000
-9.302622, -4.025604, 42.250000
-9.302622, -4.025604, 42.375000
-9.437442, -4.083946, 42.500000
-9.437442, -4.083946, 42.625000
-9.437442, -4.083946, 42.750000
-9.437442, -4.083946, 42.875000
-9.572263, -4.142288, 43.000000
-9.572263, -4.142288, 43.125000
-9.707084, -4.200630, 43.250000
-9.707084, -4.200630, 43.375000
-9.707084, -4.200630, 43.500000
-9.841904, -4.258972, 43.625000
-9.841904, -4.258972, 43.750000
-9.841904, -4.258972, 43.875000
-9.841904, -4.258972, 44.000000
-9.976725, -4.317314, 44.125000
-9.976725, -4.317314, 44.250000
-10.111545, -4.375656, 44.375000
-10.111545, -4.375656, 44.500000
-10.246366, -4.433999, 44.625000
-10.111545, -4.375656, 44.750000
-10.246366, -4.433999, 44.875000
-10.381187, -4.492341, 45.000000
-10.381187, -4.492341, 45.125000
-10.381187, -4.492341, 45.250000
-10.381187, -4.492341, 45.375000
-10.381187, -4.492341, 45.500000
-10.381187, -4.492341, 45.625000
-10.381187, -4.492341, 45.750000
-10.516007, -4.550683, 45.875000
-10.650828, -4.609025, 46.000000
-10.650828, -4.609025, 46.125000
-10.650828, -4.609025, 46.250000
-10.650828, -4.609025, 46.375000
-10.785648, -4.667367, 46.500000
-10.785648, -4.667367, 46.625000
-10.785648, -4.667367, 46.750000
-10.785648, -4.667367, 46.875000
-10.920469, -4.725709, 47.000000
-10.785648, -4.667367, 47.125000
-10.920469, -4.725709, 47.250000
-11.055290, -4.784051, 47.375000
-11.055290, -4.784051, 47.500000
-11.055290, -4.784051, 47.625000
-11.190110, -4.842393, 47.750000
-11.190110, -4.842393, 47.875000
-11.190110, -4.842393, 48.000000
-11.190110, -4.842393, 48.125000
-11.324931, -4.900735, 48.250000
-11.324931, -4.900735, 48.375000
-11.324931, -4.900735, 48.500000
-11.324931, -4.900735, 48.625000
-11.459751, -4.959077, 48.750000
-11.459751, -4.959077, 48.875000
-11.594572, -5.017419, 49.000000
-11.594572, -5.017419, 49.125000
-11.594572, -5.017419, 49.250000
-11.594572, -5.017419, 49.375000
-11.729393, -5.075761, 49.500000
-11.729393, -5.075761, 49.625000
-11.729393, -5.075761, 49.750000
-11.729393, -5.075761, 49.875000
-11.729393, -5.075761, 50.000000
-11.864213, -5.134104, 50.125000
-11.999034, -5.192446, 50.250000
-11.999034, -5.192446, 50.375000
-11.999034, -5.192446, 50.500000
-12.133854, -5.250788, 50.625000
-12.133854, -5.250788, 50.750000
-12.133854, -5.250788, 50.875000
-12.268675, -5.309130, 51.000000
-12.268675, -5.309130, 51.125000
-12.268675, -5.309130, 51.250000
-12.268675, -5.309130, 51.375000
-12.403496, -5.367472, 51.500000
-12.403496, -5.367472, 51.625000
-12.538316, -5.425814, 51.750000
-12.538316, -5.425814, 51.875000
-12.538316, -5.425814, 52.000000
-12.673137, -5.484156, 52.125000
-12.673137, -5.484156, 52.250000
-12.673137, -5.484156, 52.375000
-12.673137, -5.484156, 52.500000
-12.807958, -5.542498, 52.625000
-12.807958, -5.542498, 52.750000
-12.807958, -5.542498, 52.875000
-12.807958, -5.542498, 53.000000
-12.942778, -5.600840, 53.125000
-12.942778, -5.600840, 53.250000
-12.942778, -5.600840, 53.375000
-13.077599, -5.659182, 53.500000
-13.077599, -5.659182, 53.625000
-13.212419, -5.717524, 53.750000
-13.212419, -5.717524, 53.875000
-13.212419, -5.717524, 54.000000
-13.212419, -5.717524, 54.125000
-13.347240, -5.775866, 54.250000
-13.347240, -5.775866, 54.375000
-13.347240, -5.775866, 54.500000
-13.347240, -5.775866, 54.625000
-13.482061, -5.834209, 54.750000
-13.482061, -5.834209, 54.875000
-13.482061, -5.834209, 55.000000
-13.482061, -5.834209, 55.125000
-13.616881, -5.892551, 55.250000
-13.751702, -5.950893, 55.375000
-13.751702, -5.950893, 55.500000
-13.751702, -5.950893, 55.625000
-13.751702, -5.950893, 55.750000
-13.886522, -6.009235, 55.875000
-13.886522, -6.009235, 56.000000
-13.886522, -6.009235, 56.125000
-14.021343, -6.067577, 56.250000
-14.021343, -6.067577, 56.375000
-14.021343, -6.067577, 56.500000
-14.156164, -6.125919, 56.625000
-14.156164, -6.125919, 56.750000
-14.156164, -6.125919, 56.875000
-14.290984, -6.184261, 57.000000
-14.290984, -6.184261, 57.125000
-14.290984, -6.184261, 57.250000
-14.425805, -6.242603, 57.375000
-14.290984, -6.184261, 57.500000
-14.290984, -6.184261, 57.625000
-14.425805, -6.242603, 57.750000
-14.425805, -6.242603, 57.875000
-14.425805, -6.242603, 58.000000
-14.560625, -6.300945, 58.125000
-14.695446, -6.359287, 58.250000
-14.695446, -6.359287, 58.375000
-14.695446, -6.359287, 58.500000
-14.830267, -6.417629, 58.625000
-14.695446, -6.359287, 58.750000
-14.830267, -6.417629, 58.875000
-14.830267, -6.417629, 59.000000
-14.965087, -6.475972, 59.125000
-14.965087, -6.475972, 59.250000
-14.965087, -6.475972, 59.375000
-14.965087, -6.475972, 59.500000
-14.965087, -6.475972, 59.625000
-15.099908, -6.534314, 59.750000
-15.234728, -6.592656, 59.875000
-15.234728, -6.592656, 60.000000
-15.234728, -6.592656, 60.125000
-15.234728, -6.592656, 60.250000
-15.234728, -6.592656, 60.375000
-15.504370, -6.709340, 60.500000
-15.369549, -6.650998, 60.625000
-15.504370, -6.709340, 60.750000
-15.504370, -6.709340, 60.875000
-15.504370, -6.709340, 61.000000
-15.639190, -6.767682, 61.125000
-15.639190, -6.767682, 61.250000
-15.639190, -6.767682, 61.375000
-15.639190, -6.767682, 61.500000
-15.774011, -6.826024, 61.625000
-15.774011, -6.826024, 61.750000
-15.774011, -6.826024, 61.875000
-15.908831, -6.884366, 62.000000
-15.908831, -6.884366, 62.125000
-15.908831, -6.884366, 62.250000
-16.043652, -6.942708, 62.375000
-16.043652, -6.942708, 62.500000
-16.043652, -6.942708, 62.625000
-16.043652, -6.942708, 62.750000
-16.178473, -7.001050, 62.875000
-16.178473, -7.001050, 63.000000
-16.313293, -7.059392, 63.125000
-16.313293, -7.059392, 63.250000
-16.313293, -7.059392, 63.375000
-16.313293, -7.059392, 63.500000
-16.313293, -7.059392, 63.625000
-16.448114, -7.117734, 63.750000
-16.582934, -7.176077, 63.875000
-16.582934, -7.176077, 64.000000
-16.582934, -7.176077, 64.125000
-16.582934, -7.176077, 64.250000
-16.582934, -7.176077, 64.375000
-16.717755, -7.234419, 64.500000
-16.717755, -7.234419, 64.625000
-16.852576, -7.292761, 64.750000
-16.852576, -7.292761, 64.875000
-16.852576, -7.292761, 65.000000
-16.852576, -7.292761, 65.125000
-16.852576, -7.292761, 65.250000
-16.987396, -7.351103, 65.375000
-16.987396, -7.351103, 65.500000
-17.122217, -7.409445, 65.625000
-17.122217, -7.409445, 65.750000
-17.122217, -7.409445, 65.875000
-17.122217, -7.409445, 66.000000
-17.257037, -7.467787, 66.125000
-17.257037, -7.467787, 66.250000
-17.257037, -7.467787, 66.375000
-17.391858, -7.526129, 66.500000
-17.391858, -7.526129, 66.625000
-17.391858, -7.526129, 66.750000
-17.526679, -7.584471, 66.875000
-17.526679, -7.584471, 67.000000
-17.526679, -7.584471, 67.125000
-17.526679, -7.584471, 67.250000
-17.661499, -7.642813, 67.375000
-17.661499, -7.642813, 67.500000
-17.796320, -7.701155, 67.625000
-17.796320, -7.701155, 67.750000
-17.796320, -7.701155, 67.875000
-17.796320, -7.701155, 68.000000
-17.931141, -7.759497, 68.125000
-17.931141, -7.759497, 68.250000
-17.931141, -7.759497, 68.375000
-18.065961, -7.817839, 68.500000
-18.065961, -7.817839, 68.625000
-18.335602, -7.934524, 68.750000
-18.200782, -7.876182, 68.875000
-18.065961, -7.817839, 69.000000
-18.200782, -7.876182, 69.125000
-18.335602, -7.934524, 69.250000
-18.335602, -7.934524, 69.375000
-18.470423, -7.992866, 69.500000
-18.335602, -7.934524, 69.625000
-18.470423, -7.992866, 69.750000
-18.470423, -7.992866, 69.875000
-18.470423, -7.992866, 70.000000
-18.470423, -7.992866, 70.125000
-18.605244, -8.051208, 70.250000
-18.605244, -8.051208, 70.375000
-18.740064, -8.109550, 70.500000
-18.740064, -8.109550, 70.625000
-18.740064, -8.109550, 70.750000
-18.740064, -8.109550, 70.875000
-18.874885, -8.167892, 71.000000
-18.874885, -8.167892, 71.125000
-18.874885, -8.167892, 71.250000
-18.874885, -8.167892, 71.375000
-19.009705, -8.226234, 71.500000
-19.144526, -8.284576, 71.625000
-19.144526, -8.284576, 71.750000
-19.144526, -8.284576, 71.875000
-19.144526, -8.284576, 72.000000
-19.144526, -8.284576, 72.125000
-19.279347, -8.342918, 72.250000
-19.279347, -8.342918, 72.375000
-19.548988, -8.459602, 72.500000
-19.414167, -8.401260, 72.625000
-19.414167, -8.401260, 72.750000
-19.548988, -8.459602, 72.875000
-19.548988, -8.459602, 73.000000
-19.683808, -8.517945, 73.125000
-19.683808, -8.517945, 73.250000
-19.818629, -8.576287, 73.375000
-19.818629, -8.576287, 73.500000
-19.818629, -8.576287, 73.625000
-19.818629, -8.576287, 73.750000
-19.953450, -8.634629, 73.875000
-19.818629, -8.576287, 74.000000
-20.088270, -8.692971, 74.125000
-19.953450, -8.634629, 74.250000
-20.088270, -8.692971, 74.375000
-20.223091, -8.751313, 74.500000
-20.223091, -8.751313, 74.625000
-20.088270, -8.692971, 74.750000
-20.223091, -8.751313, 74.875000
-20.357911, -8.809655, 75.000000
-20.357911, -8.809655, 75.125000
-20.357911, -8.809655, 75.250000
-20.357911, -8.809655, 75.375000
-20.357911, -8.809655, 75.500000
-20.492732, -8.867997, 75.625000
-20.492732, -8.867997, 75.750000
-20.492732, -8.867997, 75.875000
-20.762373, -8.984681, 76.000000
-20.762373, -8.984681, 76.125000
-20.762373, -8.984681, 76.250000
-20.762373, -8.984681, 76.375000
-20.897194, -9.043023, 76.500000
-21.032014, -9.101365, 76.625000
-20.897194, -9.043023, 76.750000
-21.032014, -9.101365, 76.875000
-21.032014, -9.101365, 77.000000
-21.166835, -9.159707, 77.125000
-21.166835, -9.159707, 77.250000
-21.166835, -9.159707, 77.375000
-21.166835, -9.159707, 77.500000
-21.301656, -9.218050, 77.625000
-21.166835, -9.159707, 77.750000
-21.301656, -9.218050, 77.875000
-21.436476, -9.276392, 78.000000
-21.436476, -9.276392, 78.125000
-21.436476, -9.276392, 78.250000
-21.436476, -9.276392, 78.375000
-21.571297, -9.334734, 78.500000
-21.706117, -9.393076, 78.625000
-21.706117, -9.393076, 78.750000
-21.706117, -9.393076, 78.875000
-21.840938, -9.451418, 79.000000
-21.840938, -9.451418, 79.125000
-21.840938, -9.451418, 79.250000
-21.840938, -9.451418, 79.375000
-21.975759, -9.509760, 79.500000
-21.975759, -9.509760, 79.625000
-21.975759, -9.509760, 79.750000
-22.110579, -9.568102, 79.875000
-22.110579, -9.568102, 80.000000
-22.110579, -9.568102, 80.125000
-22.245400, -9.626444, 80.250000
-22.110579, -9.568102, 80.375000
-22.110579, -9.568102, 80.500000
-22.245400, -9.626444, 80.625000
-22.245400, -9.626444, 80.750000
-22.380220, -9.684786, 80.875000
-22.245400, -9.626444, 81.000000
-22.245400, -9.626444, 81.125000
-22.245400, -9.626444, 81.250000
-22.649862, -9.801470, 81.375000
-3.721802, -1.751347, 23.125000
-3.721802, -1.751347, 23.250000
-3.588881, -1.688799, 23.375000
-3.588881, -1.688799, 23.500000
-3.455959, -1.626251, 23.625000
-3.721802, -1.751347, 23.750000
-3.588881, -1.688799, 23.875000
-3.588881, -1.688799, 24.000000
-3.721802, -1.751347, 24.125000
-3.588881, -1.688799, 24.250000
-3.721802, -1.751347, 24.375000
-3.721802, -1.751347, 24.500000
-3.721802, -1.751347, 24.625000
-3.721802, -1.751347, 24.750000
-3.721802, -1.751347, 24.875000
-3.721802, -1.751347, 25.000000
-3.854724, -1.813895, 25.125000
-3.854724, -1.813895, 25.250000
-3.854724, -1.813895, 25.375000
-3.854724, -1.813895, 25.500000
-3.854724, -1.813895, 25.625000
-3.987645, -1.876443, 25.750000
-4.120567, -1.938992, 25.875000
-3.987645, -1.876443, 26.000000
-4.120567, -1.938992, 26.125000
-4.120567, -1.938992, 26.250000
-4.120567, -1.938992, 26.375000
-4.120567, -1.938992, 26.500000
-4.253488, -2.001540, 26.625000
-4.386410, -2.064088, 26.750000
-4.253488, -2.001540, 26.875000
-4.253488, -2.001540, 27.000000
-4.386410, -2.064088, 27.125000
-4.386410, -2.064088, 27.250000
-4.386410, -2.064088, 27.375000
-4.386410, -2.064088, 27.500000
-4.519331, -2.126636, 27.625000
-4.519331, -2.126636, 27.750000
-4.652253, -2.189184, 27.875000
-4.652253, -2.189184, 28.000000
-4.652253, -2.189184, 28.125000
-4.652253, -2.189184, 28.250000
-4.652253, -2.189184, 28.375000
-4.652253, -2.189184, 28.500000
-4.918096, -2.314280, 28.625000
-4.785174, -2.251732, 28.750000
-4.785174, -2.251732, 28.875000
-4.785174, -2.251732, 29.000000
-4.918096, -2.314280, 29.125000
-4.785174, -2.251732, 29.250000
-4.918096, -2.314280, 29.375000
-4.918096, -2.314280, 29.500000
-5.051017, -2.376828, 29.625000
-5.051017, -2.376828, 29.750000
-5.051017, -2.376828, 29.875000
-5.051017, -2.376828, 30.000000
-5.183939, -2.439376, 30.125000
-5.183939, -2.439376, 30.250000
-5.183939, -2.439376, 30.375000
-5.183939, -2.439376, 30.500000
-5.316860, -2.501925, 30.625000
-5.449782, -2.564473, 30.750000
-5.449782, -2.564473, 30.875000
-5.449782, -2.564473, 31.000000
-5.449782, -2.564473, 31.125000
-5.449782, -2.564473, 31.250000
-5.715625, -2.689569, 31.375000
-5.582703, -2.627021, 31.500000
-5.582703, -2.627021, 31.625000
-5.715625, -2.689569, 31.750000
-5.848546, -2.752117, 31.875000
-5.715625, -2.689569, 32.000000
-5.715625, -2.689569, 32.125000
-5.848546, -2.752117, 32.250000
-5.848546, -2.752117, 32.375000
-5.981468, -2.814665, 32.500000
-5.981468, -2.814665, 32.625000
-5.981468, -2.814665, 32.750000
-6.114389, -2.877213, 32.875000
-6.114389, -2.877213, 33.000000
-6.114389, -2.877213, 33.125000
-6.114389, -2.877213, 33.250000
-6.247311, -2.939761, 33.375000
-6.247311, -2.939761, 33.500000
-6.247311, -2.939761, 33.625000
-6.247311, -2.939761, 33.750000
-6.380232, -3.002310, 33.875000
-6.380232, -3.002310, 34.000000
-6.513154, -3.064858, 34.125000
-6.513154, -3.064858, 34.250000
-6.513154, -3.064858, 34.375000
-6.513154, -3.064858, 34.500000
-6.778997, -3.189954, 34.625000
-6.646076, -3.127406, 34.750000
-6.778997, -3.189954, 34.875000
-6.778997, -3.189954, 35.000000
-6.911919, -3.252502, 35.125000
-6.778997, -3.189954, 35.250000
-6.911919, -3.252502, 35.375000
-6.911919, -3.252502, 35.500000
-6.911919, -3.252502, 35.625000
-7.044840, -3.315050, 35.750000
-7.044840, -3.315050, 35.875000
-7.044840, -3.315050, 36.000000
-7.177762, -3.377598, 36.125000
-7.177762, -3.377598, 36.250000
-7.310683, -3.440146, 36.375000
-7.310683, -3.440146, 36.500000
-7.310683, -3.440146, 36.625000
-7.310683, -3.440146, 36.750000
-7.443605, -3.502694, 36.875000
-7.443605, -3.502694, 37.000000
-7.443605, -3.502694, 37.125000
-7.576526, -3.565243, 37.250000
-7.576526, -3.565243, 37.375000
-7.576526, -3.565243, 37.500000
-7.576526, -3.565243, 37.625000
-7.709448, -3.627791, 37.750000
-7.709448, -3.627791, 37.875000
-7.709448, -3.627791, 38.000000
-7.709448, -3.627791, 38.125000
-7.842369, -3.690339, 38.250000
-7.842369, -3.690339, 38.375000
-7.842369, -3.690339, 38.500000
-7.975291, -3.752887, 38.625000
-8.108212, -3.815435, 38.750000
-7.975291, -3.752887, 38.875000
-7.975291, -3.752887, 39.000000
-8.108212, -3.815435, 39.125000
-8.374055, -3.940531, 39.250000
-8.241134, -3.877983, 39.375000
-8.374055, -3.940531, 39.500000
-8.374055, -3.940531, 39.625000
-8.374055, -3.940531, 39.750000
-8.506977, -4.003079, 39.875000
-8.374055, -3.940531, 40.000000
-8.506977, -4.003079, 40.125000
-8.506977, -4.003079, 40.250000
-8.639898, -4.065627, 40.375000
-8.639898, -4.065627, 40.500000
-8.639898, -4.065627, 40.625000
-8.772820, -4.128176, 40.750000
-8.772820, -4.128176, 40.875000
-8.772820, -4.128176, 41.000000
-8.905741, -4.190724, 41.125000
-8.905741, -4.190724, 41.250000
-9.038663, -4.253272, 41.375000
-8.905741, -4.190724, 41.500000
-8.905741, -4.190724, 41.625000
-9.038663, -4.253272, 41.750000
-9.038663, -4.253272, 41.875000
-9.038663, -4.253272, 42.000000
-9.038663, -4.253272, 42.125000
-9.171584, -4.315820, 42.250000
-9.171584, -4.315820, 42.375000
-9.304506, -4.378368, 42.500000
-9.304506, -4.378368, 42.625000
-9.437427, -4.440916, 42.750000
-9.437427, -4.440916, 42.875000
-9.437427, -4.440916, 43.000000
-9.570349, -4.503464, 43.125000
-9.437427, -4.440916, 43.250000
-9.570349, -4.503464, 43.375000
-9.570349, -4.503464, 43.500000
-9.703270, -4.566012, 43.625000
-9.836192, -4.628561, 43.750000
-9.703270, -4.566012, 43.875000
-9.836192, -4.628561, 44.000000
