-14.113532, 22.239368, 63.750000
-14.113532, 22.239368, 63.875000
-14.208254, 22.388625, 64.000000
-14.208254, 22.388625, 64.125000
-14.208254, 22.388625, 64.250000
-14.302975, 22.537883, 64.375000
-14.302975, 22.537883, 64.500000
-14.302975, 22.537883, 64.625000
-14.397697, 22.687140, 64.750000
-14.397697, 22.687140, 64.875000
-14.492419, 22.836398, 65.000000
-14.492419, 22.836398, 65.125000
-14.492419, 22.836398, 65.250000
-14.587140, 22.985655, 65.375000
-14.587140, 22.985655, 65.500000
-14.587140, 22.985655, 65.625000
-14.776584, 23.284170, 65.750000
-14.681862, 23.134913, 65.875000
-14.776584, 23.284170, 66.000000
-14.776584, 23.284170, 66.125000
-14.776584, 23.284170, 66.250000
-14.871305, 23.433428, 66.375000
-14.871305, 23.433428, 66.500000
-14.966027, 23.582685, 66.625000
-14.966027, 23.582685, 66.750000
-15.060749, 23.731943, 66.875000
-15.060749, 23.731943, 67.000000
-15.060749, 23.731943, 67.125000
-15.060749, 23.731943, 67.250000
-15.155470, 23.881200, 67.375000
-15.155470, 23.881200, 67.500000
-15.155470, 23.881200, 67.625000
-15.250192, 24.030458, 67.750000
-15.250192, 24.030458, 67.875000
-15.344914, 24.179715, 68.000000
-15.344914, 24.179715, 68.125000
-15.344914, 24.179715, 68.250000
-15.439635, 24.328973, 68.375000
-15.439635, 24.328973, 68.500000
-15.439635, 24.328973, 68.625000
-15.534357, 24.478230, 68.750000
-15.534357, 24.478230, 68.875000
-15.534357, 24.478230, 69.000000
-15.629079, 24.627488, 69.125000
-15.629079, 24.627488, 69.250000
-15.723801, 24.776745, 69.375000
-15.723801, 24.776745, 69.500000
-15.818522, 24.926003, 69.625000
-15.818522, 24.926003, 69.750000
-15.913244, 25.075260, 69.875000
-15.913244, 25.075260, 70.000000
-15.913244, 25.075260, 70.125000
-16.007966, 25.224518, 70.250000
-16.007966, 25.224518, 70.375000
-16.007966, 25.224518, 70.500000
-16.007966, 25.224518, 70.625000
-16.007966, 25.224518, 70.750000
-16.102687, 25.373775, 70.875000
-16.102687, 25.373775, 71.000000
-16.102687, 25.373775, 71.125000
-16.197409, 25.523033, 71.250000
-16.292131, 25.672290, 71.375000
-16.197409, 25.523033, 71.500000
-16.292131, 25.672290, 71.625000
-16.386852, 25.821548, 71.750000
-16.386852, 25.821548, 71.875000
-16.386852, 25.821548, 72.000000
-16.481574, 25.970805, 72.125000
-16.481574, 25.970805, 72.250000
-16.481574, 25.970805, 72.375000
-16.576296, 26.120063, 72.500000
-16.576296, 26.120063, 72.625000
-16.671017, 26.269320, 72.750000
-16.671017, 26.269320, 72.875000
-16.765739, 26.418578, 73.000000
-16.765739, 26.418578, 73.125000
-16.765739, 26.418578, 73.250000
-16.860461, 26.567835, 73.375000
-16.860461, 26.567835, 73.500000
-16.955183, 26.717093, 73.625000
-16.955183, 26.717093, 73.750000
-17.049904, 26.866350, 73.875000
-17.049904, 26.866350, 74.000000
-17.144626, 27.015608, 74.125000
-17.144626, 27.015608, 74.250000
-17.144626, 27.015608, 74.375000
-17.144626, 27.015608, 74.500000
-17.239348, 27.164865, 74.625000
-17.239348, 27.164865, 74.750000
-17.334069, 27.314123, 74.875000
-17.334069, 27.314123, 75.000000
-17.334069, 27.314123, 75.125000
-17.334069, 27.314123, 75.250000
-17.523513, 27.612638, 75.375000
-17.523513, 27.612638, 75.500000
-17.523513, 27.612638, 75.625000
-17.523513, 27.612638, 75.750000
-17.618234, 27.761895, 75.875000
-17.712956, 27.911153, 76.000000
-17.712956, 27.911153, 76.125000
-17.712956, 27.911153, 76.250000
-17.712956, 27.911153, 76.375000
-17.807678, 28.060410, 76.500000
-17.807678, 28.060410, 76.625000
-17.902399, 28.209668, 76.750000
-17.902399, 28.209668, 76.875000
-17.997121, 28.358925, 77.000000
-17.997121, 28.358925, 77.125000
-17.997121, 28.358925, 77.250000
-18.091843, 28.508183, 77.375000
-18.186564, 28.657440, 77.500000
-18.186564, 28.657440, 77.625000
-18.186564, 28.657440, 77.750000
-18.281286, 28.806698, 77.875000
-18.376008, 28.955955, 78.000000
-18.376008, 28.955955, 78.125000
-18.376008, 28.955955, 78.250000
-18.376008, 28.955955, 78.375000
-18.376008, 28.955955, 78.500000
-18.376008, 28.955955, 78.625000
-18.470730, 29.105213, 78.750000
-18.470730, 29.105213, 78.875000
-18.470730, 29.105213, 79.000000
-18.376008, 28.955955, 79.125000
-18.470730, 29.105213, 79.250000
-18.470730, 29.105213, 79.375000
-18.470730, 29.105213, 79.500000
-18.376008, 28.955955, 79.625000
-18.565451, 29.254470, 79.750000
-18.376008, 28.955955, 79.875000
-23.680423, 37.314375, 81.875000
-23.112092, 36.418830, 82.125000
-23.206814, 36.568088, 82.250000
-23.112092, 36.418830, 82.375000
-22.259597, 35.075513, 82.500000
-4.173256, 6.140760, 24.500000
-4.073893, 5.994551, 24.625000
-3.875166, 5.702134, 24.750000
-3.974530, 5.848343, 24.875000
-3.974530, 5.848343, 25.000000
-3.875166, 5.702134, 25.125000
-3.974530, 5.848343, 25.250000
-3.974530, 5.848343, 25.375000
-3.974530, 5.848343, 25.500000
-3.875166, 5.702134, 25.625000
-4.173256, 6.140760, 25.750000
-3.974530, 5.848343, 25.875000
-3.974530, 5.848343, 26.000000
-4.073893, 5.994551, 26.125000
-3.974530, 5.848343, 26.250000
-4.073893, 5.994551, 26.375000
-4.073893, 5.994551, 26.500000
-4.073893, 5.994551, 26.625000
-4.073893, 5.994551, 26.750000
-4.173256, 6.140760, 26.875000
-4.272619, 6.286969, 27.000000
-4.272619, 6.286969, 27.125000
-4.272619, 6.286969, 27.250000
-4.272619, 6.286969, 27.375000
-4.272619, 6.286969, 27.500000
-4.272619, 6.286969, 27.625000
-4.371983, 6.433177, 27.750000
-4.371983, 6.433177, 27.875000
-4.371983, 6.433177, 28.000000
-4.371983, 6.433177, 28.125000
-4.471346, 6.579386, 28.250000
-4.471346, 6.579386, 28.375000
-4.570709, 6.725594, 28.500000
-4.570709, 6.725594, 28.625000
-4.570709, 6.725594, 28.750000
-4.670072, 6.871803, 28.875000
-4.670072, 6.871803, 29.000000
-4.670072, 6.871803, 29.125000
-4.670072, 6.871803, 29.250000
-4.769436, 7.018011, 29.375000
-4.769436, 7.018011, 29.500000
-4.769436, 7.018011, 29.625000
-4.769436, 7.018011, 29.750000
-4.868799, 7.164220, 29.875000
-4.868799, 7.164220, 30.000000
-4.868799, 7.164220, 30.125000
-4.968162, 7.310429, 30.250000
-4.968162, 7.310429, 30.375000
-5.067525, 7.456637, 30.500000
-5.067525, 7.456637, 30.625000
-5.067525, 7.456637, 30.750000
-5.166889, 7.602846, 30.875000
-5.166889, 7.602846, 31.000000
-5.266252, 7.749054, 31.125000
-5.266252, 7.749054, 31.250000
-5.266252, 7.749054, 31.375000
-5.365615, 7.895263, 31.500000
-5.464978, 8.041471, 31.625000
-5.464978, 8.041471, 31.750000
-5.464978, 8.041471, 31.875000
-5.564342, 8.187680, 32.000000
-5.464978, 8.041471, 32.125000
-5.663705, 8.333889, 32.250000
-5.564342, 8.187680, 32.375000
-5.763068, 8.480097, 32.500000
-5.663705, 8.333889, 32.625000
-5.663705, 8.333889, 32.750000
-5.763068, 8.480097, 32.875000
-5.763068, 8.480097, 33.000000
-5.862431, 8.626306, 33.125000
-5.961795, 8.772514, 33.250000
-5.961795, 8.772514, 33.375000
-5.961795, 8.772514, 33.500000
-6.061158, 8.918723, 33.625000
-6.061158, 8.918723, 33.750000
-6.160521, 9.064931, 33.875000
-6.160521, 9.064931, 34.000000
-6.160521, 9.064931, 34.125000
-6.160521, 9.064931, 34.250000
-6.160521, 9.064931, 34.375000
-6.259884, 9.211140, 34.500000
-6.359247, 9.357349, 34.625000
-6.359247, 9.357349, 34.750000
-6.359247, 9.357349, 34.875000
-6.458611, 9.503557, 35.000000
-6.458611, 9.503557, 35.125000
-6.458611, 9.503557, 35.250000
-6.557974, 9.649766, 35.375000
-6.557974, 9.649766, 35.500000
-6.657337, 9.795974, 35.625000
-6.657337, 9.795974, 35.750000
-6.657337, 9.795974, 35.875000
-6.657337, 9.795974, 36.000000
-6.756700, 9.942183, 36.125000
-6.756700, 9.942183, 36.250000
-6.856064, 10.088391, 36.375000
-6.856064, 10.088391, 36.500000
-6.955427, 10.234600, 36.625000
-6.856064, 10.088391, 36.750000
-6.955427, 10.234600, 36.875000
-7.054790, 10.380809, 37.000000
-7.054790, 10.380809, 37.125000
-7.054790, 10.380809, 37.250000
-7.154153, 10.527017, 37.375000
-7.154153, 10.527017, 37.500000
-7.253517, 10.673226, 37.625000
-7.253517, 10.673226, 37.750000
-7.253517, 10.673226, 37.875000
-7.253517, 10.673226, 38.000000
-7.352880, 10.819434, 38.125000
-7.352880, 10.819434, 38.250000
-7.452243, 10.965643, 38.375000
-7.352880, 10.819434, 38.500000
-7.452243, 10.965643, 38.625000
-7.452243, 10.965643, 38.750000
-7.551606, 11.111851, 38.875000
-7.650970, 11.258060, 39.000000
-7.650970, 11.258060, 39.125000
-7.650970, 11.258060, 39.250000
-7.750333, 11.404269, 39.375000
-7.849696, 11.550477, 39.500000
-7.849696, 11.550477, 39.625000
-7.849696, 11.550477, 39.750000
-7.949059, 11.696686, 39.875000
-7.849696, 11.550477, 40.000000
-7.849696, 11.550477, 40.125000
-7.949059, 11.696686, 40.250000
-8.048423, 11.842894, 40.375000
-8.048423, 11.842894, 40.500000
-8.147786, 11.989103, 40.625000
-8.147786, 11.989103, 40.750000
-8.247149, 12.135311, 40.875000
-8.247149, 12.135311, 41.000000
-8.247149, 12.135311, 41.125000
-8.346512, 12.281520, 41.250000
-8.346512, 12.281520, 41.375000
-8.346512, 12.281520, 41.500000
-8.445876, 12.427729, 41.625000
-8.445876, 12.427729, 41.750000
-8.445876, 12.427729, 41.875000
-8.545239, 12.573937, 42.000000
-8.545239, 12.573937, 42.125000
-8.545239, 12.573937, 42.250000
-8.743965, 12.866354, 42.375000
-8.644602, 12.720146, 42.500000
-8.644602, 12.720146, 42.625000
-8.644602, 12.720146, 42.750000
-8.743965, 12.866354, 42.875000
-8.843329, 13.012563, 43.000000
-8.843329, 13.012563, 43.125000
-8.843329, 13.012563, 43.250000
-8.843329, 13.012563, 43.375000
-8.942692, 13.158771, 43.500000
-8.942692, 13.158771, 43.625000
-9.042055, 13.304980, 43.750000
-9.042055, 13.304980, 43.875000
-9.141418, 13.451189, 44.000000
-9.141418, 13.451189, 44.125000
-9.141418, 13.451189, 44.250000
-9.240782, 13.597397, 44.375000
-9.240782, 13.597397, 44.500000
-9.240782, 13.597397, 44.625000
-9.340145, 13.743606, 44.750000
-9.340145, 13.743606, 44.875000
-9.439508, 13.889814, 45.000000
-9.439508, 13.889814, 45.125000
-9.538871, 14.036023, 45.250000
-9.538871, 14.036023, 45.375000
-9.638234, 14.182231, 45.500000
-9.638234, 14.182231, 45.625000
-9.638234, 14.182231, 45.750000
-9.638234, 14.182231, 45.875000
-9.638234, 14.182231, 46.000000
-9.737598, 14.328440, 46.125000
-9.836961, 14.474648, 46.250000
-9.836961, 14.474648, 46.375000
-9.936324, 14.620857, 46.500000
-10.035687, 14.767066, 46.625000
-10.035687, 14.767066, 46.750000
-9.936324, 14.620857, 46.875000
-10.035687, 14.767066, 47.000000
-10.035687, 14.767066, 47.125000
-10.035687, 14.767066, 47.250000
-10.135051, 14.913274, 47.375000
-10.234414, 15.059483, 47.500000
-10.234414, 15.059483, 47.625000
-10.234414, 15.059483, 47.750000
-10.234414, 15.059483, 47.875000
-10.333777, 15.205691, 48.000000
-10.333777, 15.205691, 48.125000
-10.333777, 15.205691, 48.250000
-10.433140, 15.351900, 48.375000
-10.433140, 15.351900, 48.500000
-10.433140, 15.351900, 48.625000
-10.532504, 15.498108, 48.750000
-10.532504, 15.498108, 48.875000
-10.631867, 15.644317, 49.000000
-10.631867, 15.644317, 49.125000
-10.631867, 15.644317, 49.250000
-10.731230, 15.790526, 49.375000
-10.731230, 15.790526, 49.500000
-10.830593, 15.936734, 49.625000
-10.830593, 15.936734, 49.750000
-10.830593, 15.936734, 49.875000
-10.929957, 16.082943, 50.000000
-10.929957, 16.082943, 50.125000
-11.029320, 16.229151, 50.250000
-11.029320, 16.229151, 50.375000
-11.029320, 16.229151, 50.500000
-11.029320, 16.229151, 50.625000
-11.128683, 16.375360, 50.750000
-11.128683, 16.375360, 50.875000
-11.128683, 16.375360, 51.000000
-11.228046, 16.521568, 51.125000
-11.228046, 16.521568, 51.250000
-11.327410, 16.667777, 51.375000
-11.327410, 16.667777, 51.500000
-11.426773, 16.813986, 51.625000
-11.426773, 16.813986, 51.750000
-11.426773, 16.813986, 51.875000
-11.526136, 16.960194, 52.000000
-11.526136, 16.960194, 52.125000
-11.625499, 17.106403, 52.250000
-11.625499, 17.106403, 52.375000
-11.724863, 17.252611, 52.500000
-11.724863, 17.252611, 52.625000
-11.625499, 17.106403, 52.750000
-11.824226, 17.398820, 52.875000
-11.824226, 17.398820, 53.000000
-11.824226, 17.398820, 53.125000
-11.824226, 17.398820, 53.250000
-11.923589, 17.545028, 53.375000
-11.923589, 17.545028, 53.500000
-12.022952, 17.691237, 53.625000
-12.022952, 17.691237, 53.750000
-12.022952, 17.691237, 53.875000
-12.122316, 17.837446, 54.000000
-12.122316, 17.837446, 54.125000
-12.122316, 17.837446, 54.250000
-12.221679, 17.983654, 54.375000
-12.321042, 18.129863, 54.500000
-12.321042, 18.129863, 54.625000
-12.321042, 18.129863, 54.750000
-12.321042, 18.129863, 54.875000
-12.321042, 18.129863, 55.000000
-12.420405, 18.276071, 55.125000
-12.519768, 18.422280, 55.250000
-12.519768, 18.422280, 55.375000
-12.519768, 18.422280, 55.500000
-12.519768, 18.422280, 55.625000
-12.619132, 18.568488, 55.750000
-12.718495, 18.714697, 55.875000
-12.619132, 18.568488, 56.000000
-12.718495, 18.714697, 56.125000
-12.718495, 18.714697, 56.250000
-12.718495, 18.714697, 56.375000
-12.817858, 18.860906, 56.500000
-12.817858, 18.860906, 56.625000
-12.817858, 18.860906, 56.750000
-12.917221, 19.007114, 56.875000
-12.917221, 19.007114, 57.000000
-13.016585, 19.153323, 57.125000
-13.016585, 19.153323, 57.250000
-13.016585, 19.153323, 57.375000
-13.115948, 19.299531, 57.500000
-13.115948, 19.299531, 57.625000
-13.115948, 19.299531, 57.750000
-13.215311, 19.445740, 57.875000
-13.215311, 19.445740, 58.000000
-13.215311, 19.445740, 58.125000
-13.314674, 19.591948, 58.250000
-13.314674, 19.591948, 58.375000
-13.414038, 19.738157, 58.500000
-13.414038, 19.738157, 58.625000
-13.513401, 19.884366, 58.750000
-13.513401, 19.884366, 58.875000
-13.612764, 20.030574, 59.000000
-13.612764, 20.030574, 59.125000
-13.612764, 20.030574, 59.250000
-13.612764, 20.030574, 59.375000
-13.712127, 20.176783, 59.500000
-13.811491, 20.322991, 59.625000
-13.712127, 20.176783, 59.750000
-13.811491, 20.322991, 59.875000
-13.811491, 20.322991, 60.000000
-13.811491, 20.322991, 60.125000
-13.910854, 20.469200, 60.250000
-13.910854, 20.469200, 60.375000
-13.910854, 20.469200, 60.500000
-14.010217, 20.615408, 60.625000
-14.010217, 20.615408, 60.750000
-14.010217, 20.615408, 60.875000
-14.109580, 20.761617, 61.000000
-14.208944, 20.907826, 61.125000
-14.208944, 20.907826, 61.250000
-14.208944, 20.907826, 61.375000
-14.308307, 21.054034, 61.500000
-14.308307, 21.054034, 61.625000
-14.308307, 21.054034, 61.750000
-14.407670, 21.200243, 61.875000
-14.407670, 21.200243, 62.000000
-14.407670, 21.200243, 62.125000
-14.507033, 21.346451, 62.250000
-14.606397, 21.492660, 62.375000
-14.507033, 21.346451, 62.500000
-14.606397, 21.492660, 62.625000
-14.606397, 21.492660, 62.750000
-14.606397, 21.492660, 62.875000
-14.705760, 21.638868, 63.000000
-14.705760, 21.638868, 63.125000
-14.805123, 21.785077, 63.250000
-14.805123, 21.785077, 63.375000
-14.805123, 21.785077, 63.500000
-14.805123, 21.785077, 63.625000
-14.904486, 21.931286, 63.750000
-14.904486, 21.931286, 63.875000
-15.003850, 22.077494, 64.000000
-15.003850, 22.077494, 64.125000
-15.003850, 22.077494, 64.250000
-15.103213, 22.223703, 64.375000
-15.103213, 22.223703, 64.500000
-15.202576, 22.369911, 64.625000
-15.202576, 22.369911, 64.750000
-15.202576, 22.369911, 64.875000
-15.301939, 22.516120, 65.000000
-15.301939, 22.516120, 65.125000
-15.301939, 22.516120, 65.250000
-15.301939, 22.516120, 65.375000
-15.401303, 22.662328, 65.500000
-15.401303, 22.662328, 65.625000
-15.600029, 22.954746, 65.750000
-15.500666, 22.808537, 65.875000
-15.500666, 22.808537, 66.000000
-15.600029, 22.954746, 66.125000
-15.699392, 23.100954, 66.250000
-15.699392, 23.100954, 66.375000
-15.699392, 23.100954, 66.500000
-15.699392, 23.100954, 66.625000
-15.798755, 23.247163, 66.750000
-15.798755, 23.247163, 66.875000
-15.798755, 23.247163, 67.000000
-15.898119, 23.393371, 67.125000
-15.898119, 23.393371, 67.250000
-15.997482, 23.539580, 67.375000
-15.997482, 23.539580, 67.500000
-15.997482, 23.539580, 67.625000
-16.096845, 23.685788, 67.750000
-16.096845, 23.685788, 67.875000
-16.196208, 23.831997, 68.000000
-16.196208, 23.831997, 68.125000
-16.196208, 23.831997, 68.250000
-16.295572, 23.978206, 68.375000
-16.295572, 23.978206, 68.500000
-16.295572, 23.978206, 68.625000
-16.394935, 24.124414, 68.750000
-16.394935, 24.124414, 68.875000
-16.494298, 24.270623, 69.000000
-16.394935, 24.124414, 69.125000
-16.593661, 24.416831, 69.250000
-16.593661, 24.416831, 69.375000
-16.693025, 24.563040, 69.500000
-16.693025, 24.563040, 69.625000
-16.693025, 24.563040, 69.750000
-16.693025, 24.563040, 69.875000
-16.792388, 24.709248, 70.000000
-16.792388, 24.709248, 70.125000
-16.792388, 24.709248, 70.250000
-16.891751, 24.855457, 70.375000
-16.991114, 25.001666, 70.500000
-16.991114, 25.001666, 70.625000
-16.891751, 24.855457, 70.750000
-16.891751, 24.855457, 70.875000
-16.991114, 25.001666, 71.000000
-16.991114, 25.001666, 71.125000
-17.090478, 25.147874, 71.250000
-17.189841, 25.294083, 71.375000
-17.189841, 25.294083, 71.500000
-17.189841, 25.294083, 71.625000
-17.289204, 25.440291, 71.750000
-17.289204, 25.440291, 71.875000
-17.289204, 25.440291, 72.000000
-17.388567, 25.586500, 72.125000
-17.487931, 25.732708, 72.250000
-17.388567, 25.586500, 72.375000
-17.487931, 25.732708, 72.500000
-17.487931, 25.732708, 72.625000
-17.587294, 25.878917, 72.750000
-17.587294, 25.878917, 72.875000
-17.686657, 26.025126, 73.000000
-17.786020, 26.171334, 73.125000
-17.786020, 26.171334, 73.250000
-17.786020, 26.171334, 73.375000
-17.885384, 26.317543, 73.500000
-17.885384, 26.317543, 73.625000
-17.984747, 26.463751, 73.750000
-17.885384, 26.317543, 73.875000
-18.084110, 26.609960, 74.000000
-18.084110, 26.609960, 74.125000
-17.984747, 26.463751, 74.250000
-18.084110, 26.609960, 74.375000
-18.183473, 26.756168, 74.500000
-18.183473, 26.756168, 74.625000
-18.183473, 26.756168, 74.750000
-18.282837, 26.902377, 74.875000
-18.282837, 26.902377, 75.000000
-18.382200, 27.048586, 75.125000
-18.382200, 27.048586, 75.250000
-18.382200, 27.048586, 75.375000
-18.481563, 27.194794, 75.500000
-18.481563, 27.194794, 75.625000
-18.580926, 27.341003, 75.750000
-18.680289, 27.487211, 75.875000
-18.580926, 27.341003, 76.000000
-18.680289, 27.487211, 76.125000
-18.680289, 27.487211, 76.250000
-18.879016, 27.779628, 76.375000
-18.879016, 27.779628, 76.500000
-18.879016, 27.779628, 76.625000
-18.879016, 27.779628, 76.750000
-18.978379, 27.925837, 76.875000
-18.978379, 27.925837, 77.000000
-19.077742, 28.072046, 77.125000
-19.077742, 28.072046, 77.250000
-19.077742, 28.072046, 77.375000
-19.177106, 28.218254, 77.500000
-19.177106, 28.218254, 77.625000
-19.276469, 28.364463, 77.750000
-19.276469, 28.364463, 77.875000
-19.276469, 28.364463, 78.000000
-19.375832, 28.510671, 78.125000
-19.375832, 28.510671, 78.250000
-19.475195, 28.656880, 78.375000
-19.475195, 28.656880, 78.500000
-19.574559, 28.803088, 78.625000
-19.475195, 28.656880, 78.750000
-19.574559, 28.803088, 78.875000
-19.574559, 28.803088, 79.000000
-19.574559, 28.803088, 79.125000
-19.475195, 28.656880, 79.250000
-19.475195, 28.656880, 79.375000
-19.574559, 28.803088, 79.500000
-19.574559, 28.803088, 79.625000
-19.475195, 28.656880, 79.750000
-19.475195, 28.656880, 79.875000
-3.948456, 5.434583, 24.750000
-4.052363, 5.577599, 24.875000
-3.948456, 5.434583, 25.000000
-3.844549, 5.291568, 25.125000
-4.052363, 5.577599, 25.250000
-4.052363, 5.577599, 25.375000
-3.948456, 5.434583, 25.500000
-3.948456, 5.434583, 25.625000
-4.052363, 5.577599, 25.750000
-3.948456, 5.434583, 25.875000
-3.948456, 5.434583, 26.000000
-4.052363, 5.577599, 26.125000
-4.052363, 5.577599, 26.250000
-4.052363, 5.577599, 26.375000
-4.052363, 5.577599, 26.500000
-4.156269, 5.720614, 26.625000
-4.156269, 5.720614, 26.750000
-4.156269, 5.720614, 26.875000
-4.156269, 5.720614, 27.000000
-4.156269, 5.720614, 27.125000
-4.156269, 5.720614, 27.250000
-4.156269, 5.720614, 27.375000
-4.260176, 5.863629, 27.500000
-4.364083, 6.006645, 27.625000
-4.260176, 5.863629, 27.750000
-4.364083, 6.006645, 27.875000
-4.364083, 6.006645, 28.000000
-4.364083, 6.006645, 28.125000
-4.571896, 6.292675, 28.250000
-4.467990, 6.149660, 28.375000
-4.571896, 6.292675, 28.500000
-4.675803, 6.435691, 28.625000
-4.675803, 6.435691, 28.750000
-4.675803, 6.435691, 28.875000
-4.675803, 6.435691, 29.000000
-4.675803, 6.435691, 29.125000
-4.779710, 6.578706, 29.250000
-4.779710, 6.578706, 29.375000
-4.883617, 6.721721, 29.500000
-4.883617, 6.721721, 29.625000
-4.883617, 6.721721, 29.750000
-5.091430, 7.007752, 29.875000
-4.987523, 6.864737, 30.000000
-5.091430, 7.007752, 30.125000
-5.195337, 7.150768, 30.250000
-5.091430, 7.007752, 30.375000
-5.195337, 7.150768, 30.500000
-5.195337, 7.150768, 30.625000
-5.195337, 7.150768, 30.750000
-5.299243, 7.293783, 30.875000
-5.299243, 7.293783, 31.000000
-5.403150, 7.436798, 31.125000
-5.403150, 7.436798, 31.250000
-5.403150, 7.436798, 31.375000
-5.507057, 7.579814, 31.500000
-5.507057, 7.579814, 31.625000
-5.714870, 7.865844, 31.750000
-5.714870, 7.865844, 31.875000
-5.714870, 7.865844, 32.000000
-5.714870, 7.865844, 32.125000
-5.714870, 7.865844, 32.250000
-5.818777, 8.008860, 32.375000
-5.818777, 8.008860, 32.500000
-5.922684, 8.151875, 32.625000
-6.026591, 8.294890, 32.750000
-5.922684, 8.151875, 32.875000
-6.026591, 8.294890, 33.000000
-6.026591, 8.294890, 33.125000
-6.130497, 8.437906, 33.250000
-6.130497, 8.437906, 33.375000
-6.234404, 8.580921, 33.500000
-6.234404, 8.580921, 33.625000
-6.234404, 8.580921, 33.750000
-6.338311, 8.723936, 33.875000
-6.338311, 8.723936, 34.000000
-6.338311, 8.723936, 34.125000
-6.442218, 8.866952, 34.250000
-6.442218, 8.866952, 34.375000
-6.442218, 8.866952, 34.500000
-6.546124, 9.009967, 34.625000
-6.650031, 9.152982, 34.750000
-6.650031, 9.152982, 34.875000
-6.650031, 9.152982, 35.000000
-6.753938, 9.295998, 35.125000
-6.753938, 9.295998, 35.250000
-6.753938, 9.295998, 35.375000
-6.753938, 9.295998, 35.500000
-6.857844, 9.439013, 35.625000
-6.961751, 9.582028, 35.750000
-7.065658, 9.725044, 35.875000
-7.065658, 9.725044, 36.000000
-7.169565, 9.868059, 36.125000
-7.065658, 9.725044, 36.250000
-7.273471, 10.011075, 36.375000
-7.273471, 10.011075, 36.500000
-7.273471, 10.011075, 36.625000
-7.273471, 10.011075, 36.750000
-7.273471, 10.011075, 36.875000
-7.273471, 10.011075, 37.000000
-7.377378, 10.154090, 37.125000
-7.481285, 10.297105, 37.250000
-7.481285, 10.297105, 37.375000
-7.481285, 10.297105, 37.500000
-7.585192, 10.440121, 37.625000
-7.585192, 10.440121, 37.750000
-7.689098, 10.583136, 37.875000
-7.689098, 10.583136, 38.000000
-7.689098, 10.583136, 38.125000
-7.793005, 10.726151, 38.250000
-7.896912, 10.869167, 38.375000
-7.793005, 10.726151, 38.500000
-8.000819, 11.012182, 38.625000
-7.896912, 10.869167, 38.750000
-7.896912, 10.869167, 38.875000
-8.000819, 11.012182, 39.000000
-8.104725, 11.155197, 39.125000
-8.104725, 11.155197, 39.250000
-8.208632, 11.298213, 39.375000
-8.208632, 11.298213, 39.500000
-8.312539, 11.441228, 39.625000
-8.312539, 11.441228, 39.750000
-8.312539, 11.441228, 39.875000
-8.312539, 11.441228, 40.000000
-8.416445, 11.584243, 40.125000
-8.520352, 11.727259, 40.250000
-8.520352, 11.727259, 40.375000
-8.624259, 11.870274, 40.500000
-8.520352, 11.727259, 40.625000
-8.624259, 11.870274, 40.750000
-8.728166, 12.013289, 40.875000
-8.728166, 12.013289, 41.000000
-8.728166, 12.013289, 41.125000
-8.832072, 12.156305, 41.250000
-8.832072, 12.156305, 41.375000
-8.832072, 12.156305, 41.500000
-8.935979, 12.299320, 41.625000
-8.935979, 12.299320, 41.750000
-9.039886, 12.442336, 41.875000
-9.143793, 12.585351, 42.000000
-9.039886, 12.442336, 42.125000
-9.143793, 12.585351, 42.250000
-9.143793, 12.585351, 42.375000
-9.247699, 12.728366, 42.500000
-9.247699, 12.728366, 42.625000
-9.247699, 12.728366, 42.750000
-9.351606, 12.871382, 42.875000
-9.351606, 12.871382, 43.000000
-9.455513, 13.014397, 43.125000
-9.559420, 13.157412, 43.250000
-9.559420, 13.157412, 43.375000
-9.663326, 13.300428, 43.500000
-9.559420, 13.157412, 43.625000
-9.559420, 13.157412, 43.750000
-9.559420, 13.157412, 43.875000
-9.559420, 13.157412, 44.000000
-9.767233, 13.443443, 44.125000
-9.871140, 13.586458, 44.250000
-9.767233, 13.443443, 44.375000
-9.767233, 13.443443, 44.500000
-9.871140, 13.586458, 44.625000
-9.871140, 13.586458, 44.750000
-10.078953, 13.872489, 44.875000
-10.078953, 13.872489, 45.000000
-10.078953, 13.872489, 45.125000
-10.182860, 14.015504, 45.250000
-10.182860, 14.015504, 45.375000
-10.286767, 14.158520, 45.500000
-10.286767, 14.158520, 45.625000
-10.286767, 14.158520, 45.750000
-10.286767, 14.158520, 45.875000
-10.390673, 14.301535, 46.000000
-10.494580, 14.444550, 46.125000
-10.494580, 14.444550, 46.250000
-10.598487, 14.587566, 46.375000
-10.598487, 14.587566, 46.500000
-10.598487, 14.587566, 46.625000
-10.598487, 14.587566, 46.750000
-10.806300, 14.873596, 46.875000
-10.806300, 14.873596, 47.000000
-10.806300, 14.873596, 47.125000
-10.806300, 14.873596, 47.250000
-10.910207, 15.016612, 47.375000
-10.910207, 15.016612, 47.500000
-10.910207, 15.016612, 47.625000
-11.014114, 15.159627, 47.750000
-11.014114, 15.159627, 47.875000
-11.014114, 15.159627, 48.000000
-11.221927, 15.445658, 48.125000
-11.221927, 15.445658, 48.250000
-11.221927, 15.445658, 48.375000
-11.221927, 15.445658, 48.500000
-11.325834, 15.588673, 48.625000
-11.325834, 15.588673, 48.750000
-11.325834, 15.588673, 48.875000
-11.429741, 15.731689, 49.000000
-11.429741, 15.731689, 49.125000
-11.533648, 15.874704, 49.250000
-11.533648, 15.874704, 49.375000
-11.533648, 15.874704, 49.500000
-11.533648, 15.874704, 49.625000
-11.637554, 16.017719, 49.750000
-11.741461, 16.160735, 49.875000
-11.741461, 16.160735, 50.000000
-11.741461, 16.160735, 50.125000
-11.845368, 16.303750, 50.250000
-11.845368, 16.303750, 50.375000
-11.845368, 16.303750, 50.500000
-11.845368, 16.303750, 50.625000
-11.949274, 16.446765, 50.750000
-11.949274, 16.446765, 50.875000
-12.053181, 16.589781, 51.000000
-12.053181, 16.589781, 51.125000
-12.157088, 16.732796, 51.250000
-12.157088, 16.732796, 51.375000
-12.260995, 16.875811, 51.500000
-12.260995, 16.875811, 51.625000
-12.260995, 16.875811, 51.750000
-12.364901, 17.018827, 51.875000
-12.364901, 17.018827, 52.000000
-12.468808, 17.161842, 52.125000
-12.468808, 17.161842, 52.250000
-12.572715, 17.304857, 52.375000
-12.572715, 17.304857, 52.500000
-12.676622, 17.447873, 52.625000
-12.676622, 17.447873, 52.750000
-12.676622, 17.447873, 52.875000
-12.780528, 17.590888, 53.000000
-12.884435, 17.733903, 53.125000
-12.780528, 17.590888, 53.250000
-12.884435, 17.733903, 53.375000
-12.884435, 17.733903, 53.500000
-12.884435, 17.733903, 53.625000
-13.092249, 18.019934, 53.750000
-13.092249, 18.019934, 53.875000
-13.092249, 18.019934, 54.000000
-13.092249, 18.019934, 54.125000
-13.196155, 18.162950, 54.250000
-13.300062, 18.305965, 54.375000
-13.300062, 18.305965, 54.500000
-13.300062, 18.305965, 54.625000
-13.403969, 18.448980, 54.750000
-13.403969, 18.448980, 54.875000
-13.403969, 18.448980, 55.000000
-13.507875, 18.591996, 55.125000
-13.507875, 18.591996, 55.250000
-13.507875, 18.591996, 55.375000
-13.507875, 18.591996, 55.500000
-13.611782, 18.735011, 55.625000
-13.715689, 18.878026, 55.750000
-13.715689, 18.878026, 55.875000
-13.715689, 18.878026, 56.000000
-13.715689, 18.878026, 56.125000
-13.819596, 19.021042, 56.250000
-13.819596, 19.021042, 56.375000
-13.923502, 19.164057, 56.500000
-14.027409, 19.307072, 56.625000
-14.027409, 19.307072, 56.750000
-14.027409, 19.307072, 56.875000
-14.027409, 19.307072, 57.000000
-14.131316, 19.450088, 57.125000
-14.131316, 19.450088, 57.250000
-14.131316, 19.450088, 57.375000
-14.131316, 19.450088, 57.500000
-14.235223, 19.593103, 57.625000
-14.235223, 19.593103, 57.750000
-14.235223, 19.593103, 57.875000
-14.339129, 19.736118, 58.000000
-14.339129, 19.736118, 58.125000
-14.339129, 19.736118, 58.250000
-14.443036, 19.879134, 58.375000
-14.443036, 19.879134, 58.500000
-14.546943, 20.022149, 58.625000
-14.650850, 20.165164, 58.750000
-14.650850, 20.165164, 58.875000
-14.650850, 20.165164, 59.000000
-14.754756, 20.308180, 59.125000
-14.754756, 20.308180, 59.250000
-14.754756, 20.308180, 59.375000
-14.754756, 20.308180, 59.500000
-14.962570, 20.594211, 59.625000
-14.858663, 20.451195, 59.750000
-14.858663, 20.451195, 59.875000
-14.962570, 20.594211, 60.000000
-14.962570, 20.594211, 60.125000
-15.066476, 20.737226, 60.250000
-15.066476, 20.737226, 60.375000
-15.170383, 20.880241, 60.500000
-15.274290, 21.023257, 60.625000
-15.274290, 21.023257, 60.750000
-15.274290, 21.023257, 60.875000
-15.274290, 21.023257, 61.000000
-15.378197, 21.166272, 61.125000
-15.378197, 21.166272, 61.250000
-15.482103, 21.309287, 61.375000
-15.482103, 21.309287, 61.500000
-15.482103, 21.309287, 61.625000
-15.586010, 21.452303, 61.750000
-15.689917, 21.595318, 61.875000
-15.689917, 21.595318, 62.000000
-15.689917, 21.595318, 62.125000
-15.689917, 21.595318, 62.250000
-15.793824, 21.738333, 62.375000
-15.793824, 21.738333, 62.500000
-15.897730, 21.881349, 62.625000
-15.897730, 21.881349, 62.750000
-16.001637, 22.024364, 62.875000
-16.001637, 22.024364, 63.000000
-16.001637, 22.024364, 63.125000
-16.105544, 22.167379, 63.250000
-16.105544, 22.167379, 63.375000
-16.209451, 22.310395, 63.500000
-16.313357, 22.453410, 63.625000
-16.209451, 22.310395, 63.750000
-16.209451, 22.310395, 63.875000
-16.313357, 22.453410, 64.000000
-16.313357, 22.453410, 64.125000
-16.417264, 22.596425, 64.250000
-16.417264, 22.596425, 64.375000
-16.417264, 22.596425, 64.500000
-16.521171, 22.739441, 64.625000
-16.625078, 22.882456, 64.750000
-16.625078, 22.882456, 64.875000
-16.625078, 22.882456, 65.000000
-16.625078, 22.882456, 65.125000
-16.728984, 23.025471, 65.250000
-16.832891, 23.168487, 65.375000
-16.832891, 23.168487, 65.500000
-16.832891, 23.168487, 65.625000
-16.936798, 23.311502, 65.750000
-16.936798, 23.311502, 65.875000
-16.936798, 23.311502, 66.000000
-16.936798, 23.311502, 66.125000
-17.040704, 23.454518, 66.250000
-17.040704, 23.454518, 66.375000
-17.040704, 23.454518, 66.500000
-17.144611, 23.597533, 66.625000
-17.248518, 23.740548, 66.750000
-17.248518, 23.740548, 66.875000
-17.248518, 23.740548, 67.000000
-17.352425, 23.883564, 67.125000
-17.352425, 23.883564, 67.250000
-17.352425, 23.883564, 67.375000
-17.456331, 24.026579, 67.500000
-17.456331, 24.026579, 67.625000
-17.456331, 24.026579, 67.750000
-17.560238, 24.169594, 67.875000
-17.560238, 24.169594, 68.000000
-17.664145, 24.312610, 68.125000
-17.768052, 24.455625, 68.250000
-17.768052, 24.455625, 68.375000
-17.768052, 24.455625, 68.500000
-17.768052, 24.455625, 68.625000
-17.768052, 24.455625, 68.750000
-17.871958, 24.598640, 68.875000
-17.975865, 24.741656, 69.000000
-17.975865, 24.741656, 69.125000
-17.975865, 24.741656, 69.250000
-18.079772, 24.884671, 69.375000
-18.183679, 25.027686, 69.500000
-18.183679, 25.027686, 69.625000
-18.183679, 25.027686, 69.750000
-18.287585, 25.170702, 69.875000
-18.287585, 25.170702, 70.000000
-18.287585, 25.170702, 70.125000
-18.287585, 25.170702, 70.250000
-18.391492, 25.313717, 70.375000
-18.495399, 25.456732, 70.500000
-18.495399, 25.456732, 70.625000
-18.495399, 25.456732, 70.750000
-18.599305, 25.599748, 70.875000
-18.599305, 25.599748, 71.000000
-18.599305, 25.599748, 71.125000
-18.703212, 25.742763, 71.250000
-18.599305, 25.599748, 71.375000
-18.807119, 25.885778, 71.500000
-18.807119, 25.885778, 71.625000
-18.911026, 26.028794, 71.750000
-18.911026, 26.028794, 71.875000
-19.014932, 26.171809, 72.000000
-19.014932, 26.171809, 72.125000
-19.014932, 26.171809, 72.250000
-19.014932, 26.171809, 72.375000
-19.014932, 26.171809, 72.500000
-19.222746, 26.457840, 72.625000
-19.222746, 26.457840, 72.750000
-19.430559, 26.743871, 72.875000
-19.326653, 26.600855, 73.000000
-19.430559, 26.743871, 73.125000
-19.430559, 26.743871, 73.250000
-19.534466, 26.886886, 73.375000
-19.638373, 27.029901, 73.500000
-19.534466, 26.886886, 73.625000
-19.638373, 27.029901, 73.750000
-19.638373, 27.029901, 73.875000
-19.846186, 27.315932, 74.000000
-19.742280, 27.172917, 74.125000
-19.846186, 27.315932, 74.250000
-19.742280, 27.172917, 74.375000
-19.742280, 27.172917, 74.500000
-19.846186, 27.315932, 74.625000
-19.950093, 27.458947, 74.750000
-20.054000, 27.601963, 74.875000
-20.054000, 27.601963, 75.000000
-20.157906, 27.744978, 75.125000
-20.157906, 27.744978, 75.250000
-20.157906, 27.744978, 75.375000
-20.157906, 27.744978, 75.500000
-20.261813, 27.887993, 75.625000
-20.261813, 27.887993, 75.750000
-20.365720, 28.031009, 75.875000
-20.365720, 28.031009, 76.000000
-20.365720, 28.031009, 76.125000
-20.573533, 28.317039, 76.250000
-20.573533, 28.317039, 76.375000
-20.573533, 28.317039, 76.500000
-20.573533, 28.317039, 76.625000
-20.677440, 28.460055, 76.750000
-20.781347, 28.603070, 76.875000
-20.781347, 28.603070, 77.000000
-20.781347, 28.603070, 77.125000
-20.885254, 28.746085, 77.250000
-20.885254, 28.746085, 77.375000
-20.885254, 28.746085, 77.500000
-20.885254, 28.746085, 77.625000
-21.093067, 29.032116, 77.750000
-21.093067, 29.032116, 77.875000
-21.196974, 29.175132, 78.000000
-21.196974, 29.175132, 78.125000
-21.196974, 29.175132, 78.250000
-21.300881, 29.318147, 78.375000
-21.300881, 29.318147, 78.500000
-21.300881, 29.318147, 78.625000
-21.404787, 29.461162, 78.750000
-21.404787, 29.461162, 78.875000
-21.508694, 29.604178, 79.000000
-21.612601, 29.747193, 79.125000
-21.404787, 29.461162, 79.250000
-21.612601, 29.747193, 79.375000
-21.612601, 29.747193, 79.500000
-21.508694, 29.604178, 79.625000
-21.612601, 29.747193, 79.750000
-21.612601, 29.747193, 79.875000
-21.612601, 29.747193, 80.000000
-21.404787, 29.461162, 80.125000
-21.508694, 29.604178, 80.250000
-4.225560, 5.447559, 24.750000
-3.900517, 5.028516, 24.875000
-4.117212, 5.307878, 25.000000
-4.225560, 5.447559, 25.125000
-4.117212, 5.307878, 25.250000
-4.225560, 5.447559, 25.375000
-4.117212, 5.307878, 25.500000
-4.117212, 5.307878, 25.625000
-4.117212, 5.307878, 25.750000
-4.225560, 5.447559, 25.875000
-4.117212, 5.307878, 26.000000
-4.117212, 5.307878, 26.125000
-4.117212, 5.307878, 26.250000
-4.117212, 5.307878, 26.375000
-4.117212, 5.307878, 26.500000
-4.225560, 5.447559, 26.625000
-4.225560, 5.447559, 26.750000
-4.333907, 5.587240, 26.875000
-4.333907, 5.587240, 27.000000
-4.442255, 5.726921, 27.125000
-4.442255, 5.726921, 27.250000
-4.442255, 5.726921, 27.375000
-4.442255, 5.726921, 27.500000
-4.442255, 5.726921, 27.625000
-4.550603, 5.866602, 27.750000
-4.442255, 5.726921, 27.875000
-4.550603, 5.866602, 28.000000
-4.658950, 6.006283, 28.125000
-4.658950, 6.006283, 28.250000
-4.767298, 6.145964, 28.375000
-4.767298, 6.145964, 28.500000
-4.875646, 6.285645, 28.625000
-4.875646, 6.285645, 28.750000
-4.875646, 6.285645, 28.875000
-4.875646, 6.285645, 29.000000
-4.983993, 6.425326, 29.125000
-4.983993, 6.425326, 29.250000
-5.092341, 6.565007, 29.375000
-5.092341, 6.565007, 29.500000
-5.092341, 6.565007, 29.625000
-5.200689, 6.704688, 29.750000
-5.200689, 6.704688, 29.875000
-5.200689, 6.704688, 30.000000
-5.309036, 6.844369, 30.125000
-5.309036, 6.844369, 30.250000
-5.417384, 6.984050, 30.375000
-5.417384, 6.984050, 30.500000
-5.417384, 6.984050, 30.625000
-5.525732, 7.123731, 30.750000
-5.525732, 7.123731, 30.875000
-5.525732, 7.123731, 31.000000
-5.525732, 7.123731, 31.125000
-5.525732, 7.123731, 31.250000
-5.634080, 7.263412, 31.375000
-5.850775, 7.542774, 31.500000
-5.850775, 7.542774, 31.625000
-5.742427, 7.403093, 31.750000
-5.959123, 7.682455, 31.875000
-5.850775, 7.542774, 32.000000
-5.959123, 7.682455, 32.125000
-5.959123, 7.682455, 32.250000
-6.067470, 7.822136, 32.375000
-6.067470, 7.822136, 32.500000
-6.175818, 7.961817, 32.625000
-6.175818, 7.961817, 32.750000
-6.284166, 8.101498, 32.875000
-6.392513, 8.241179, 33.000000
-6.392513, 8.241179, 33.125000
-6.392513, 8.241179, 33.250000
-6.392513, 8.241179, 33.375000
-6.500861, 8.380860, 33.500000
-6.609209, 8.520541, 33.625000
-6.500861, 8.380860, 33.750000
-6.500861, 8.380860, 33.875000
-6.609209, 8.520541, 34.000000
-6.825904, 8.799902, 34.125000
-6.717556, 8.660221, 34.250000
-6.825904, 8.799902, 34.375000
-6.825904, 8.799902, 34.500000
-6.825904, 8.799902, 34.625000
-6.934252, 8.939583, 34.750000
-6.934252, 8.939583, 34.875000
-6.934252, 8.939583, 35.000000
-6.934252, 8.939583, 35.125000
-7.042599, 9.079264, 35.250000
-7.150947, 9.218945, 35.375000
-7.150947, 9.218945, 35.500000
-7.259295, 9.358626, 35.625000
-7.367642, 9.498307, 35.750000
-7.259295, 9.358626, 35.875000
-7.367642, 9.498307, 36.000000
-7.367642, 9.498307, 36.125000
-7.584338, 9.777669, 36.250000
-7.584338, 9.777669, 36.375000
-7.584338, 9.777669, 36.500000
-7.584338, 9.777669, 36.625000
-7.584338, 9.777669, 36.750000
-7.692686, 9.917350, 36.875000
-7.692686, 9.917350, 37.000000
-7.692686, 9.917350, 37.125000
-7.801033, 10.057031, 37.250000
-7.909381, 10.196712, 37.375000
-7.909381, 10.196712, 37.500000
-7.909381, 10.196712, 37.625000
-7.909381, 10.196712, 37.750000
-7.909381, 10.196712, 37.875000
-8.126076, 10.476074, 38.000000
-8.126076, 10.476074, 38.125000
-8.126076, 10.476074, 38.250000
-8.234424, 10.615755, 38.375000
-8.126076, 10.476074, 38.500000
-8.126076, 10.476074, 38.625000
-8.342772, 10.755436, 38.750000
-8.342772, 10.755436, 38.875000
-8.451119, 10.895117, 39.000000
-8.451119, 10.895117, 39.125000
-8.559467, 11.034798, 39.250000
-8.451119, 10.895117, 39.375000
-8.559467, 11.034798, 39.500000
-8.667815, 11.174479, 39.625000
-8.667815, 11.174479, 39.750000
-8.776162, 11.314160, 39.875000
-8.776162, 11.314160, 40.000000
-8.776162, 11.314160, 40.125000
-8.884510, 11.453841, 40.250000
-8.884510, 11.453841, 40.375000
-8.884510, 11.453841, 40.500000
-9.101205, 11.733203, 40.625000
-9.101205, 11.733203, 40.750000
-9.101205, 11.733203, 40.875000
-9.101205, 11.733203, 41.000000
-9.209553, 11.872884, 41.125000
-9.209553, 11.872884, 41.250000
-9.209553, 11.872884, 41.375000
-9.317901, 12.012565, 41.500000
-9.317901, 12.012565, 41.625000
-9.426248, 12.152246, 41.750000
-9.426248, 12.152246, 41.875000
-9.426248, 12.152246, 42.000000
-9.426248, 12.152246, 42.125000
-9.534596, 12.291927, 42.250000
-9.642944, 12.431608, 42.375000
-9.642944, 12.431608, 42.500000
-9.751292, 12.571289, 42.625000
-9.751292, 12.571289, 42.750000
-9.859639, 12.710970, 42.875000
-9.751292, 12.571289, 43.000000
-9.859639, 12.710970, 43.125000
-9.967987, 12.850651, 43.250000
-9.967987, 12.850651, 43.375000
-9.967987, 12.850651, 43.500000
-9.967987, 12.850651, 43.625000
-9.967987, 12.850651, 43.750000
-10.184682, 13.130013, 43.875000
-10.184682, 13.130013, 44.000000
-10.184682, 13.130013, 44.125000
-10.184682, 13.130013, 44.250000
-10.293030, 13.269694, 44.375000
-10.401378, 13.409375, 44.500000
-10.401378, 13.409375, 44.625000
-10.401378, 13.409375, 44.750000
-10.509725, 13.549056, 44.875000
-10.509725, 13.549056, 45.000000
-10.618073, 13.688737, 45.125000
-10.618073, 13.688737, 45.250000
-10.726421, 13.828418, 45.375000
-10.726421, 13.828418, 45.500000
-10.726421, 13.828418, 45.625000
-10.834768, 13.968099, 45.750000
-10.834768, 13.968099, 45.875000
-10.943116, 14.107780, 46.000000
-10.943116, 14.107780, 46.125000
-11.051464, 14.247461, 46.250000
-11.051464, 14.247461, 46.375000
-11.159811, 14.387142, 46.500000
-11.159811, 14.387142, 46.625000
-11.159811, 14.387142, 46.750000
-11.268159, 14.526823, 46.875000
-11.268159, 14.526823, 47.000000
-11.268159, 14.526823, 47.125000
-11.376507, 14.666504, 47.250000
-11.376507, 14.666504, 47.375000
-11.484854, 14.806185, 47.500000
-11.484854, 14.806185, 47.625000
-11.593202, 14.945866, 47.750000
-11.593202, 14.945866, 47.875000
-11.593202, 14.945866, 48.000000
-11.593202, 14.945866, 48.125000
-11.809897, 15.225228, 48.250000
-11.809897, 15.225228, 48.375000
-11.701550, 15.085547, 48.500000
-11.918245, 15.364909, 48.625000
-11.809897, 15.225228, 48.750000
-11.918245, 15.364909, 48.875000
-11.918245, 15.364909, 49.000000
-12.026593, 15.504590, 49.125000
-12.026593, 15.504590, 49.250000
-12.134941, 15.644271, 49.375000
-12.026593, 15.504590, 49.500000
-12.243288, 15.783952, 49.625000
-12.134941, 15.644271, 49.750000
-12.243288, 15.783952, 49.875000
-12.351636, 15.923633, 50.000000
-12.351636, 15.923633, 50.125000
-12.351636, 15.923633, 50.250000
-12.351636, 15.923633, 50.375000
-12.459984, 16.063314, 50.500000
-12.568331, 16.202995, 50.625000
-12.568331, 16.202995, 50.750000
-12.568331, 16.202995, 50.875000
-12.676679, 16.342676, 51.000000
-12.676679, 16.342676, 51.125000
-12.785027, 16.482357, 51.250000
-12.893374, 16.622038, 51.375000
-12.893374, 16.622038, 51.500000
-12.893374, 16.622038, 51.625000
-12.893374, 16.622038, 51.750000
-13.001722, 16.761719, 51.875000
-13.001722, 16.761719, 52.000000
-13.001722, 16.761719, 52.125000
-13.110070, 16.901400, 52.250000
-13.110070, 16.901400, 52.375000
-13.218417, 17.041081, 52.500000
-13.326765, 17.180762, 52.625000
-13.326765, 17.180762, 52.750000
-13.326765, 17.180762, 52.875000
-13.435113, 17.320443, 53.000000
-13.435113, 17.320443, 53.125000
-13.435113, 17.320443, 53.250000
-13.435113, 17.320443, 53.375000
-13.543460, 17.460124, 53.500000
-13.543460, 17.460124, 53.625000
-13.651808, 17.599805, 53.750000
-13.760156, 17.739486, 53.875000
-13.760156, 17.739486, 54.000000
-13.760156, 17.739486, 54.125000
-13.760156, 17.739486, 54.250000
-13.868503, 17.879167, 54.375000
-13.868503, 17.879167, 54.500000
-13.868503, 17.879167, 54.625000
-14.085199, 18.158529, 54.750000
-14.085199, 18.158529, 54.875000
-14.085199, 18.158529, 55.000000
-14.085199, 18.158529, 55.125000
-14.193547, 18.298210, 55.250000
-14.301894, 18.437891, 55.375000
-14.193547, 18.298210, 55.500000
-14.193547, 18.298210, 55.625000
-14.301894, 18.437891, 55.750000
-14.410242, 18.577572, 55.875000
-14.410242, 18.577572, 56.000000
-14.410242, 18.577572, 56.125000
-14.518590, 18.717253, 56.250000
-14.518590, 18.717253, 56.375000
-14.518590, 18.717253, 56.500000
-14.626937, 18.856934, 56.625000
-14.735285, 18.996615, 56.750000
-14.735285, 18.996615, 56.875000
-14.735285, 18.996615, 57.000000
-14.735285, 18.996615, 57.125000
-14.843633, 19.136296, 57.250000
-14.843633, 19.136296, 57.375000
-14.843633, 19.136296, 57.500000
-14.951980, 19.275977, 57.625000
-14.951980, 19.275977, 57.750000
-14.951980, 19.275977, 57.875000
-15.060328, 19.415658, 58.000000
-15.060328, 19.415658, 58.125000
-15.168676, 19.555339, 58.250000
-15.277023, 19.695020, 58.375000
-15.168676, 19.555339, 58.500000
-15.168676, 19.555339, 58.625000
-15.168676, 19.555339, 58.750000
-15.277023, 19.695020, 58.875000
-15.385371, 19.834701, 59.000000
-15.493719, 19.974382, 59.125000
-15.385371, 19.834701, 59.250000
-15.602066, 20.114063, 59.375000
-15.602066, 20.114063, 59.500000
-15.602066, 20.114063, 59.625000
-15.818762, 20.393425, 59.750000
-15.710414, 20.253744, 59.875000
-15.818762, 20.393425, 60.000000
-15.710414, 20.253744, 60.125000
-15.818762, 20.393425, 60.250000
-15.927109, 20.533106, 60.375000
-15.927109, 20.533106, 60.500000
-15.927109, 20.533106, 60.625000
-16.143805, 20.812468, 60.750000
-16.035457, 20.672787, 60.875000
-16.143805, 20.812468, 61.000000
-16.143805, 20.812468, 61.125000
-16.252153, 20.952149, 61.250000
-16.252153, 20.952149, 61.375000
-16.252153, 20.952149, 61.500000
-16.360500, 21.091830, 61.625000
-16.360500, 21.091830, 61.750000
-16.468848, 21.231511, 61.875000
-16.468848, 21.231511, 62.000000
-16.468848, 21.231511, 62.125000
-16.577196, 21.371192, 62.250000
-16.577196, 21.371192, 62.375000
-16.685543, 21.510873, 62.500000
-16.685543, 21.510873, 62.625000
-16.685543, 21.510873, 62.750000
-16.793891, 21.650554, 62.875000
-16.793891, 21.650554, 63.000000
-16.793891, 21.650554, 63.125000
-16.793891, 21.650554, 63.250000
-17.010586, 21.929916, 63.375000
-16.902239, 21.790235, 63.500000
-17.010586, 21.929916, 63.625000
-17.010586, 21.929916, 63.750000
-17.118934, 22.069597, 63.875000
-17.118934, 22.069597, 64.000000
-17.227282, 22.209278, 64.125000
-17.227282, 22.209278, 64.250000
-17.227282, 22.209278, 64.375000
-17.227282, 22.209278, 64.500000
-17.335629, 22.348959, 64.625000
-17.443977, 22.488640, 64.750000
-17.443977, 22.488640, 64.875000
-17.443977, 22.488640, 65.000000
-17.443977, 22.488640, 65.125000
-17.552325, 22.628321, 65.250000
-17.552325, 22.628321, 65.375000
-17.660672, 22.768002, 65.500000
-17.660672, 22.768002, 65.625000
-17.660672, 22.768002, 65.750000
-17.769020, 22.907683, 65.875000
-17.769020, 22.907683, 66.000000
-17.877368, 23.047364, 66.125000
-17.985715, 23.187045, 66.250000
-17.985715, 23.187045, 66.375000
-17.985715, 23.187045, 66.500000
-18.094063, 23.326726, 66.625000
-18.094063, 23.326726, 66.750000
-18.094063, 23.326726, 66.875000
-18.094063, 23.326726, 67.000000
-18.202411, 23.466407, 67.125000
-18.310759, 23.606088, 67.250000
-18.310759, 23.606088, 67.375000
-18.310759, 23.606088, 67.500000
-18.310759, 23.606088, 67.625000
-18.419106, 23.745769, 67.750000
-18.419106, 23.745769, 67.875000
-18.527454, 23.885450, 68.000000
-18.635802, 24.025131, 68.125000
-18.527454, 23.885450, 68.250000
-18.635802, 24.025131, 68.375000
-18.635802, 24.025131, 68.500000
-18.635802, 24.025131, 68.625000
-18.744149, 24.164812, 68.750000
-18.744149, 24.164812, 68.875000
-18.852497, 24.304493, 69.000000
-18.960845, 24.444174, 69.125000
-18.960845, 24.444174, 69.250000
-18.960845, 24.444174, 69.375000
-18.960845, 24.444174, 69.500000
-19.069192, 24.583855, 69.625000
-19.069192, 24.583855, 69.750000
-19.069192, 24.583855, 69.875000
-19.177540, 24.723536, 70.000000
-19.285888, 24.863217, 70.125000
-19.285888, 24.863217, 70.250000
-19.285888, 24.863217, 70.375000
-19.394235, 25.002898, 70.500000
-19.394235, 25.002898, 70.625000
-19.394235, 25.002898, 70.750000
-19.394235, 25.002898, 70.875000
-19.610931, 25.282260, 71.000000
-19.610931, 25.282260, 71.125000
-19.610931, 25.282260, 71.250000
-19.719278, 25.421941, 71.375000
-19.719278, 25.421941, 71.500000
-19.719278, 25.421941, 71.625000
-19.827626, 25.561622, 71.750000
-19.935974, 25.701303, 71.875000
-19.935974, 25.701303, 72.000000
-19.935974, 25.701303, 72.125000
-20.044321, 25.840983, 72.250000
-19.935974, 25.701303, 72.375000
-20.044321, 25.840983, 72.500000
-20.152669, 25.980664, 72.625000
-20.152669, 25.980664, 72.750000
-20.261017, 26.120345, 72.875000
-20.369364, 26.260026, 73.000000
-20.369364, 26.260026, 73.125000
-20.369364, 26.260026, 73.250000
-20.586060, 26.539388, 73.375000
-20.586060, 26.539388, 73.500000
-20.586060, 26.539388, 73.625000
-20.586060, 26.539388, 73.750000
-20.586060, 26.539388, 73.875000
-20.694408, 26.679069, 74.000000
-20.694408, 26.679069, 74.125000
-20.911103, 26.958431, 74.250000
-20.911103, 26.958431, 74.375000
-20.911103, 26.958431, 74.500000
-20.911103, 26.958431, 74.625000
-21.019451, 27.098112, 74.750000
-21.019451, 27.098112, 74.875000
-21.019451, 27.098112, 75.000000
-21.019451, 27.098112, 75.125000
-21.127798, 27.237793, 75.250000
-21.236146, 27.377474, 75.375000
-21.236146, 27.377474, 75.500000
-21.236146, 27.377474, 75.625000
-21.344494, 27.517155, 75.750000
-21.344494, 27.517155, 75.875000
-21.452841, 27.656836, 76.000000
-21.561189, 27.796517, 76.125000
-21.561189, 27.796517, 76.250000
-21.561189, 27.796517, 76.375000
-21.669537, 27.936198, 76.500000
-21.777884, 28.075879, 76.625000
-21.777884, 28.075879, 76.750000
-21.886232, 28.215560, 76.875000
-21.886232, 28.215560, 77.000000
-21.886232, 28.215560, 77.125000
-21.994580, 28.355241, 77.250000
-21.994580, 28.355241, 77.375000
-21.994580, 28.355241, 77.500000
-22.102927, 28.494922, 77.625000
-22.211275, 28.634603, 77.750000
-22.211275, 28.634603, 77.875000
-22.211275, 28.634603, 78.000000
-22.211275, 28.634603, 78.125000
-22.319623, 28.774284, 78.250000
-22.427970, 28.913965, 78.375000
-22.427970, 28.913965, 78.500000
-22.427970, 28.913965, 78.625000
-22.427970, 28.913965, 78.750000
-22.644666, 29.193327, 78.875000
-22.536318, 29.053646, 79.000000
-22.644666, 29.193327, 79.125000
-22.753014, 29.333008, 79.250000
-22.536318, 29.053646, 79.375000
-22.536318, 29.053646, 79.500000
-22.644666, 29.193327, 79.625000
-22.644666, 29.193327, 79.750000
-22.536318, 29.053646, 79.875000
-22.644666, 29.193327, 80.000000
-22.753014, 29.333008, 80.125000
-22.861361, 29.472689, 80.250000
-4.507268, 5.448351, 24.750000
-4.281905, 5.175934, 24.875000
-4.169223, 5.039725, 25.000000
-4.281905, 5.175934, 25.125000
-4.281905, 5.175934, 25.250000
-4.169223, 5.039725, 25.375000
-4.169223, 5.039725, 25.500000
-4.169223, 5.039725, 25.625000
-4.281905, 5.175934, 25.750000
