-2.235968, -10.003147, 48.875000
-2.235968, -10.003147, 49.000000
-2.235968, -10.003147, 49.125000
-2.235968, -10.003147, 49.250000
-2.235968, -10.003147, 49.375000
-2.290504, -10.247126, 49.500000
-2.290504, -10.247126, 49.625000
-2.290504, -10.247126, 49.750000
-2.290504, -10.247126, 49.875000
-2.345040, -10.491105, 50.000000
-2.345040, -10.491105, 50.125000
-2.399576, -10.735084, 50.250000
-2.399576, -10.735084, 50.375000
-2.399576, -10.735084, 50.500000
-2.454111, -10.979064, 50.625000
-2.454111, -10.979064, 50.750000
-2.454111, -10.979064, 50.875000
-2.454111, -10.979064, 51.000000
-2.454111, -10.979064, 51.125000
-2.563183, -11.467022, 51.250000
-2.508647, -11.223043, 51.375000
-2.508647, -11.223043, 51.500000
-2.508647, -11.223043, 51.625000
-2.563183, -11.467022, 51.750000
-2.563183, -11.467022, 51.875000
-2.563183, -11.467022, 52.000000
-2.617719, -11.711001, 52.125000
-2.617719, -11.711001, 52.250000
-2.672255, -11.954980, 52.375000
-2.672255, -11.954980, 52.500000
-2.672255, -11.954980, 52.625000
-2.672255, -11.954980, 52.750000
-2.672255, -11.954980, 52.875000
-2.726791, -12.198960, 53.000000
-2.726791, -12.198960, 53.125000
-2.781326, -12.442939, 53.250000
-2.781326, -12.442939, 53.375000
-2.781326, -12.442939, 53.500000
-2.781326, -12.442939, 53.625000
-2.835862, -12.686918, 53.750000
-2.835862, -12.686918, 53.875000
-2.835862, -12.686918, 54.000000
-2.835862, -12.686918, 54.125000
-2.835862, -12.686918, 54.250000
-2.890398, -12.930897, 54.375000
-2.890398, -12.930897, 54.500000
-2.944934, -13.174876, 54.625000
-2.944934, -13.174876, 54.750000
-2.999470, -13.418855, 54.875000
-2.999470, -13.418855, 55.000000
-2.999470, -13.418855, 55.125000
-2.999470, -13.418855, 55.250000
-2.999470, -13.418855, 55.375000
-2.999470, -13.418855, 55.500000
-3.054005, -13.662835, 55.625000
-3.054005, -13.662835, 55.750000
-3.108541, -13.906814, 55.875000
-3.108541, -13.906814, 56.000000
-3.108541, -13.906814, 56.125000
-3.108541, -13.906814, 56.250000
-3.163077, -14.150793, 56.375000
-3.163077, -14.150793, 56.500000
-3.163077, -14.150793, 56.625000
-3.272149, -14.638751, 56.750000
-3.217613, -14.394772, 56.875000
-3.217613, -14.394772, 57.000000
-3.272149, -14.638751, 57.125000
-3.272149, -14.638751, 57.250000
-3.272149, -14.638751, 57.375000
-3.272149, -14.638751, 57.500000
-3.326684, -14.882731, 57.625000
-3.326684, -14.882731, 57.750000
-3.326684, -14.882731, 57.875000
-3.381220, -15.126710, 58.000000
-3.435756, -15.370689, 58.125000
-3.381220, -15.126710, 58.250000
-3.435756, -15.370689, 58.375000
-3.435756, -15.370689, 58.500000
-3.435756, -15.370689, 58.625000
-3.435756, -15.370689, 58.750000
-3.490292, -15.614668, 58.875000
-3.544828, -15.858647, 59.000000
-3.490292, -15.614668, 59.125000
-3.544828, -15.858647, 59.250000
-3.544828, -15.858647, 59.375000
-3.599363, -16.102627, 59.500000
-3.599363, -16.102627, 59.625000
-3.653899, -16.346606, 59.750000
-3.653899, -16.346606, 59.875000
-3.653899, -16.346606, 60.000000
-3.653899, -16.346606, 60.125000
-3.653899, -16.346606, 60.250000
-3.708435, -16.590585, 60.375000
-3.762971, -16.834564, 60.500000
-3.762971, -16.834564, 60.625000
-3.762971, -16.834564, 60.750000
-3.762971, -16.834564, 60.875000
-3.817507, -17.078543, 61.000000
-3.817507, -17.078543, 61.125000
-3.817507, -17.078543, 61.250000
-3.817507, -17.078543, 61.375000
-3.817507, -17.078543, 61.500000
-3.872043, -17.322523, 61.625000
-3.872043, -17.322523, 61.750000
-3.926578, -17.566502, 61.875000
-3.926578, -17.566502, 62.000000
-3.926578, -17.566502, 62.125000
-3.981114, -17.810481, 62.250000
-3.981114, -17.810481, 62.375000
-3.981114, -17.810481, 62.500000
-3.981114, -17.810481, 62.625000
-3.981114, -17.810481, 62.750000
-4.035650, -18.054460, 62.875000
-4.035650, -18.054460, 63.000000
-4.090186, -18.298439, 63.125000
-4.090186, -18.298439, 63.250000
-4.144722, -18.542418, 63.375000
-4.144722, -18.542418, 63.500000
-4.144722, -18.542418, 63.625000
-4.199257, -18.786398, 63.750000
-4.199257, -18.786398, 63.875000
-4.253793, -19.030377, 64.000000
-4.199257, -18.786398, 64.125000
-4.199257, -18.786398, 64.250000
-4.253793, -19.030377, 64.375000
-4.308329, -19.274356, 64.500000
-4.253793, -19.030377, 64.625000
-4.308329, -19.274356, 64.750000
-4.308329, -19.274356, 64.875000
-4.308329, -19.274356, 65.000000
-4.362865, -19.518335, 65.125000
-4.362865, -19.518335, 65.250000
-4.362865, -19.518335, 65.375000
-4.362865, -19.518335, 65.500000
-4.417401, -19.762314, 65.625000
-4.417401, -19.762314, 65.750000
-4.417401, -19.762314, 65.875000
-4.471936, -20.006294, 66.000000
-4.471936, -20.006294, 66.125000
-4.471936, -20.006294, 66.250000
-4.471936, -20.006294, 66.375000
-4.526472, -20.250273, 66.500000
-4.526472, -20.250273, 66.625000
-4.526472, -20.250273, 66.750000
-4.581008, -20.494252, 66.875000
-4.581008, -20.494252, 67.000000
-4.581008, -20.494252, 67.125000
-4.635544, -20.738231, 67.250000
-4.635544, -20.738231, 67.375000
-4.690080, -20.982210, 67.500000
-4.690080, -20.982210, 67.625000
-4.690080, -20.982210, 67.750000
-4.744616, -21.226190, 67.875000
-4.690080, -20.982210, 68.000000
-4.744616, -21.226190, 68.125000
-4.744616, -21.226190, 68.250000
-4.744616, -21.226190, 68.375000
-4.799151, -21.470169, 68.500000
-4.799151, -21.470169, 68.625000
-4.853687, -21.714148, 68.750000
-4.853687, -21.714148, 68.875000
-4.853687, -21.714148, 69.000000
-4.908223, -21.958127, 69.125000
-4.908223, -21.958127, 69.250000
-4.962759, -22.202106, 69.375000
-4.908223, -21.958127, 69.500000
-4.908223, -21.958127, 69.625000
-5.017295, -22.446086, 69.750000
-5.017295, -22.446086, 69.875000
-4.962759, -22.202106, 70.000000
-5.017295, -22.446086, 70.125000
-5.071830, -22.690065, 70.250000
-5.071830, -22.690065, 70.375000
-5.126366, -22.934044, 70.500000
-5.071830, -22.690065, 70.625000
-5.126366, -22.934044, 70.750000
-5.126366, -22.934044, 70.875000
-5.126366, -22.934044, 71.000000
-5.180902, -23.178023, 71.125000
-5.180902, -23.178023, 71.250000
-5.180902, -23.178023, 71.375000
-5.180902, -23.178023, 71.500000
-5.180902, -23.178023, 71.625000
-5.235438, -23.422002, 71.750000
-5.235438, -23.422002, 71.875000
-5.289974, -23.665981, 72.000000
-5.235438, -23.422002, 72.125000
-5.289974, -23.665981, 72.250000
-5.289974, -23.665981, 72.375000
-5.344509, -23.909961, 72.500000
-5.344509, -23.909961, 72.625000
-5.344509, -23.909961, 72.750000
-5.344509, -23.909961, 72.875000
-5.399045, -24.153940, 73.000000
-5.399045, -24.153940, 73.125000
-5.399045, -24.153940, 73.250000
-5.399045, -24.153940, 73.375000
-5.453581, -24.397919, 73.500000
-5.453581, -24.397919, 73.625000
-5.508117, -24.641898, 73.750000
-5.508117, -24.641898, 73.875000
-5.508117, -24.641898, 74.000000
-5.562653, -24.885877, 74.125000
-5.617188, -25.129857, 74.250000
-5.562653, -24.885877, 74.375000
-5.562653, -24.885877, 74.500000
-5.617188, -25.129857, 74.625000
-5.671724, -25.373836, 74.750000
-5.671724, -25.373836, 74.875000
-5.671724, -25.373836, 75.000000
-5.671724, -25.373836, 75.125000
-5.726260, -25.617815, 75.250000
-5.726260, -25.617815, 75.375000
-5.780796, -25.861794, 75.500000
-5.780796, -25.861794, 75.625000
-5.780796, -25.861794, 75.750000
-5.780796, -25.861794, 75.875000
-5.835332, -26.105773, 76.000000
-5.835332, -26.105773, 76.125000
-5.835332, -26.105773, 76.250000
-5.889868, -26.349753, 76.375000
-5.889868, -26.349753, 76.500000
-5.889868, -26.349753, 76.625000
-5.889868, -26.349753, 76.750000
-5.944403, -26.593732, 76.875000
-5.944403, -26.593732, 77.000000
-5.944403, -26.593732, 77.125000
-5.998939, -26.837711, 77.250000
-6.053475, -27.081690, 77.375000
-6.053475, -27.081690, 77.500000
-6.053475, -27.081690, 77.625000
-6.053475, -27.081690, 77.750000
-6.053475, -27.081690, 77.875000
-6.053475, -27.081690, 78.000000
-6.108011, -27.325669, 78.125000
-6.162547, -27.569649, 78.250000
-6.162547, -27.569649, 78.375000
-6.162547, -27.569649, 78.500000
-6.162547, -27.569649, 78.625000
-6.217082, -27.813628, 78.750000
-6.271618, -28.057607, 78.875000
-6.217082, -27.813628, 79.000000
-6.271618, -28.057607, 79.125000
-6.271618, -28.057607, 79.250000
-6.271618, -28.057607, 79.375000
-6.271618, -28.057607, 79.500000
-6.326154, -28.301586, 79.625000
-6.380690, -28.545565, 79.750000
-6.326154, -28.301586, 79.875000
-6.326154, -28.301586, 80.000000
-6.326154, -28.301586, 80.125000
-6.380690, -28.545565, 80.250000
-6.380690, -28.545565, 80.375000
-6.435226, -28.789544, 80.500000
-6.380690, -28.545565, 80.625000
-6.380690, -28.545565, 80.750000
-6.435226, -28.789544, 80.875000
-6.435226, -28.789544, 81.000000
-6.489761, -29.033524, 81.125000
-6.435226, -28.789544, 81.250000
-6.489761, -29.033524, 81.375000
-6.271618, -28.057607, 81.500000
-11.343449, -50.747672, 102.250000
-1.311669, -6.876011, 43.375000
-1.264824, -6.630439, 43.500000
-1.311669, -6.876011, 43.625000
-1.358515, -7.121583, 43.750000
-1.358515, -7.121583, 43.875000
-1.358515, -7.121583, 44.000000
-1.358515, -7.121583, 44.125000
-1.358515, -7.121583, 44.250000
-1.405360, -7.367154, 44.375000
-1.405360, -7.367154, 44.500000
-1.405360, -7.367154, 44.625000
-1.452205, -7.612726, 44.750000
-1.405360, -7.367154, 44.875000
-1.405360, -7.367154, 45.000000
-1.405360, -7.367154, 45.125000
-1.452205, -7.612726, 45.250000
-1.499051, -7.858298, 45.375000
-1.499051, -7.858298, 45.500000
-1.499051, -7.858298, 45.625000
-1.545896, -8.103870, 45.750000
-1.499051, -7.858298, 45.875000
-1.592741, -8.349442, 46.000000
-1.545896, -8.103870, 46.125000
-1.592741, -8.349442, 46.250000
-1.592741, -8.349442, 46.375000
-1.592741, -8.349442, 46.500000
-1.639587, -8.595013, 46.625000
-1.639587, -8.595013, 46.750000
-1.639587, -8.595013, 46.875000
-1.686432, -8.840585, 47.000000
-1.686432, -8.840585, 47.125000
-1.686432, -8.840585, 47.250000
-1.686432, -8.840585, 47.375000
-1.686432, -8.840585, 47.500000
-1.733277, -9.086157, 47.625000
-1.733277, -9.086157, 47.750000
-1.733277, -9.086157, 47.875000
-1.780122, -9.331729, 48.000000
-1.780122, -9.331729, 48.125000
-1.780122, -9.331729, 48.250000
-1.826968, -9.577301, 48.375000
-1.873813, -9.822873, 48.500000
-1.826968, -9.577301, 48.625000
-1.826968, -9.577301, 48.750000
-1.826968, -9.577301, 48.875000
-1.873813, -9.822873, 49.000000
-1.873813, -9.822873, 49.125000
-1.920658, -10.068444, 49.250000
-1.920658, -10.068444, 49.375000
-1.920658, -10.068444, 49.500000
-1.920658, -10.068444, 49.625000
-1.920658, -10.068444, 49.750000
-1.920658, -10.068444, 49.875000
-2.014349, -10.559588, 50.000000
-1.967504, -10.314016, 50.125000
-2.014349, -10.559588, 50.250000
-2.014349, -10.559588, 50.375000
-2.014349, -10.559588, 50.500000
-2.014349, -10.559588, 50.625000
-2.061194, -10.805160, 50.750000
-2.061194, -10.805160, 50.875000
-2.061194, -10.805160, 51.000000
-2.061194, -10.805160, 51.125000
-2.108040, -11.050732, 51.250000
-2.108040, -11.050732, 51.375000
-2.108040, -11.050732, 51.500000
-2.154885, -11.296303, 51.625000
-2.154885, -11.296303, 51.750000
-2.154885, -11.296303, 51.875000
-2.201730, -11.541875, 52.000000
-2.201730, -11.541875, 52.125000
-2.201730, -11.541875, 52.250000
-2.201730, -11.541875, 52.375000
-2.248576, -11.787447, 52.500000
-2.248576, -11.787447, 52.625000
-2.248576, -11.787447, 52.750000
-2.295421, -12.033019, 52.875000
-2.295421, -12.033019, 53.000000
-2.342266, -12.278591, 53.125000
-2.342266, -12.278591, 53.250000
-2.342266, -12.278591, 53.375000
-2.342266, -12.278591, 53.500000
-2.342266, -12.278591, 53.625000
-2.389112, -12.524162, 53.750000
-2.389112, -12.524162, 53.875000
-2.389112, -12.524162, 54.000000
-2.435957, -12.769734, 54.125000
-2.435957, -12.769734, 54.250000
-2.435957, -12.769734, 54.375000
-2.435957, -12.769734, 54.500000
-2.482802, -13.015306, 54.625000
-2.482802, -13.015306, 54.750000
-2.482802, -13.015306, 54.875000
-2.529648, -13.260878, 55.000000
-2.529648, -13.260878, 55.125000
-2.576493, -13.506450, 55.250000
-2.576493, -13.506450, 55.375000
-2.576493, -13.506450, 55.500000
-2.623338, -13.752022, 55.625000
-2.623338, -13.752022, 55.750000
-2.623338, -13.752022, 55.875000
-2.670184, -13.997593, 56.000000
-2.670184, -13.997593, 56.125000
-2.670184, -13.997593, 56.250000
-2.670184, -13.997593, 56.375000
-2.717029, -14.243165, 56.500000
-2.717029, -14.243165, 56.625000
-2.717029, -14.243165, 56.750000
-2.763874, -14.488737, 56.875000
-2.763874, -14.488737, 57.000000
-2.763874, -14.488737, 57.125000
-2.810720, -14.734309, 57.250000
-2.810720, -14.734309, 57.375000
-2.810720, -14.734309, 57.500000
-2.857565, -14.979881, 57.625000
-2.810720, -14.734309, 57.750000
-2.857565, -14.979881, 57.875000
-2.904410, -15.225452, 58.000000
-2.904410, -15.225452, 58.125000
-2.904410, -15.225452, 58.250000
-2.904410, -15.225452, 58.375000
-2.951256, -15.471024, 58.500000
-2.951256, -15.471024, 58.625000
-2.998101, -15.716596, 58.750000
-3.044946, -15.962168, 58.875000
-2.998101, -15.716596, 59.000000
-3.044946, -15.962168, 59.125000
-3.044946, -15.962168, 59.250000
-3.091792, -16.207740, 59.375000
-3.091792, -16.207740, 59.500000
-3.091792, -16.207740, 59.625000
-3.091792, -16.207740, 59.750000
-3.091792, -16.207740, 59.875000
-3.185482, -16.698883, 60.000000
-3.138637, -16.453311, 60.125000
-3.138637, -16.453311, 60.250000
-3.138637, -16.453311, 60.375000
-3.185482, -16.698883, 60.500000
-3.185482, -16.698883, 60.625000
-3.232328, -16.944455, 60.750000
-3.232328, -16.944455, 60.875000
-3.232328, -16.944455, 61.000000
-3.279173, -17.190027, 61.125000
-3.279173, -17.190027, 61.250000
-3.279173, -17.190027, 61.375000
-3.279173, -17.190027, 61.500000
-3.326018, -17.435599, 61.625000
-3.326018, -17.435599, 61.750000
-3.372864, -17.681171, 61.875000
-3.372864, -17.681171, 62.000000
-3.372864, -17.681171, 62.125000
-3.372864, -17.681171, 62.250000
-3.419709, -17.926742, 62.375000
-3.419709, -17.926742, 62.500000
-3.419709, -17.926742, 62.625000
-3.419709, -17.926742, 62.750000
-3.466554, -18.172314, 62.875000
-3.466554, -18.172314, 63.000000
-3.513400, -18.417886, 63.125000
-3.513400, -18.417886, 63.250000
-3.513400, -18.417886, 63.375000
-3.513400, -18.417886, 63.500000
-3.560245, -18.663458, 63.625000
-3.560245, -18.663458, 63.750000
-3.607090, -18.909030, 63.875000
-3.607090, -18.909030, 64.000000
-3.607090, -18.909030, 64.125000
-3.653936, -19.154601, 64.250000
-3.653936, -19.154601, 64.375000
-3.653936, -19.154601, 64.500000
-3.653936, -19.154601, 64.625000
-3.700781, -19.400173, 64.750000
-3.700781, -19.400173, 64.875000
-3.747626, -19.645745, 65.000000
-3.747626, -19.645745, 65.125000
-3.747626, -19.645745, 65.250000
-3.747626, -19.645745, 65.375000
-3.794472, -19.891317, 65.500000
-3.794472, -19.891317, 65.625000
-3.841317, -20.136889, 65.750000
-3.841317, -20.136889, 65.875000
-3.888162, -20.382460, 66.000000
-3.841317, -20.136889, 66.125000
-3.841317, -20.136889, 66.250000
-3.888162, -20.382460, 66.375000
-3.888162, -20.382460, 66.500000
-3.935008, -20.628032, 66.625000
-3.935008, -20.628032, 66.750000
-3.935008, -20.628032, 66.875000
-3.981853, -20.873604, 67.000000
-3.981853, -20.873604, 67.125000
-3.981853, -20.873604, 67.250000
-4.028698, -21.119176, 67.375000
-4.028698, -21.119176, 67.500000
-4.028698, -21.119176, 67.625000
-4.075544, -21.364748, 67.750000
-4.075544, -21.364748, 67.875000
-4.075544, -21.364748, 68.000000
-4.075544, -21.364748, 68.125000
-4.075544, -21.364748, 68.250000
-4.122389, -21.610320, 68.375000
-4.122389, -21.610320, 68.500000
-4.122389, -21.610320, 68.625000
-4.169234, -21.855891, 68.750000
-4.169234, -21.855891, 68.875000
-4.169234, -21.855891, 69.000000
-4.216080, -22.101463, 69.125000
-4.262925, -22.347035, 69.250000
-4.262925, -22.347035, 69.375000
-4.262925, -22.347035, 69.500000
-4.262925, -22.347035, 69.625000
-4.262925, -22.347035, 69.750000
-4.309770, -22.592607, 69.875000
-4.309770, -22.592607, 70.000000
-4.356616, -22.838179, 70.125000
-4.356616, -22.838179, 70.250000
-4.356616, -22.838179, 70.375000
-4.403461, -23.083750, 70.500000
-4.403461, -23.083750, 70.625000
-4.403461, -23.083750, 70.750000
-4.403461, -23.083750, 70.875000
-4.450306, -23.329322, 71.000000
-4.450306, -23.329322, 71.125000
-4.450306, -23.329322, 71.250000
-4.497152, -23.574894, 71.375000
-4.497152, -23.574894, 71.500000
-4.497152, -23.574894, 71.625000
-4.543997, -23.820466, 71.750000
-4.543997, -23.820466, 71.875000
-4.590842, -24.066038, 72.000000
-4.590842, -24.066038, 72.125000
-4.590842, -24.066038, 72.250000
-4.590842, -24.066038, 72.375000
-4.637688, -24.311609, 72.500000
-4.637688, -24.311609, 72.625000
-4.637688, -24.311609, 72.750000
-4.684533, -24.557181, 72.875000
-4.684533, -24.557181, 73.000000
-4.684533, -24.557181, 73.125000
-4.731378, -24.802753, 73.250000
-4.731378, -24.802753, 73.375000
-4.731378, -24.802753, 73.500000
-4.778224, -25.048325, 73.625000
-4.778224, -25.048325, 73.750000
-4.778224, -25.048325, 73.875000
-4.778224, -25.048325, 74.000000
-4.825069, -25.293897, 74.125000
-4.871914, -25.539469, 74.250000
-4.871914, -25.539469, 74.375000
-4.871914, -25.539469, 74.500000
-4.871914, -25.539469, 74.625000
-4.918760, -25.785040, 74.750000
-4.918760, -25.785040, 74.875000
-4.918760, -25.785040, 75.000000
-4.918760, -25.785040, 75.125000
-4.965605, -26.030612, 75.250000
-4.965605, -26.030612, 75.375000
-5.012450, -26.276184, 75.500000
-5.012450, -26.276184, 75.625000
-5.012450, -26.276184, 75.750000
-5.059295, -26.521756, 75.875000
-5.059295, -26.521756, 76.000000
-5.059295, -26.521756, 76.125000
-5.059295, -26.521756, 76.250000
-5.106141, -26.767328, 76.375000
-5.152986, -27.012899, 76.500000
-5.152986, -27.012899, 76.625000
-5.152986, -27.012899, 76.750000
-5.152986, -27.012899, 76.875000
-5.152986, -27.012899, 77.000000
-5.152986, -27.012899, 77.125000
-5.199831, -27.258471, 77.250000
-5.199831, -27.258471, 77.375000
-5.246677, -27.504043, 77.500000
-5.246677, -27.504043, 77.625000
-5.246677, -27.504043, 77.750000
-5.293522, -27.749615, 77.875000
-5.293522, -27.749615, 78.000000
-5.293522, -27.749615, 78.125000
-5.340367, -27.995187, 78.250000
-5.340367, -27.995187, 78.375000
-5.340367, -27.995187, 78.500000
-5.340367, -27.995187, 78.625000
-5.387213, -28.240758, 78.750000
-5.387213, -28.240758, 78.875000
-5.387213, -28.240758, 79.000000
-5.434058, -28.486330, 79.125000
-5.434058, -28.486330, 79.250000
-5.434058, -28.486330, 79.375000
-5.480903, -28.731902, 79.500000
-5.480903, -28.731902, 79.625000
-5.480903, -28.731902, 79.750000
-5.480903, -28.731902, 79.875000
-5.527749, -28.977474, 80.000000
-5.527749, -28.977474, 80.125000
-5.527749, -28.977474, 80.250000
-5.527749, -28.977474, 80.375000
-5.574594, -29.223046, 80.500000
-5.574594, -29.223046, 80.625000
-5.574594, -29.223046, 80.750000
-5.574594, -29.223046, 80.875000
-5.621439, -29.468618, 81.000000
-5.621439, -29.468618, 81.125000
-5.574594, -29.223046, 81.250000
-5.621439, -29.468618, 81.375000
-5.621439, -29.468618, 81.500000
-9.743828, -51.078937, 102.250000
-1.134150, -7.160740, 43.500000
-1.173258, -7.407663, 43.625000
-1.134150, -7.160740, 43.750000
-1.134150, -7.160740, 43.875000
-1.212367, -7.654585, 44.000000
-1.173258, -7.407663, 44.125000
-1.173258, -7.407663, 44.250000
-1.134150, -7.160740, 44.375000
-1.173258, -7.407663, 44.500000
-1.212367, -7.654585, 44.625000
-1.212367, -7.654585, 44.750000
-1.212367, -7.654585, 44.875000
-1.251476, -7.901507, 45.000000
-1.212367, -7.654585, 45.125000
-1.251476, -7.901507, 45.250000
-1.251476, -7.901507, 45.375000
-1.290584, -8.148429, 45.500000
-1.290584, -8.148429, 45.625000
-1.290584, -8.148429, 45.750000
-1.290584, -8.148429, 45.875000
-1.329693, -8.395351, 46.000000
-1.329693, -8.395351, 46.125000
-1.329693, -8.395351, 46.250000
-1.329693, -8.395351, 46.375000
-1.368802, -8.642273, 46.500000
-1.368802, -8.642273, 46.625000
-1.407910, -8.889195, 46.750000
-1.407910, -8.889195, 46.875000
-1.407910, -8.889195, 47.000000
-1.447019, -9.136117, 47.125000
-1.447019, -9.136117, 47.250000
-1.447019, -9.136117, 47.375000
-1.486127, -9.383039, 47.500000
-1.486127, -9.383039, 47.625000
-1.447019, -9.136117, 47.750000
-1.486127, -9.383039, 47.875000
-1.486127, -9.383039, 48.000000
-1.486127, -9.383039, 48.125000
-1.564345, -9.876883, 48.250000
-1.525236, -9.629961, 48.375000
-1.564345, -9.876883, 48.500000
-1.564345, -9.876883, 48.625000
-1.564345, -9.876883, 48.750000
-1.603453, -10.123805, 48.875000
-1.603453, -10.123805, 49.000000
-1.603453, -10.123805, 49.125000
-1.603453, -10.123805, 49.250000
-1.642562, -10.370728, 49.375000
-1.642562, -10.370728, 49.500000
-1.681670, -10.617650, 49.625000
-1.681670, -10.617650, 49.750000
-1.642562, -10.370728, 49.875000
-1.642562, -10.370728, 50.000000
-1.681670, -10.617650, 50.125000
-1.720779, -10.864572, 50.250000
-1.720779, -10.864572, 50.375000
-1.720779, -10.864572, 50.500000
-1.720779, -10.864572, 50.625000
-1.720779, -10.864572, 50.750000
-1.720779, -10.864572, 50.875000
-1.759888, -11.111494, 51.000000
-1.759888, -11.111494, 51.125000
-1.759888, -11.111494, 51.250000
-1.798996, -11.358416, 51.375000
-1.798996, -11.358416, 51.500000
-1.838105, -11.605338, 51.625000
-1.877214, -11.852260, 51.750000
-1.838105, -11.605338, 51.875000
-1.838105, -11.605338, 52.000000
-1.838105, -11.605338, 52.125000
-1.877214, -11.852260, 52.250000
-1.877214, -11.852260, 52.375000
-1.916322, -12.099182, 52.500000
-1.916322, -12.099182, 52.625000
-1.916322, -12.099182, 52.750000
-1.955431, -12.346104, 52.875000
-1.955431, -12.346104, 53.000000
-1.955431, -12.346104, 53.125000
-1.994539, -12.593026, 53.250000
-1.994539, -12.593026, 53.375000
-1.994539, -12.593026, 53.500000
-1.994539, -12.593026, 53.625000
-2.033648, -12.839948, 53.750000
-2.033648, -12.839948, 53.875000
-2.033648, -12.839948, 54.000000
-2.072757, -13.086871, 54.125000
-2.033648, -12.839948, 54.250000
-2.072757, -13.086871, 54.375000
-2.072757, -13.086871, 54.500000
-2.111865, -13.333793, 54.625000
-2.111865, -13.333793, 54.750000
-2.111865, -13.333793, 54.875000
-2.111865, -13.333793, 55.000000
-2.111865, -13.333793, 55.125000
-2.150974, -13.580715, 55.250000
-2.150974, -13.580715, 55.375000
-2.150974, -13.580715, 55.500000
-2.190083, -13.827637, 55.625000
-2.190083, -13.827637, 55.750000
-2.229191, -14.074559, 55.875000
-2.229191, -14.074559, 56.000000
-2.229191, -14.074559, 56.125000
-2.268300, -14.321481, 56.250000
-2.268300, -14.321481, 56.375000
-2.268300, -14.321481, 56.500000
-2.307408, -14.568403, 56.625000
-2.307408, -14.568403, 56.750000
-2.346517, -14.815325, 56.875000
-2.346517, -14.815325, 57.000000
-2.346517, -14.815325, 57.125000
-2.346517, -14.815325, 57.250000
-2.346517, -14.815325, 57.375000
-2.385626, -15.062247, 57.500000
-2.385626, -15.062247, 57.625000
-2.385626, -15.062247, 57.750000
-2.424734, -15.309169, 57.875000
-2.463843, -15.556091, 58.000000
-2.463843, -15.556091, 58.125000
-2.502951, -15.803013, 58.250000
-2.463843, -15.556091, 58.375000
-2.463843, -15.556091, 58.500000
-2.502951, -15.803013, 58.625000
-2.542060, -16.049936, 58.750000
-2.542060, -16.049936, 58.875000
-2.542060, -16.049936, 59.000000
-2.542060, -16.049936, 59.125000
-2.542060, -16.049936, 59.250000
-2.542060, -16.049936, 59.375000
-2.620277, -16.543780, 59.500000
-2.581169, -16.296858, 59.625000
-2.620277, -16.543780, 59.750000
-2.620277, -16.543780, 59.875000
-2.659386, -16.790702, 60.000000
-2.659386, -16.790702, 60.125000
-2.659386, -16.790702, 60.250000
-2.659386, -16.790702, 60.375000
-2.659386, -16.790702, 60.500000
-2.698495, -17.037624, 60.625000
-2.737603, -17.284546, 60.750000
-2.737603, -17.284546, 60.875000
-2.737603, -17.284546, 61.000000
-2.737603, -17.284546, 61.125000
-2.737603, -17.284546, 61.250000
-2.776712, -17.531468, 61.375000
-2.776712, -17.531468, 61.500000
-2.776712, -17.531468, 61.625000
-2.854929, -18.025312, 61.750000
-2.815820, -17.778390, 61.875000
-2.815820, -17.778390, 62.000000
-2.854929, -18.025312, 62.125000
-2.854929, -18.025312, 62.250000
-2.854929, -18.025312, 62.375000
-2.854929, -18.025312, 62.500000
-2.854929, -18.025312, 62.625000
-2.894038, -18.272234, 62.750000
-2.894038, -18.272234, 62.875000
-2.933146, -18.519156, 63.000000
-2.933146, -18.519156, 63.125000
-2.933146, -18.519156, 63.250000
-2.972255, -18.766078, 63.375000
-2.972255, -18.766078, 63.500000
-2.972255, -18.766078, 63.625000
-2.972255, -18.766078, 63.750000
-3.011363, -19.013001, 63.875000
-3.011363, -19.013001, 64.000000
-3.011363, -19.013001, 64.125000
-3.050472, -19.259923, 64.250000
-3.050472, -19.259923, 64.375000
-3.089581, -19.506845, 64.500000
-3.089581, -19.506845, 64.625000
-3.089581, -19.506845, 64.750000
-3.089581, -19.506845, 64.875000
-3.128689, -19.753767, 65.000000
-3.128689, -19.753767, 65.125000
-3.167798, -20.000689, 65.250000
-3.167798, -20.000689, 65.375000
-3.167798, -20.000689, 65.500000
-3.206907, -20.247611, 65.625000
-3.206907, -20.247611, 65.750000
-3.206907, -20.247611, 65.875000
-3.246015, -20.494533, 66.000000
-3.246015, -20.494533, 66.125000
-3.285124, -20.741455, 66.250000
-3.285124, -20.741455, 66.375000
-3.285124, -20.741455, 66.500000
-3.285124, -20.741455, 66.625000
-3.324232, -20.988377, 66.750000
-3.324232, -20.988377, 66.875000
-3.324232, -20.988377, 67.000000
-3.324232, -20.988377, 67.125000
-3.363341, -21.235299, 67.250000
-3.363341, -21.235299, 67.375000
-3.363341, -21.235299, 67.500000
-3.402450, -21.482221, 67.625000
-3.402450, -21.482221, 67.750000
-3.402450, -21.482221, 67.875000
-3.441558, -21.729143, 68.000000
-3.441558, -21.729143, 68.125000
-3.441558, -21.729143, 68.250000
-3.441558, -21.729143, 68.375000
-3.441558, -21.729143, 68.500000
-3.480667, -21.976066, 68.625000
-3.519775, -22.222988, 68.750000
-3.519775, -22.222988, 68.875000
-3.519775, -22.222988, 69.000000
-3.519775, -22.222988, 69.125000
-3.558884, -22.469910, 69.250000
-3.558884, -22.469910, 69.375000
-3.558884, -22.469910, 69.500000
-3.597993, -22.716832, 69.625000
-3.597993, -22.716832, 69.750000
-3.637101, -22.963754, 69.875000
-3.597993, -22.716832, 70.000000
-3.637101, -22.963754, 70.125000
-3.676210, -23.210676, 70.250000
-3.637101, -22.963754, 70.375000
-3.676210, -23.210676, 70.500000
-3.676210, -23.210676, 70.625000
-3.715319, -23.457598, 70.750000
-3.715319, -23.457598, 70.875000
-3.715319, -23.457598, 71.000000
-3.754427, -23.704520, 71.125000
-3.754427, -23.704520, 71.250000
-3.754427, -23.704520, 71.375000
-3.754427, -23.704520, 71.500000
-3.793536, -23.951442, 71.625000
-3.832644, -24.198364, 71.750000
-3.793536, -23.951442, 71.875000
-3.832644, -24.198364, 72.000000
-3.832644, -24.198364, 72.125000
-3.832644, -24.198364, 72.250000
-3.871753, -24.445286, 72.375000
-3.871753, -24.445286, 72.500000
-3.871753, -24.445286, 72.625000
-3.871753, -24.445286, 72.750000
-3.910862, -24.692209, 72.875000
-3.910862, -24.692209, 73.000000
-3.910862, -24.692209, 73.125000
-3.910862, -24.692209, 73.250000
-3.949970, -24.939131, 73.375000
-3.989079, -25.186053, 73.500000
-3.989079, -25.186053, 73.625000
-3.989079, -25.186053, 73.750000
-3.989079, -25.186053, 73.875000
-4.028187, -25.432975, 74.000000
-4.028187, -25.432975, 74.125000
-4.067296, -25.679897, 74.250000
-4.067296, -25.679897, 74.375000
-4.106405, -25.926819, 74.500000
-4.106405, -25.926819, 74.625000
-4.106405, -25.926819, 74.750000
-4.145513, -26.173741, 74.875000
-4.145513, -26.173741, 75.000000
-4.145513, -26.173741, 75.125000
-4.145513, -26.173741, 75.250000
-4.145513, -26.173741, 75.375000
-4.184622, -26.420663, 75.500000
-4.184622, -26.420663, 75.625000
-4.223731, -26.667585, 75.750000
-4.223731, -26.667585, 75.875000
-4.223731, -26.667585, 76.000000
-4.262839, -26.914507, 76.125000
-4.262839, -26.914507, 76.250000
-4.262839, -26.914507, 76.375000
-4.301948, -27.161429, 76.500000
-4.301948, -27.161429, 76.625000
-4.301948, -27.161429, 76.750000
-4.341056, -27.408351, 76.875000
-4.341056, -27.408351, 77.000000
-4.341056, -27.408351, 77.125000
-4.341056, -27.408351, 77.250000
-4.341056, -27.408351, 77.375000
-4.380165, -27.655274, 77.500000
-4.419274, -27.902196, 77.625000
-4.380165, -27.655274, 77.750000
-4.458382, -28.149118, 77.875000
-4.419274, -27.902196, 78.000000
-4.419274, -27.902196, 78.125000
-4.419274, -27.902196, 78.250000
-4.458382, -28.149118, 78.375000
-4.458382, -28.149118, 78.500000
-4.497491, -28.396040, 78.625000
-4.497491, -28.396040, 78.750000
-4.497491, -28.396040, 78.875000
-4.497491, -28.396040, 79.000000
-4.536599, -28.642962, 79.125000
-4.536599, -28.642962, 79.250000
-4.536599, -28.642962, 79.375000
-4.536599, -28.642962, 79.500000
-4.536599, -28.642962, 79.625000
-4.575708, -28.889884, 79.750000
-4.614817, -29.136806, 79.875000
-4.614817, -29.136806, 80.000000
-4.614817, -29.136806, 80.125000
-4.653925, -29.383728, 80.250000
-4.653925, -29.383728, 80.375000
-4.653925, -29.383728, 80.500000
-4.653925, -29.383728, 80.625000
-4.653925, -29.383728, 80.750000
-4.653925, -29.383728, 80.875000
-4.693034, -29.630650, 81.000000
-4.693034, -29.630650, 81.125000
-4.653925, -29.383728, 81.250000
-4.693034, -29.630650, 81.375000
-4.653925, -29.383728, 81.500000
-8.173701, -51.606716, 102.250000
-8.134592, -51.359794, 102.375000
-0.877333, -6.944803, 43.500000
-0.877333, -6.944803, 43.625000
-0.877333, -6.944803, 43.750000
-0.877333, -6.944803, 43.875000
-0.908666, -7.192832, 44.000000
-0.908666, -7.192832, 44.125000
-0.908666, -7.192832, 44.250000
-0.908666, -7.192832, 44.375000
-0.939999, -7.440860, 44.500000
-0.939999, -7.440860, 44.625000
-0.939999, -7.440860, 44.750000
-0.939999, -7.440860, 44.875000
-0.971333, -7.688889, 45.000000
-0.971333, -7.688889, 45.125000
-0.971333, -7.688889, 45.250000
-1.002666, -7.936918, 45.375000
-1.002666, -7.936918, 45.500000
-1.002666, -7.936918, 45.625000
-1.033999, -8.184946, 45.750000
-1.033999, -8.184946, 45.875000
-1.033999, -8.184946, 46.000000
-1.065332, -8.432975, 46.125000
-1.065332, -8.432975, 46.250000
-1.096666, -8.681004, 46.375000
-1.065332, -8.432975, 46.500000
-1.096666, -8.681004, 46.625000
-1.096666, -8.681004, 46.750000
-1.127999, -8.929032, 46.875000
-1.127999, -8.929032, 47.000000
-1.159332, -9.177061, 47.125000
-1.127999, -8.929032, 47.250000
-1.127999, -8.929032, 47.375000
-1.159332, -9.177061, 47.500000
-1.159332, -9.177061, 47.625000
-1.159332, -9.177061, 47.750000
-1.159332, -9.177061, 47.875000
-1.190666, -9.425090, 48.000000
-1.190666, -9.425090, 48.125000
-1.190666, -9.425090, 48.250000
-1.221999, -9.673118, 48.375000
-1.221999, -9.673118, 48.500000
-1.221999, -9.673118, 48.625000
-1.284666, -10.169176, 48.750000
-1.253332, -9.921147, 48.875000
-1.253332, -9.921147, 49.000000
-1.284666, -10.169176, 49.125000
-1.284666, -10.169176, 49.250000
-1.284666, -10.169176, 49.375000
-1.284666, -10.169176, 49.500000
-1.284666, -10.169176, 49.625000
-1.315999, -10.417204, 49.750000
-1.315999, -10.417204, 49.875000
-1.347332, -10.665233, 50.000000
-1.347332, -10.665233, 50.125000
-1.347332, -10.665233, 50.250000
-1.378666, -10.913262, 50.375000
-1.347332, -10.665233, 50.500000
-1.378666, -10.913262, 50.625000
-1.378666, -10.913262, 50.750000
-1.378666, -10.913262, 50.875000
-1.409999, -11.161290, 51.000000
-1.409999, -11.161290, 51.125000
-1.409999, -11.161290, 51.250000
-1.409999, -11.161290, 51.375000
-1.441332, -11.409319, 51.500000
-1.441332, -11.409319, 51.625000
-1.441332, -11.409319, 51.750000
-1.441332, -11.409319, 51.875000
-1.472665, -11.657348, 52.000000
-1.472665, -11.657348, 52.125000
-1.503999, -11.905376, 52.250000
-1.503999, -11.905376, 52.375000
-1.503999, -11.905376, 52.500000
-1.503999, -11.905376, 52.625000
-1.535332, -12.153405, 52.750000
-1.535332, -12.153405, 52.875000
-1.566665, -12.401434, 53.000000
-1.597999, -12.649462, 53.125000
-1.566665, -12.401434, 53.250000
-1.566665, -12.401434, 53.375000
-1.597999, -12.649462, 53.500000
-1.597999, -12.649462, 53.625000
-1.597999, -12.649462, 53.750000
-1.629332, -12.897491, 53.875000
-1.629332, -12.897491, 54.000000
-1.629332, -12.897491, 54.125000
-1.629332, -12.897491, 54.250000
-1.660665, -13.145520, 54.375000
-1.660665, -13.145520, 54.500000
-1.660665, -13.145520, 54.625000
-1.691999, -13.393548, 54.750000
-1.691999, -13.393548, 54.875000
-1.691999, -13.393548, 55.000000
-1.723332, -13.641577, 55.125000
-1.723332, -13.641577, 55.250000
-1.723332, -13.641577, 55.375000
-1.723332, -13.641577, 55.500000
-1.754665, -13.889606, 55.625000
-1.785999, -14.137634, 55.750000
-1.785999, -14.137634, 55.875000
-1.785999, -14.137634, 56.000000
-1.785999, -14.137634, 56.125000
-1.817332, -14.385663, 56.250000
-1.817332, -14.385663, 56.375000
-1.817332, -14.385663, 56.500000
-1.848665, -14.633692, 56.625000
-1.848665, -14.633692, 56.750000
-1.848665, -14.633692, 56.875000
-1.879999, -14.881721, 57.000000
-1.879999, -14.881721, 57.125000
-1.879999, -14.881721, 57.250000
-1.911332, -15.129749, 57.375000
-1.911332, -15.129749, 57.500000
-1.911332, -15.129749, 57.625000
-1.942665, -15.377778, 57.750000
-1.942665, -15.377778, 57.875000
-1.942665, -15.377778, 58.000000
-1.973998, -15.625807, 58.125000
-1.973998, -15.625807, 58.250000
-1.973998, -15.625807, 58.375000
-2.005332, -15.873835, 58.500000
-2.005332, -15.873835, 58.625000
-2.005332, -15.873835, 58.750000
-2.036665, -16.121864, 58.875000
-2.036665, -16.121864, 59.000000
-2.067998, -16.369893, 59.125000
-2.067998, -16.369893, 59.250000
-2.067998, -16.369893, 59.375000
-2.067998, -16.369893, 59.500000
-2.099332, -16.617921, 59.625000
-2.099332, -16.617921, 59.750000
-2.130665, -16.865950, 59.875000
-2.130665, -16.865950, 60.000000
-2.130665, -16.865950, 60.125000
-2.130665, -16.865950, 60.250000
-2.161998, -17.113979, 60.375000
-2.161998, -17.113979, 60.500000
-2.161998, -17.113979, 60.625000
-2.193332, -17.362007, 60.750000
-2.193332, -17.362007, 60.875000
-2.193332, -17.362007, 61.000000
-2.224665, -17.610036, 61.125000
-2.224665, -17.610036, 61.250000
-2.224665, -17.610036, 61.375000
-2.255998, -17.858065, 61.500000
-2.255998, -17.858065, 61.625000
-2.255998, -17.858065, 61.750000
-2.287332, -18.106093, 61.875000
-2.287332, -18.106093, 62.000000
-2.318665, -18.354122, 62.125000
-2.318665, -18.354122, 62.250000
-2.318665, -18.354122, 62.375000
-2.318665, -18.354122, 62.500000
-2.318665, -18.354122, 62.625000
-2.349998, -18.602151, 62.750000
-2.349998, -18.602151, 62.875000
-2.349998, -18.602151, 63.000000
-2.381331, -18.850179, 63.125000
-2.381331, -18.850179, 63.250000
-2.381331, -18.850179, 63.375000
-2.412665, -19.098208, 63.500000
-2.412665, -19.098208, 63.625000
-2.412665, -19.098208, 63.750000
-2.412665, -19.098208, 63.875000
-2.443998, -19.346237, 64.000000
-2.443998, -19.346237, 64.125000
-2.475331, -19.594265, 64.250000
-2.475331, -19.594265, 64.375000
-2.506665, -19.842294, 64.500000
-2.506665, -19.842294, 64.625000
-2.506665, -19.842294, 64.750000
-2.537998, -20.090323, 64.875000
-2.537998, -20.090323, 65.000000
-2.537998, -20.090323, 65.125000
-2.537998, -20.090323, 65.250000
-2.569331, -20.338351, 65.375000
-2.569331, -20.338351, 65.500000
-2.569331, -20.338351, 65.625000
-2.600665, -20.586380, 65.750000
-2.600665, -20.586380, 65.875000
-2.600665, -20.586380, 66.000000
-2.631998, -20.834409, 66.125000
-2.631998, -20.834409, 66.250000
-2.631998, -20.834409, 66.375000
-2.663331, -21.082437, 66.500000
-2.663331, -21.082437, 66.625000
-2.663331, -21.082437, 66.750000
-2.694665, -21.330466, 66.875000
-2.694665, -21.330466, 67.000000
-2.694665, -21.330466, 67.125000
-2.725998, -21.578495, 67.250000
-2.725998, -21.578495, 67.375000
-2.725998, -21.578495, 67.500000
-2.725998, -21.578495, 67.625000
-2.757331, -21.826523, 67.750000
-2.757331, -21.826523, 67.875000
-2.788664, -22.074552, 68.000000
-2.788664, -22.074552, 68.125000
-2.788664, -22.074552, 68.250000
-2.788664, -22.074552, 68.375000
-2.788664, -22.074552, 68.500000
-2.819998, -22.322581, 68.625000
-2.819998, -22.322581, 68.750000
-2.851331, -22.570609, 68.875000
-2.851331, -22.570609, 69.000000
-2.851331, -22.570609, 69.125000
-2.882664, -22.818638, 69.250000
-2.882664, -22.818638, 69.375000
-2.882664, -22.818638, 69.500000
-2.913998, -23.066667, 69.625000
-2.913998, -23.066667, 69.750000
-2.945331, -23.314695, 69.875000
-2.945331, -23.314695, 70.000000
-2.945331, -23.314695, 70.125000
-2.945331, -23.314695, 70.250000
-2.945331, -23.314695, 70.375000
-2.976664, -23.562724, 70.500000
-2.976664, -23.562724, 70.625000
-3.007998, -23.810753, 70.750000
-3.007998, -23.810753, 70.875000
-3.007998, -23.810753, 71.000000
-3.039331, -24.058782, 71.125000
-3.039331, -24.058782, 71.250000
-3.039331, -24.058782, 71.375000
-3.070664, -24.306810, 71.500000
-3.070664, -24.306810, 71.625000
-3.070664, -24.306810, 71.750000
-3.070664, -24.306810, 71.875000
-3.101998, -24.554839, 72.000000
-3.101998, -24.554839, 72.125000
-3.101998, -24.554839, 72.250000
-3.133331, -24.802868, 72.375000
-3.133331, -24.802868, 72.500000
-3.164664, -25.050896, 72.625000
-3.164664, -25.050896, 72.750000
-3.164664, -25.050896, 72.875000
-3.195997, -25.298925, 73.000000
-3.195997, -25.298925, 73.125000
-3.195997, -25.298925, 73.250000
-3.195997, -25.298925, 73.375000
-3.227331, -25.546954, 73.500000
-3.227331, -25.546954, 73.625000
-3.258664, -25.794982, 73.750000
-3.258664, -25.794982, 73.875000
-3.289997, -26.043011, 74.000000
-3.289997, -26.043011, 74.125000
-3.289997, -26.043011, 74.250000
-3.321331, -26.291040, 74.375000
-3.321331, -26.291040, 74.500000
-3.321331, -26.291040, 74.625000
-3.352664, -26.539068, 74.750000
-3.352664, -26.539068, 74.875000
-3.383997, -26.787097, 75.000000
-3.352664, -26.539068, 75.125000
-3.383997, -26.787097, 75.250000
-3.383997, -26.787097, 75.375000
-3.415331, -27.035126, 75.500000
-3.415331, -27.035126, 75.625000
-3.415331, -27.035126, 75.750000
-3.415331, -27.035126, 75.875000
-3.446664, -27.283154, 76.000000
-3.446664, -27.283154, 76.125000
-3.446664, -27.283154, 76.250000
-3.446664, -27.283154, 76.375000
-3.477997, -27.531183, 76.500000
-3.477997, -27.531183, 76.625000
-3.509331, -27.779212, 76.750000
-3.509331, -27.779212, 76.875000
-3.509331, -27.779212, 77.000000
-3.540664, -28.027240, 77.125000
-3.571997, -28.275269, 77.250000
-3.571997, -28.275269, 77.375000
-3.571997, -28.275269, 77.500000
-3.571997, -28.275269, 77.625000
-3.603330, -28.523298, 77.750000
-3.603330, -28.523298, 77.875000
-3.603330, -28.523298, 78.000000
-3.603330, -28.523298, 78.125000
-3.634664, -28.771326, 78.250000
-3.634664, -28.771326, 78.375000
-3.634664, -28.771326, 78.500000
-3.665997, -29.019355, 78.625000
-3.665997, -29.019355, 78.750000
-3.665997, -29.019355, 78.875000
-3.697330, -29.267384, 79.000000
-3.697330, -29.267384, 79.125000
-3.697330, -29.267384, 79.250000
-3.728664, -29.515412, 79.375000
-3.728664, -29.515412, 79.500000
-3.728664, -29.515412, 79.625000
-3.728664, -29.515412, 79.750000
-3.759997, -29.763441, 79.875000
-3.759997, -29.763441, 80.000000
-3.791330, -30.011470, 80.125000
-3.791330, -30.011470, 80.250000
-3.791330, -30.011470, 80.375000
-3.791330, -30.011470, 80.500000
-3.791330, -30.011470, 80.625000
-3.822664, -30.259498, 80.750000
-3.822664, -30.259498, 80.875000
-3.822664, -30.259498, 81.000000
-3.822664, -30.259498, 81.125000
-3.853997, -30.507527, 81.250000
-3.853997, -30.507527, 81.375000
-3.853997, -30.507527, 81.500000
-3.916664, -31.003584, 81.625000
-6.517328, -51.589964, 102.250000
-0.682285, -7.217824, 43.625000
-0.658758, -6.968934, 43.750000
-0.682285, -7.217824, 43.875000
-0.682285, -7.217824, 44.000000
-0.682285, -7.217824, 44.125000
-0.682285, -7.217824, 44.250000
-0.705812, -7.466715, 44.375000
-0.729339, -7.715605, 44.500000
-0.705812, -7.466715, 44.625000
-0.705812, -7.466715, 44.750000
-0.705812, -7.466715, 44.875000
-0.729339, -7.715605, 45.000000
-0.729339, -7.715605, 45.125000
-0.752867, -7.964496, 45.250000
-0.752867, -7.964496, 45.375000
-0.776394, -8.213386, 45.500000
-0.776394, -8.213386, 45.625000
-0.799921, -8.462277, 45.750000
-0.776394, -8.213386, 45.875000
-0.776394, -8.213386, 46.000000
-0.799921, -8.462277, 46.125000
-0.823448, -8.711167, 46.250000
-0.799921, -8.462277, 46.375000
-0.823448, -8.711167, 46.500000
-0.823448, -8.711167, 46.625000
-0.846975, -8.960058, 46.750000
-0.846975, -8.960058, 46.875000
-0.846975, -8.960058, 47.000000
-0.846975, -8.960058, 47.125000
-0.846975, -8.960058, 47.250000
-0.870502, -9.208948, 47.375000
-0.870502, -9.208948, 47.500000
-0.870502, -9.208948, 47.625000
-0.870502, -9.208948, 47.750000
-0.894029, -9.457839, 47.875000
-0.894029, -9.457839, 48.000000
-0.894029, -9.457839, 48.125000
-0.917556, -9.706729, 48.250000
-0.917556, -9.706729, 48.375000
-0.917556, -9.706729, 48.500000
-0.917556, -9.706729, 48.625000
-0.964610, -10.204510, 48.750000
-0.964610, -10.204510, 48.875000
-0.941083, -9.955620, 49.000000
-0.964610, -10.204510, 49.125000
-0.988137, -10.453401, 49.250000
-0.964610, -10.204510, 49.375000
-0.988137, -10.453401, 49.500000
-0.988137, -10.453401, 49.625000
-0.988137, -10.453401, 49.750000
-0.988137, -10.453401, 49.875000
-1.011664, -10.702291, 50.000000
-1.011664, -10.702291, 50.125000
-1.011664, -10.702291, 50.250000
-1.011664, -10.702291, 50.375000
-1.011664, -10.702291, 50.500000
-1.058719, -11.200072, 50.625000
-1.035191, -10.951182, 50.750000
-1.035191, -10.951182, 50.875000
-1.058719, -11.200072, 51.000000
-1.058719, -11.200072, 51.125000
-1.082246, -11.448963, 51.250000
-1.082246, -11.448963, 51.375000
-1.082246, -11.448963, 51.500000
-1.082246, -11.448963, 51.625000
-1.105773, -11.697853, 51.750000
-1.105773, -11.697853, 51.875000
-1.105773, -11.697853, 52.000000
-1.129300, -11.946744, 52.125000
-1.129300, -11.946744, 52.250000
-1.129300, -11.946744, 52.375000
-1.152827, -12.195634, 52.500000
-1.152827, -12.195634, 52.625000
-1.152827, -12.195634, 52.750000
-1.176354, -12.444525, 52.875000
-1.176354, -12.444525, 53.000000
-1.199881, -12.693415, 53.125000
-1.176354, -12.444525, 53.250000
-1.199881, -12.693415, 53.375000
-1.199881, -12.693415, 53.500000
-1.199881, -12.693415, 53.625000
-1.199881, -12.693415, 53.750000
-1.246935, -13.191196, 53.875000
-1.223408, -12.942306, 54.000000
-1.223408, -12.942306, 54.125000
-1.246935, -13.191196, 54.250000
-1.246935, -13.191196, 54.375000
-1.270462, -13.440087, 54.500000
-1.270462, -13.440087, 54.625000
-1.270462, -13.440087, 54.750000
-1.270462, -13.440087, 54.875000
-1.293989, -13.688977, 55.000000
-1.293989, -13.688977, 55.125000
-1.317516, -13.937868, 55.250000
-1.317516, -13.937868, 55.375000
-1.317516, -13.937868, 55.500000
-1.341043, -14.186758, 55.625000
-1.341043, -14.186758, 55.750000
-1.341043, -14.186758, 55.875000
-1.364571, -14.435648, 56.000000
-1.364571, -14.435648, 56.125000
-1.364571, -14.435648, 56.250000
-1.388098, -14.684539, 56.375000
-1.388098, -14.684539, 56.500000
-1.388098, -14.684539, 56.625000
-1.411625, -14.933429, 56.750000
-1.411625, -14.933429, 56.875000
-1.411625, -14.933429, 57.000000
-1.411625, -14.933429, 57.125000
-1.435152, -15.182320, 57.250000
-1.435152, -15.182320, 57.375000
-1.435152, -15.182320, 57.500000
-1.435152, -15.182320, 57.625000
-1.482206, -15.680101, 57.750000
-1.458679, -15.431210, 57.875000
-1.458679, -15.431210, 58.000000
-1.482206, -15.680101, 58.125000
-1.482206, -15.680101, 58.250000
-1.505733, -15.928991, 58.375000
-1.505733, -15.928991, 58.500000
-1.505733, -15.928991, 58.625000
-1.529260, -16.177882, 58.750000
-1.529260, -16.177882, 58.875000
-1.529260, -16.177882, 59.000000
-1.552787, -16.426772, 59.125000
-1.576314, -16.675663, 59.250000
-1.552787, -16.426772, 59.375000
-1.552787, -16.426772, 59.500000
-1.599841, -16.924553, 59.625000
-1.576314, -16.675663, 59.750000
-1.599841, -16.924553, 59.875000
-1.599841, -16.924553, 60.000000
-1.599841, -16.924553, 60.125000
-1.599841, -16.924553, 60.250000
-1.623368, -17.173444, 60.375000
-1.623368, -17.173444, 60.500000
-1.646895, -17.422334, 60.625000
-1.646895, -17.422334, 60.750000
-1.646895, -17.422334, 60.875000
-1.646895, -17.422334, 61.000000
-1.670423, -17.671225, 61.125000
-1.670423, -17.671225, 61.250000
-1.670423, -17.671225, 61.375000
-1.693950, -17.920115, 61.500000
-1.693950, -17.920115, 61.625000
-1.693950, -17.920115, 61.750000
-1.717477, -18.169006, 61.875000
-1.717477, -18.169006, 62.000000
-1.741004, -18.417896, 62.125000
-1.741004, -18.417896, 62.250000
-1.741004, -18.417896, 62.375000
-1.741004, -18.417896, 62.500000
-1.764531, -18.666787, 62.625000
-1.764531, -18.666787, 62.750000
-1.764531, -18.666787, 62.875000
-1.788058, -18.915677, 63.000000
-1.788058, -18.915677, 63.125000
-1.788058, -18.915677, 63.250000
-1.811585, -19.164568, 63.375000
-1.811585, -19.164568, 63.500000
-1.811585, -19.164568, 63.625000
-1.811585, -19.164568, 63.750000
-1.835112, -19.413458, 63.875000
-1.835112, -19.413458, 64.000000
-1.858639, -19.662349, 64.125000
-1.858639, -19.662349, 64.250000
-1.858639, -19.662349, 64.375000
-1.858639, -19.662349, 64.500000
-1.882166, -19.911239, 64.625000
-1.905693, -20.160130, 64.750000
-1.905693, -20.160130, 64.875000
-1.905693, -20.160130, 65.000000
-1.905693, -20.160130, 65.125000
-1.905693, -20.160130, 65.250000
-1.929220, -20.409020, 65.375000
-1.952748, -20.657911, 65.500000
-1.952748, -20.657911, 65.625000
-1.952748, -20.657911, 65.750000
-1.952748, -20.657911, 65.875000
-1.952748, -20.657911, 66.000000
-1.976275, -20.906801, 66.125000
-1.999802, -21.155692, 66.250000
-1.999802, -21.155692, 66.375000
-1.999802, -21.155692, 66.500000
-2.023329, -21.404582, 66.625000
-2.023329, -21.404582, 66.750000
-2.023329, -21.404582, 66.875000
-2.023329, -21.404582, 67.000000
-2.046856, -21.653473, 67.125000
-2.046856, -21.653473, 67.250000
-2.046856, -21.653473, 67.375000
-2.070383, -21.902363, 67.500000
-2.070383, -21.902363, 67.625000
-2.070383, -21.902363, 67.750000
-2.070383, -21.902363, 67.875000
-2.093910, -22.151254, 68.000000
-2.093910, -22.151254, 68.125000
-2.093910, -22.151254, 68.250000
-2.117437, -22.400144, 68.375000
-2.117437, -22.400144, 68.500000
-2.117437, -22.400144, 68.625000
-2.140964, -22.649035, 68.750000
-2.140964, -22.649035, 68.875000
-2.140964, -22.649035, 69.000000
-2.164491, -22.897925, 69.125000
-2.164491, -22.897925, 69.250000
-2.164491, -22.897925, 69.375000
-2.188018, -23.146816, 69.500000
-2.188018, -23.146816, 69.625000
-2.188018, -23.146816, 69.750000
-2.211545, -23.395706, 69.875000
-2.211545, -23.395706, 70.000000
-2.235072, -23.644597, 70.125000
-2.235072, -23.644597, 70.250000
-2.235072, -23.644597, 70.375000
-2.235072, -23.644597, 70.500000
-2.258600, -23.893487, 70.625000
-2.258600, -23.893487, 70.750000
-2.258600, -23.893487, 70.875000
-2.282127, -24.142378, 71.000000
-2.282127, -24.142378, 71.125000
-2.305654, -24.391268, 71.250000
-2.305654, -24.391268, 71.375000
-2.305654, -24.391268, 71.500000
-2.305654, -24.391268, 71.625000
-2.329181, -24.640159, 71.750000
-2.329181, -24.640159, 71.875000
-2.329181, -24.640159, 72.000000
-2.352708, -24.889049, 72.125000
-2.352708, -24.889049, 72.250000
-2.352708, -24.889049, 72.375000
-2.376235, -25.137940, 72.500000
-2.376235, -25.137940, 72.625000
-2.399762, -25.386830, 72.750000
-2.399762, -25.386830, 72.875000
-2.399762, -25.386830, 73.000000
-2.423289, -25.635721, 73.125000
-2.423289, -25.635721, 73.250000
-2.423289, -25.635721, 73.375000
-2.423289, -25.635721, 73.500000
-2.446816, -25.884611, 73.625000
-2.446816, -25.884611, 73.750000
-2.470343, -26.133502, 73.875000
-2.470343, -26.133502, 74.000000
-2.470343, -26.133502, 74.125000
-2.470343, -26.133502, 74.250000
-2.493870, -26.382392, 74.375000
-2.493870, -26.382392, 74.500000
-2.517397, -26.631283, 74.625000
-2.517397, -26.631283, 74.750000
-2.540924, -26.880173, 74.875000
-2.540924, -26.880173, 75.000000
-2.540924, -26.880173, 75.125000
-2.540924, -26.880173, 75.250000
-2.564452, -27.129064, 75.375000
-2.564452, -27.129064, 75.500000
-2.564452, -27.129064, 75.625000
-2.587979, -27.377954, 75.750000
-2.587979, -27.377954, 75.875000
-2.587979, -27.377954, 76.000000
-2.587979, -27.377954, 76.125000
-2.611506, -27.626845, 76.250000
-2.611506, -27.626845, 76.375000
-2.635033, -27.875735, 76.500000
-2.635033, -27.875735, 76.625000
-2.635033, -27.875735, 76.750000
-2.635033, -27.875735, 76.875000
-2.658560, -28.124626, 77.000000
-2.658560, -28.124626, 77.125000
-2.658560, -28.124626, 77.250000
-2.682087, -28.373516, 77.375000
-2.682087, -28.373516, 77.500000
-2.705614, -28.622406, 77.625000
-2.705614, -28.622406, 77.750000
-2.705614, -28.622406, 77.875000
