1.422875, 0.365332, 57.875000
1.422875, 0.365332, 58.000000
0.996012, 0.255732, 58.125000
0.711437, 0.182666, 58.250000
0.711437, 0.182666, 58.375000
0.426862, 0.109600, 58.500000
0.426862, 0.109600, 58.625000
0.426862, 0.109600, 58.750000
0.284575, 0.073066, 58.875000
0.142287, 0.036533, 59.000000
-0.284575, -0.073066, 59.125000
-0.569150, -0.146133, 59.250000
-0.711437, -0.182666, 59.375000
-0.711437, -0.182666, 59.500000
-1.138300, -0.292266, 59.625000
-1.138300, -0.292266, 59.750000
-1.138300, -0.292266, 59.875000
-1.280587, -0.328799, 60.000000
1.992024, 0.511465, 60.125000
-1.707449, -0.438399, 60.250000
-1.849737, -0.474932, 60.375000
-2.134312, -0.547998, 60.500000
-2.276599, -0.584531, 60.625000
-2.276599, -0.584531, 60.750000
-2.134312, -0.547998, 60.875000
-2.703462, -0.694131, 61.000000
-2.561174, -0.657598, 61.125000
-2.703462, -0.694131, 61.250000
-3.272611, -0.840264, 61.375000
-3.272611, -0.840264, 61.500000
-3.272611, -0.840264, 61.625000
-3.414899, -0.876797, 61.750000
-3.699474, -0.949863, 61.875000
-3.557186, -0.913330, 62.000000
-3.841761, -0.986397, 62.125000
-3.984049, -1.022930, 62.250000
-4.268624, -1.095996, 62.375000
-4.410911, -1.132529, 62.500000
-4.553198, -1.169063, 62.625000
-4.980061, -1.278662, 62.750000
-4.980061, -1.278662, 62.875000
-5.122348, -1.315196, 63.000000
-5.264636, -1.351729, 63.125000
-5.406923, -1.388262, 63.250000
-5.833786, -1.497862, 63.375000
-5.833786, -1.497862, 63.500000
-6.260648, -1.607461, 63.625000
-6.545223, -1.680528, 63.750000
-6.402935, -1.643994, 63.875000
-6.687510, -1.717061, 64.000000
-6.829798, -1.753594, 64.125000
-6.972085, -1.790127, 64.250000
-7.114373, -1.826660, 64.375000
-7.256660, -1.863194, 64.500000
-7.256660, -1.863194, 64.625000
-7.683522, -1.972793, 64.750000
-7.683522, -1.972793, 64.875000
-7.825810, -2.009326, 65.000000
-7.968097, -2.045860, 65.125000
-7.968097, -2.045860, 65.250000
-8.110385, -2.082393, 65.375000
-8.394960, -2.155459, 65.500000
-8.394960, -2.155459, 65.625000
-8.537247, -2.191993, 65.750000
-8.537247, -2.191993, 65.875000
-8.679535, -2.228526, 66.000000
-8.679535, -2.228526, 66.125000
-8.964110, -2.301592, 66.250000
-9.106397, -2.338125, 66.375000
-8.964110, -2.301592, 66.500000
-9.248684, -2.374659, 66.625000
-9.248684, -2.374659, 66.750000
-9.533259, -2.447725, 66.875000
-9.675547, -2.484258, 67.000000
-9.675547, -2.484258, 67.125000
-9.817834, -2.520791, 67.250000
-10.102409, -2.593858, 67.375000
-10.102409, -2.593858, 67.500000
-10.244697, -2.630391, 67.625000
-10.386984, -2.666924, 67.750000
-10.529272, -2.703457, 67.875000
-10.529272, -2.703457, 68.000000
-10.671559, -2.739991, 68.125000
-10.813846, -2.776524, 68.250000
-10.813846, -2.776524, 68.375000
-10.813846, -2.776524, 68.500000
-10.956134, -2.813057, 68.625000
-11.240709, -2.886123, 68.750000
-11.240709, -2.886123, 68.875000
-11.382996, -2.922657, 69.000000
-11.525284, -2.959190, 69.125000
-11.667571, -2.995723, 69.250000
-11.809859, -3.032256, 69.375000
-12.094433, -3.105323, 69.500000
-11.952146, -3.068790, 69.625000
-12.094433, -3.105323, 69.750000
-11.952146, -3.068790, 69.875000
-12.094433, -3.105323, 70.000000
-12.236721, -3.141856, 70.125000
-12.379008, -3.178389, 70.250000
-12.379008, -3.178389, 70.375000
-12.521296, -3.214922, 70.500000
-12.663583, -3.251456, 70.625000
-12.805871, -3.287989, 70.750000
-12.663583, -3.251456, 70.875000
-12.805871, -3.287989, 71.000000
-12.948158, -3.324522, 71.125000
-12.805871, -3.287989, 71.250000
-12.948158, -3.324522, 71.375000
-13.232733, -3.397588, 71.500000
-13.232733, -3.397588, 71.625000
-13.232733, -3.397588, 71.750000
-13.375021, -3.434122, 71.875000
-13.517308, -3.470655, 72.000000
-13.517308, -3.470655, 72.125000
-13.517308, -3.470655, 72.250000
-13.659595, -3.507188, 72.375000
-13.801883, -3.543721, 72.500000
-13.801883, -3.543721, 72.625000
-13.944170, -3.580254, 72.750000
-13.944170, -3.580254, 72.875000
-14.086458, -3.616788, 73.000000
-14.086458, -3.616788, 73.125000
-14.086458, -3.616788, 73.250000
-14.228745, -3.653321, 73.375000
-14.228745, -3.653321, 73.500000
-14.371033, -3.689854, 73.625000
-14.371033, -3.689854, 73.750000
-14.513320, -3.726387, 73.875000
-14.513320, -3.726387, 74.000000
-14.655608, -3.762920, 74.125000
-14.513320, -3.726387, 74.250000
-14.655608, -3.762920, 74.375000
-14.655608, -3.762920, 74.500000
-14.940183, -3.835987, 74.625000
-14.797895, -3.799454, 74.750000
-14.797895, -3.799454, 74.875000
-14.940183, -3.835987, 75.000000
-14.940183, -3.835987, 75.125000
-15.082470, -3.872520, 75.250000
-15.082470, -3.872520, 75.375000
-15.224757, -3.909053, 75.500000
-15.367045, -3.945587, 75.625000
-15.509332, -3.982120, 75.750000
-15.509332, -3.982120, 75.875000
-15.509332, -3.982120, 76.000000
-15.793907, -4.055186, 76.125000
-15.936195, -4.091719, 76.250000
-16.078482, -4.128253, 76.375000
-16.078482, -4.128253, 76.500000
-16.078482, -4.128253, 76.625000
-16.078482, -4.128253, 76.750000
-15.936195, -4.091719, 76.875000
-16.078482, -4.128253, 77.000000
-16.078482, -4.128253, 77.125000
-16.078482, -4.128253, 77.250000
-16.078482, -4.128253, 77.375000
-16.363057, -4.201319, 77.500000
-16.363057, -4.201319, 77.625000
-16.220770, -4.164786, 77.750000
-16.363057, -4.201319, 77.875000
-16.505345, -4.237852, 78.000000
-16.363057, -4.201319, 78.125000
8.605252, 2.500057, 52.375000
9.028461, 2.623010, 52.500000
8.323113, 2.418088, 52.750000
8.887392, 2.582026, 52.875000
8.182043, 2.377103, 53.000000
7.617764, 2.213165, 53.125000
7.335625, 2.131196, 53.250000
7.476694, 2.172181, 53.375000
7.617764, 2.213165, 53.500000
7.335625, 2.131196, 53.625000
7.335625, 2.131196, 53.750000
6.912416, 2.008242, 53.875000
6.771346, 1.967258, 54.000000
7.053485, 2.049227, 54.125000
6.630276, 1.926273, 54.250000
6.207067, 1.803320, 54.375000
6.630276, 1.926273, 54.500000
6.065997, 1.762335, 54.625000
6.207067, 1.803320, 54.750000
6.065997, 1.762335, 54.875000
6.065997, 1.762335, 55.000000
5.783858, 1.680366, 55.125000
5.501719, 1.598397, 55.250000
5.219579, 1.516428, 55.375000
5.078509, 1.475443, 55.500000
4.937440, 1.434459, 55.625000
4.937440, 1.434459, 55.750000
4.655300, 1.352490, 55.875000
6.348137, 1.844304, 56.000000
3.667812, 1.065598, 56.125000
3.526743, 1.024613, 56.250000
3.526743, 1.024613, 56.375000
3.244603, 0.942644, 56.500000
5.501719, 1.598397, 56.625000
2.962464, 0.860675, 56.750000
3.244603, 0.942644, 56.875000
2.680324, 0.778706, 57.000000
5.219579, 1.516428, 57.125000
2.257115, 0.655753, 57.250000
2.539255, 0.737722, 57.375000
1.692836, 0.491814, 57.500000
1.551767, 0.450830, 57.625000
0.987488, 0.286892, 57.750000
1.269627, 0.368861, 57.875000
1.128558, 0.327876, 58.000000
0.705349, 0.204923, 58.125000
0.564279, 0.163938, 58.250000
0.564279, 0.163938, 58.375000
0.564279, 0.163938, 58.500000
-0.000000, -0.000000, 58.625000
-0.000000, -0.000000, 58.750000
-0.141070, -0.040985, 58.875000
-0.423209, -0.122954, 59.000000
-0.423209, -0.122954, 59.125000
-0.705349, -0.204923, 59.250000
-0.987488, -0.286892, 59.375000
-1.128558, -0.327876, 59.500000
-1.128558, -0.327876, 59.625000
-1.692836, -0.491814, 59.750000
-1.692836, -0.491814, 59.875000
-1.974976, -0.573784, 60.000000
-2.116046, -0.614768, 60.125000
-2.257115, -0.655753, 60.250000
-2.257115, -0.655753, 60.375000
-2.680324, -0.778706, 60.500000
-2.821394, -0.819691, 60.625000
-2.962464, -0.860675, 60.750000
-2.821394, -0.819691, 60.875000
-3.103534, -0.901660, 61.000000
-3.103534, -0.901660, 61.125000
-3.244603, -0.942644, 61.250000
-3.244603, -0.942644, 61.375000
-3.667812, -1.065598, 61.500000
-3.808882, -1.106583, 61.625000
-3.808882, -1.106583, 61.750000
-4.091021, -1.188552, 61.875000
-4.232091, -1.229536, 62.000000
-4.514231, -1.311505, 62.125000
-5.078509, -1.475443, 62.250000
-5.078509, -1.475443, 62.375000
-5.501719, -1.598397, 62.500000
-5.783858, -1.680366, 62.625000
-5.783858, -1.680366, 62.750000
-5.924928, -1.721351, 62.875000
-6.207067, -1.803320, 63.000000
-6.348137, -1.844304, 63.125000
-6.630276, -1.926273, 63.250000
-6.630276, -1.926273, 63.375000
-6.771346, -1.967258, 63.500000
-6.912416, -2.008242, 63.625000
-7.194555, -2.090211, 63.750000
-7.194555, -2.090211, 63.875000
-7.335625, -2.131196, 64.000000
-7.335625, -2.131196, 64.125000
-7.476694, -2.172181, 64.250000
-7.758834, -2.254150, 64.375000
-7.899904, -2.295134, 64.500000
-7.899904, -2.295134, 64.625000
-7.899904, -2.295134, 64.750000
-8.182043, -2.377103, 64.875000
-8.182043, -2.377103, 65.000000
-8.464182, -2.459072, 65.125000
-8.464182, -2.459072, 65.250000
-8.605252, -2.500057, 65.375000
-8.605252, -2.500057, 65.500000
-8.746322, -2.541041, 65.625000
-9.028461, -2.623010, 65.750000
-9.169531, -2.663995, 65.875000
-9.169531, -2.663995, 66.000000
-9.169531, -2.663995, 66.125000
-9.310601, -2.704980, 66.250000
-9.451670, -2.745964, 66.375000
-9.592740, -2.786949, 66.500000
-9.733810, -2.827933, 66.625000
-9.874879, -2.868918, 66.750000
-10.015949, -2.909902, 66.875000
-10.015949, -2.909902, 67.000000
-10.015949, -2.909902, 67.125000
-10.157019, -2.950887, 67.250000
-10.439158, -3.032856, 67.375000
-10.580228, -3.073840, 67.500000
-10.580228, -3.073840, 67.625000
-10.580228, -3.073840, 67.750000
-10.580228, -3.073840, 67.875000
-10.721298, -3.114825, 68.000000
-11.003437, -3.196794, 68.125000
-11.144507, -3.237779, 68.250000
-11.285577, -3.278763, 68.375000
-11.285577, -3.278763, 68.500000
-11.426646, -3.319748, 68.625000
-11.567716, -3.360732, 68.750000
-11.426646, -3.319748, 68.875000
-11.708786, -3.401717, 69.000000
-11.708786, -3.401717, 69.125000
-11.990925, -3.483686, 69.250000
-11.990925, -3.483686, 69.375000
-11.990925, -3.483686, 69.500000
-11.990925, -3.483686, 69.625000
-12.131995, -3.524670, 69.750000
-12.131995, -3.524670, 69.875000
-12.131995, -3.524670, 70.000000
-12.273064, -3.565655, 70.125000
-12.414134, -3.606639, 70.250000
-12.414134, -3.606639, 70.375000
-12.555204, -3.647624, 70.500000
-12.555204, -3.647624, 70.625000
-12.414134, -3.606639, 70.750000
-12.696274, -3.688608, 70.875000
-12.696274, -3.688608, 71.000000
-12.696274, -3.688608, 71.125000
-12.837343, -3.729593, 71.250000
-12.837343, -3.729593, 71.375000
-12.978413, -3.770578, 71.500000
-13.119483, -3.811562, 71.625000
-13.119483, -3.811562, 71.750000
-13.119483, -3.811562, 71.875000
-13.260552, -3.852547, 72.000000
-13.260552, -3.852547, 72.125000
-13.260552, -3.852547, 72.250000
-13.401622, -3.893531, 72.375000
-13.260552, -3.852547, 72.500000
-13.401622, -3.893531, 72.625000
-13.542692, -3.934516, 72.750000
-13.542692, -3.934516, 72.875000
-13.542692, -3.934516, 73.000000
-13.542692, -3.934516, 73.125000
-13.683762, -3.975500, 73.250000
-13.683762, -3.975500, 73.375000
-13.683762, -3.975500, 73.500000
-13.683762, -3.975500, 73.625000
-13.965901, -4.057469, 73.750000
-13.683762, -3.975500, 73.875000
-13.965901, -4.057469, 74.000000
-13.965901, -4.057469, 74.125000
-13.965901, -4.057469, 74.250000
-14.106971, -4.098454, 74.375000
-14.248040, -4.139438, 74.500000
-14.248040, -4.139438, 74.625000
-14.389110, -4.180423, 74.750000
-14.389110, -4.180423, 74.875000
-14.530180, -4.221407, 75.375000
-14.953389, -4.344361, 76.000000
1.257415, 0.408559, 57.500000
1.257415, 0.408559, 57.625000
1.257415, 0.408559, 57.750000
1.257415, 0.408559, 57.875000
1.257415, 0.408559, 58.000000
-0.279425, -0.090791, 58.125000
-0.838276, -0.272373, 58.250000
0.698564, 0.226977, 58.375000
-0.698564, -0.226977, 58.500000
-0.698564, -0.226977, 58.625000
-1.257415, -0.408559, 58.750000
-1.257415, -0.408559, 58.875000
-1.816266, -0.590140, 59.000000
-1.816266, -0.590140, 59.125000
-1.816266, -0.590140, 59.250000
-1.676553, -0.544745, 59.375000
-2.375117, -0.771722, 59.500000
-2.375117, -0.771722, 59.625000
-3.911957, -1.271072, 59.750000
-3.911957, -1.271072, 59.875000
-4.051670, -1.316467, 60.000000
-4.331095, -1.407258, 60.125000
-4.331095, -1.407258, 60.250000
-0.419138, -0.136186, 60.375000
-4.610520, -1.498049, 60.500000
-4.750233, -1.543444, 60.625000
-5.169371, -1.679631, 60.750000
-5.169371, -1.679631, 60.875000
-5.309084, -1.725026, 61.000000
-5.309084, -1.725026, 61.125000
-5.728222, -1.861212, 61.250000
-5.728222, -1.861212, 61.375000
-5.728222, -1.861212, 61.500000
-6.007648, -1.952003, 61.625000
-6.147361, -1.997399, 61.750000
-6.287073, -2.042794, 61.875000
-3.073680, -0.998699, 62.000000
-6.845924, -2.224376, 62.125000
-6.985637, -2.269771, 62.250000
-6.845924, -2.224376, 62.375000
-7.125350, -2.315167, 62.500000
-7.265063, -2.360562, 62.625000
-7.265063, -2.360562, 62.750000
-4.889946, -1.588840, 62.875000
-7.684201, -2.496748, 63.000000
-7.963626, -2.587539, 63.125000
-7.823914, -2.542144, 63.250000
-7.963626, -2.587539, 63.375000
-8.103339, -2.632934, 63.500000
-8.103339, -2.632934, 63.625000
-8.382765, -2.723725, 63.750000
-8.382765, -2.723725, 63.875000
-8.662190, -2.814516, 64.000000
-8.662190, -2.814516, 64.125000
-8.801903, -2.859912, 64.250000
-8.801903, -2.859912, 64.375000
-8.941615, -2.905307, 64.500000
-9.081328, -2.950702, 64.625000
-8.941615, -2.905307, 64.750000
-9.221041, -2.996098, 64.875000
-9.221041, -2.996098, 65.000000
-9.360754, -3.041493, 65.125000
-9.360754, -3.041493, 65.250000
-9.360754, -3.041493, 65.375000
-9.500466, -3.086889, 65.500000
-9.500466, -3.086889, 65.625000
-9.500466, -3.086889, 65.750000
-9.640179, -3.132284, 65.875000
-9.640179, -3.132284, 66.000000
-9.779892, -3.177680, 66.125000
-9.919605, -3.223075, 66.250000
-9.919605, -3.223075, 66.375000
-10.059317, -3.268470, 66.500000
-10.059317, -3.268470, 66.625000
-10.059317, -3.268470, 66.750000
-10.059317, -3.268470, 66.875000
-10.199030, -3.313866, 67.000000
-10.199030, -3.313866, 67.125000
-10.338743, -3.359261, 67.250000
-10.338743, -3.359261, 67.375000
-10.478456, -3.404657, 67.500000
-10.478456, -3.404657, 67.625000
-10.478456, -3.404657, 67.750000
-10.618168, -3.450052, 67.875000
-10.618168, -3.450052, 68.000000
-10.757881, -3.495447, 68.125000
-10.757881, -3.495447, 68.250000
-10.757881, -3.495447, 68.375000
-10.757881, -3.495447, 68.500000
-10.897594, -3.540843, 68.625000
-10.897594, -3.540843, 68.750000
-11.037307, -3.586238, 68.875000
-11.177019, -3.631634, 69.000000
-11.177019, -3.631634, 69.125000
-11.177019, -3.631634, 69.250000
-11.316732, -3.677029, 69.375000
-11.316732, -3.677029, 69.500000
-11.177019, -3.631634, 69.625000
-11.316732, -3.677029, 69.750000
-11.316732, -3.677029, 69.875000
-11.456445, -3.722425, 70.000000
-11.735870, -3.813215, 70.125000
-11.596158, -3.767820, 70.250000
-11.735870, -3.813215, 70.375000
-11.875583, -3.858611, 70.500000
-12.015296, -3.904006, 70.625000
-12.015296, -3.904006, 70.750000
-11.735870, -3.813215, 70.875000
-11.735870, -3.813215, 71.000000
-12.294721, -3.994797, 71.750000
-13.272710, -4.312565, 73.500000
-13.412423, -4.357960, 74.625000
-13.272710, -4.312565, 74.750000
-2.211486, -0.796184, 57.875000
-0.967525, -0.348331, 58.125000
0.138218, 0.049762, 58.250000
-0.000000, -0.000000, 58.375000
0.138218, 0.049762, 58.500000
0.276436, 0.099523, 58.625000
-0.276436, -0.099523, 58.750000
-0.276436, -0.099523, 58.875000
-2.073268, -0.746423, 59.000000
-2.211486, -0.796184, 59.125000
-0.276436, -0.099523, 59.250000
-2.349704, -0.845946, 59.375000
-0.691089, -0.248808, 59.500000
-0.138218, -0.049762, 59.625000
-1.105743, -0.398092, 59.750000
-4.699409, -1.691891, 59.875000
-4.837626, -1.741653, 60.000000
-0.829307, -0.298569, 60.125000
-4.975844, -1.791414, 60.250000
-4.975844, -1.791414, 60.375000
-1.935051, -0.696661, 60.500000
-5.805152, -2.089983, 60.625000
-2.211486, -0.796184, 60.750000
-5.943370, -2.139745, 60.875000
-6.081587, -2.189506, 61.000000
-6.081587, -2.189506, 61.125000
-6.358023, -2.289029, 61.250000
-3.593665, -1.293799, 61.375000
-3.179012, -1.144515, 61.500000
-6.634459, -2.388552, 61.625000
-6.910895, -2.488075, 61.750000
-7.187331, -2.587598, 61.875000
-7.049113, -2.537837, 62.000000
-7.187331, -2.587598, 62.125000
-7.187331, -2.587598, 62.250000
-7.325549, -2.637360, 62.375000
-7.740202, -2.786644, 62.500000
-7.740202, -2.786644, 62.625000
-7.878420, -2.836406, 62.750000
-8.016638, -2.886167, 62.875000
-8.016638, -2.886167, 63.000000
-8.154856, -2.935929, 63.125000
-8.154856, -2.935929, 63.250000
-8.293074, -2.985690, 63.375000
-8.293074, -2.985690, 63.500000
-8.293074, -2.985690, 63.625000
-8.431292, -3.035452, 63.750000
-8.569510, -3.085213, 63.875000
-8.707728, -3.134975, 64.000000
-8.569510, -3.085213, 64.125000
-8.707728, -3.134975, 64.250000
-8.845945, -3.184736, 64.375000
-8.845945, -3.184736, 64.500000
-8.845945, -3.184736, 64.625000
-8.984163, -3.234498, 64.750000
-8.984163, -3.234498, 64.875000
-9.122381, -3.284259, 65.000000
-9.122381, -3.284259, 65.125000
-9.122381, -3.284259, 65.250000
-9.122381, -3.284259, 65.375000
-9.260599, -3.334021, 65.500000
-9.260599, -3.334021, 65.625000
-9.122381, -3.284259, 65.750000
-9.398817, -3.383782, 65.875000
-9.537035, -3.433544, 66.000000
-9.675253, -3.483305, 66.125000
-9.675253, -3.483305, 66.250000
-9.813471, -3.533067, 66.375000
-9.675253, -3.483305, 66.500000
-9.813471, -3.533067, 66.625000
-9.813471, -3.533067, 66.750000
-9.951689, -3.582828, 66.875000
-9.813471, -3.533067, 67.000000
-10.089907, -3.632590, 67.125000
-10.089907, -3.632590, 67.250000
-10.228124, -3.682351, 67.375000
-10.228124, -3.682351, 67.500000
-10.228124, -3.682351, 67.625000
-10.228124, -3.682351, 67.750000
-10.228124, -3.682351, 67.875000
-10.366342, -3.732113, 68.000000
-10.642778, -3.831636, 68.125000
-10.504560, -3.781874, 68.250000
-10.780996, -3.881397, 68.375000
-10.780996, -3.881397, 68.500000
-10.642778, -3.831636, 68.625000
-10.642778, -3.831636, 68.750000
-10.919214, -3.931159, 68.875000
-10.919214, -3.931159, 69.000000
-10.919214, -3.931159, 69.125000
-10.780996, -3.881397, 69.250000
-10.919214, -3.931159, 69.375000
-11.195650, -4.030682, 69.500000
-11.195650, -4.030682, 69.625000
-11.195650, -4.030682, 69.750000
-11.195650, -4.030682, 69.875000
-11.333868, -4.080443, 70.000000
-11.472085, -4.130205, 70.125000
-11.195650, -4.030682, 70.250000
-11.333868, -4.080443, 70.375000
-11.333868, -4.080443, 70.500000
-11.333868, -4.080443, 70.625000
-11.472085, -4.130205, 70.750000
-11.748521, -4.229728, 70.875000
-11.610303, -4.179966, 71.000000
-11.610303, -4.179966, 71.125000
-11.610303, -4.179966, 71.250000
-11.610303, -4.179966, 71.375000
-11.610303, -4.179966, 71.500000
-11.886739, -4.279489, 71.625000
-11.748521, -4.229728, 71.750000
-11.886739, -4.279489, 71.875000
-12.439611, -4.478535, 72.125000
-12.163175, -4.379012, 72.250000
-12.163175, -4.379012, 72.375000
-12.301393, -4.428774, 72.500000
-12.439611, -4.478535, 72.625000
-12.024957, -4.329251, 72.750000
-12.024957, -4.329251, 72.875000
-12.716047, -4.578058, 73.000000
-12.716047, -4.578058, 73.250000
-12.716047, -4.578058, 73.375000
-12.163175, -4.379012, 73.500000
-12.577829, -4.528297, 73.625000
-12.716047, -4.578058, 73.750000
-12.716047, -4.578058, 73.875000
-12.716047, -4.578058, 74.000000
-12.716047, -4.578058, 74.125000
-12.854264, -4.627820, 74.250000
-12.854264, -4.627820, 74.375000
-13.130700, -4.727343, 74.625000
-13.545354, -4.876627, 74.750000
-13.268918, -4.777104, 74.875000
-13.407136, -4.826866, 75.000000
-13.821790, -4.976151, 77.500000
-13.960008, -5.025912, 77.625000
-13.960008, -5.025912, 77.875000
-6.146399, -2.433532, 58.000000
-6.556159, -2.595767, 58.125000
-3.141493, -1.243805, 58.250000
-2.595146, -1.027491, 58.375000
-2.595146, -1.027491, 58.500000
-2.458560, -0.973413, 58.625000
-0.956107, -0.378549, 58.750000
-2.595146, -1.027491, 58.875000
-2.048800, -0.811177, 59.000000
-2.185386, -0.865256, 59.125000
-1.775626, -0.703020, 59.250000
-5.190293, -2.054982, 59.375000
-2.595146, -1.027491, 59.500000
-2.595146, -1.027491, 59.625000
-5.600053, -2.217218, 59.750000
-2.731733, -1.081570, 59.875000
-2.731733, -1.081570, 60.000000
-3.278080, -1.297884, 60.125000
-5.600053, -2.217218, 60.250000
-5.600053, -2.217218, 60.375000
-6.146399, -2.433532, 60.500000
-6.009813, -2.379453, 60.625000
-6.282986, -2.487610, 60.750000
-6.419572, -2.541689, 60.875000
-3.961013, -1.568276, 61.000000
-4.370773, -1.730511, 61.125000
-4.370773, -1.730511, 61.250000
-7.102506, -2.812081, 61.375000
-6.965919, -2.758002, 61.500000
-7.102506, -2.812081, 61.625000
-7.239092, -2.866159, 61.750000
-7.375679, -2.920238, 61.875000
-7.375679, -2.920238, 62.000000
-7.648852, -3.028395, 62.125000
-7.648852, -3.028395, 62.250000
-7.785439, -3.082473, 62.375000
-7.922026, -3.136552, 62.500000
-7.922026, -3.136552, 62.625000
-7.922026, -3.136552, 62.750000
-7.922026, -3.136552, 62.875000
-8.058612, -3.190630, 63.000000
-8.195199, -3.244709, 63.125000
-8.195199, -3.244709, 63.250000
-8.195199, -3.244709, 63.375000
-8.195199, -3.244709, 63.500000
-8.331786, -3.298787, 63.625000
-8.331786, -3.298787, 63.750000
-8.468372, -3.352866, 63.875000
-8.468372, -3.352866, 64.000000
-8.468372, -3.352866, 64.125000
-8.604959, -3.406944, 64.250000
-8.604959, -3.406944, 64.375000
-8.604959, -3.406944, 64.500000
-8.604959, -3.406944, 64.625000
-8.741546, -3.461023, 64.750000
-8.741546, -3.461023, 64.875000
-8.741546, -3.461023, 65.000000
-8.878132, -3.515101, 65.125000
-9.014719, -3.569180, 65.250000
-9.014719, -3.569180, 65.375000
-9.014719, -3.569180, 65.500000
-9.151305, -3.623258, 65.625000
-9.151305, -3.623258, 65.750000
-9.151305, -3.623258, 65.875000
-9.151305, -3.623258, 66.000000
-9.287892, -3.677337, 66.125000
-9.287892, -3.677337, 66.250000
-9.424479, -3.731415, 66.375000
-9.424479, -3.731415, 66.500000
-9.561065, -3.785494, 66.625000
-9.697652, -3.839572, 66.750000
-9.697652, -3.839572, 66.875000
-9.697652, -3.839572, 67.000000
-9.970825, -3.947729, 67.125000
-9.970825, -3.947729, 67.250000
-9.970825, -3.947729, 67.375000
-9.970825, -3.947729, 67.500000
-10.107412, -4.001808, 67.625000
-10.107412, -4.001808, 67.750000
-10.107412, -4.001808, 67.875000
-10.107412, -4.001808, 68.000000
-10.243999, -4.055886, 68.125000
-10.380585, -4.109964, 68.250000
-10.380585, -4.109964, 68.375000
-10.380585, -4.109964, 68.500000
-10.380585, -4.109964, 68.625000
-10.653759, -4.218121, 68.750000
-10.653759, -4.218121, 68.875000
-10.653759, -4.218121, 69.000000
-10.653759, -4.218121, 69.125000
-10.926932, -4.326278, 69.250000
-10.790345, -4.272200, 69.375000
-10.790345, -4.272200, 69.500000
-10.790345, -4.272200, 69.625000
-10.926932, -4.326278, 69.750000
-10.926932, -4.326278, 69.875000
-11.063519, -4.380357, 70.000000
-10.926932, -4.326278, 70.125000
-11.200105, -4.434435, 70.250000
-10.926932, -4.326278, 70.375000
-11.336692, -4.488514, 70.500000
-10.926932, -4.326278, 70.625000
-11.473278, -4.542592, 70.750000
-11.336692, -4.488514, 70.875000
-11.200105, -4.434435, 71.000000
-11.336692, -4.488514, 71.125000
-11.609865, -4.596671, 71.250000
-11.746452, -4.650749, 71.375000
-11.473278, -4.542592, 71.500000
-11.473278, -4.542592, 71.625000
-11.473278, -4.542592, 71.750000
-11.609865, -4.596671, 71.875000
-11.609865, -4.596671, 72.000000
-11.609865, -4.596671, 72.125000
-11.883038, -4.704828, 72.250000
-12.019625, -4.758906, 72.375000
-12.019625, -4.758906, 72.500000
-11.746452, -4.650749, 72.625000
-11.746452, -4.650749, 72.750000
-11.883038, -4.704828, 72.875000
-11.883038, -4.704828, 73.000000
-12.019625, -4.758906, 73.125000
-12.292798, -4.867063, 73.250000
-12.292798, -4.867063, 73.375000
-12.429385, -4.921142, 73.500000
-12.019625, -4.758906, 73.625000
-12.429385, -4.921142, 73.750000
-12.292798, -4.867063, 73.875000
-12.565972, -4.975220, 74.000000
-12.429385, -4.921142, 74.125000
-12.429385, -4.921142, 74.250000
-12.019625, -4.758906, 74.375000
-12.839145, -5.083377, 74.500000
-12.292798, -4.867063, 74.625000
-12.292798, -4.867063, 74.750000
-12.702558, -5.029299, 74.875000
-12.702558, -5.029299, 75.000000
-12.565972, -4.975220, 75.125000
-13.112318, -5.191534, 75.250000
-12.565972, -4.975220, 75.375000
-12.702558, -5.029299, 75.500000
-12.975732, -5.137456, 75.625000
-13.112318, -5.191534, 75.750000
-13.112318, -5.191534, 75.875000
-13.112318, -5.191534, 76.000000
-13.248905, -5.245613, 76.125000
-13.248905, -5.245613, 76.250000
-12.839145, -5.083377, 76.375000
-13.248905, -5.245613, 76.500000
-13.112318, -5.191534, 76.625000
-13.112318, -5.191534, 76.750000
-13.112318, -5.191534, 76.875000
-13.385492, -5.299691, 77.000000
-13.522078, -5.353770, 77.125000
-13.385492, -5.299691, 77.250000
-13.658665, -5.407848, 77.375000
-13.385492, -5.299691, 77.500000
-13.795252, -5.461926, 77.625000
-13.795252, -5.461926, 77.750000
-13.658665, -5.407848, 77.875000
-13.522078, -5.353770, 78.000000
-13.658665, -5.407848, 78.125000
-5.527645, -2.392026, 56.500000
-5.662465, -2.450368, 56.625000
-5.662465, -2.450368, 56.750000
-5.662465, -2.450368, 56.875000
-5.797286, -2.508710, 57.000000
-5.797286, -2.508710, 57.125000
-5.797286, -2.508710, 57.250000
-5.932107, -2.567052, 57.375000
-5.932107, -2.567052, 57.500000
-5.932107, -2.567052, 57.625000
-5.932107, -2.567052, 57.750000
-5.932107, -2.567052, 57.875000
-5.932107, -2.567052, 58.000000
-5.932107, -2.567052, 58.125000
-5.797286, -2.508710, 58.250000
-5.932107, -2.567052, 58.375000
-6.066927, -2.625394, 58.500000
-6.066927, -2.625394, 58.625000
-6.066927, -2.625394, 58.750000
-6.201748, -2.683736, 58.875000
-6.066927, -2.625394, 59.000000
-6.066927, -2.625394, 59.125000
-6.066927, -2.625394, 59.250000
-6.201748, -2.683736, 59.375000
-6.336568, -2.742078, 59.500000
-6.336568, -2.742078, 59.625000
-6.201748, -2.683736, 59.750000
-6.201748, -2.683736, 59.875000
-6.336568, -2.742078, 60.000000
-6.336568, -2.742078, 60.125000
-6.336568, -2.742078, 60.250000
-6.471389, -2.800420, 60.375000
-6.606210, -2.858762, 60.500000
-6.606210, -2.858762, 60.625000
-6.741030, -2.917104, 60.750000
-6.741030, -2.917104, 60.875000
-6.875851, -2.975446, 61.000000
-6.875851, -2.975446, 61.125000
-6.875851, -2.975446, 61.250000
-7.010671, -3.033788, 61.375000
-6.875851, -2.975446, 61.500000
-7.010671, -3.033788, 61.625000
-7.145492, -3.092131, 61.750000
-7.145492, -3.092131, 61.875000
-7.010671, -3.033788, 62.000000
-7.280313, -3.150473, 62.125000
-7.280313, -3.150473, 62.250000
-7.280313, -3.150473, 62.375000
-7.415133, -3.208815, 62.500000
-7.415133, -3.208815, 62.625000
-7.549954, -3.267157, 62.750000
-7.684775, -3.325499, 62.875000
-7.684775, -3.325499, 63.000000
-7.684775, -3.325499, 63.125000
-7.684775, -3.325499, 63.250000
-7.684775, -3.325499, 63.375000
-7.954416, -3.442183, 63.500000
-7.954416, -3.442183, 63.625000
-7.954416, -3.442183, 63.750000
-7.954416, -3.442183, 63.875000
-8.089236, -3.500525, 64.000000
-8.089236, -3.500525, 64.125000
-8.224057, -3.558867, 64.250000
-8.224057, -3.558867, 64.375000
-8.224057, -3.558867, 64.500000
-8.358878, -3.617209, 64.625000
-8.493698, -3.675551, 64.750000
-8.493698, -3.675551, 64.875000
-8.628519, -3.733893, 65.000000
-8.493698, -3.675551, 65.125000
-8.628519, -3.733893, 65.250000
-8.763339, -3.792236, 65.375000
-8.628519, -3.733893, 65.500000
-8.898160, -3.850578, 65.625000
-8.898160, -3.850578, 65.750000
-8.898160, -3.850578, 65.875000
-8.898160, -3.850578, 66.000000
-9.032981, -3.908920, 66.125000
-9.032981, -3.908920, 66.250000
-9.032981, -3.908920, 66.375000
-9.167801, -3.967262, 66.500000
-9.167801, -3.967262, 66.625000
-9.167801, -3.967262, 66.750000
-9.167801, -3.967262, 66.875000
-9.167801, -3.967262, 67.000000
-9.302622, -4.025604, 67.125000
-9.437442, -4.083946, 67.250000
-9.437442, -4.083946, 67.375000
-9.302622, -4.025604, 67.500000
-9.437442, -4.083946, 67.625000
-9.437442, -4.083946, 67.750000
-9.572263, -4.142288, 67.875000
-9.707084, -4.200630, 68.000000
-9.572263, -4.142288, 68.125000
-9.707084, -4.200630, 68.250000
-9.707084, -4.200630, 68.375000
-9.841904, -4.258972, 68.500000
-9.841904, -4.258972, 68.625000
-9.976725, -4.317314, 68.750000
-9.976725, -4.317314, 68.875000
-9.976725, -4.317314, 69.000000
-9.976725, -4.317314, 69.125000
-9.976725, -4.317314, 69.250000
-9.976725, -4.317314, 69.375000
-10.111545, -4.375656, 69.500000
-10.111545, -4.375656, 69.625000
-10.111545, -4.375656, 69.750000
-10.246366, -4.433999, 69.875000
-10.246366, -4.433999, 70.000000
-10.111545, -4.375656, 70.125000
-10.246366, -4.433999, 70.250000
-10.246366, -4.433999, 70.375000
-10.246366, -4.433999, 70.500000
-10.381187, -4.492341, 70.625000
-10.381187, -4.492341, 70.750000
-10.650828, -4.609025, 70.875000
-10.516007, -4.550683, 71.000000
-10.516007, -4.550683, 71.125000
-10.650828, -4.609025, 71.250000
-10.516007, -4.550683, 71.375000
-10.650828, -4.609025, 71.500000
-10.785648, -4.667367, 71.625000
-10.920469, -4.725709, 71.750000
-10.920469, -4.725709, 71.875000
-10.920469, -4.725709, 72.000000
-10.785648, -4.667367, 72.125000
-10.785648, -4.667367, 72.250000
-10.920469, -4.725709, 72.375000
-11.190110, -4.842393, 72.500000
-11.190110, -4.842393, 72.625000
-11.190110, -4.842393, 72.750000
-11.190110, -4.842393, 72.875000
-11.190110, -4.842393, 73.000000
-11.190110, -4.842393, 73.125000
-11.324931, -4.900735, 73.250000
-11.324931, -4.900735, 73.375000
-11.324931, -4.900735, 73.500000
-11.324931, -4.900735, 73.625000
-11.459751, -4.959077, 73.750000
-11.459751, -4.959077, 73.875000
-11.459751, -4.959077, 74.000000
-11.459751, -4.959077, 74.125000
-11.729393, -5.075761, 74.250000
-11.594572, -5.017419, 74.375000
-11.729393, -5.075761, 74.500000
-11.729393, -5.075761, 74.625000
-11.729393, -5.075761, 74.750000
-11.864213, -5.134104, 74.875000
-11.864213, -5.134104, 75.000000
-11.864213, -5.134104, 75.125000
-11.864213, -5.134104, 75.250000
-11.999034, -5.192446, 75.375000
-11.864213, -5.134104, 75.500000
-11.864213, -5.134104, 75.625000
-11.999034, -5.192446, 75.750000
-12.133854, -5.250788, 75.875000
-12.133854, -5.250788, 76.000000
-12.268675, -5.309130, 76.125000
-12.268675, -5.309130, 76.250000
-12.403496, -5.367472, 76.375000
-12.403496, -5.367472, 76.500000
-12.403496, -5.367472, 76.625000
-12.403496, -5.367472, 76.750000
-12.403496, -5.367472, 76.875000
-12.538316, -5.425814, 77.000000
-12.538316, -5.425814, 77.125000
-12.673137, -5.484156, 77.250000
-12.538316, -5.425814, 77.375000
-12.673137, -5.484156, 77.500000
-12.673137, -5.484156, 77.625000
-12.673137, -5.484156, 77.750000
-12.673137, -5.484156, 77.875000
-12.538316, -5.425814, 78.000000
-12.403496, -5.367472, 78.125000
-12.268675, -5.309130, 78.250000
-5.183939, -2.439376, 56.000000
-5.449782, -2.564473, 56.125000
-5.449782, -2.564473, 56.250000
-5.715625, -2.689569, 56.375000
-5.449782, -2.564473, 56.500000
-5.582703, -2.627021, 56.625000
-5.582703, -2.627021, 56.750000
-5.582703, -2.627021, 56.875000
-5.582703, -2.627021, 57.000000
-5.715625, -2.689569, 57.125000
-5.582703, -2.627021, 57.250000
-5.715625, -2.689569, 57.375000
-5.582703, -2.627021, 57.500000
-5.582703, -2.627021, 57.625000
-5.582703, -2.627021, 57.750000
-5.848546, -2.752117, 57.875000
-5.715625, -2.689569, 58.000000
-5.715625, -2.689569, 58.125000
-5.848546, -2.752117, 58.250000
-5.848546, -2.752117, 58.375000
-5.848546, -2.752117, 58.500000
-5.848546, -2.752117, 58.625000
-5.848546, -2.752117, 58.750000
-5.848546, -2.752117, 58.875000
-5.848546, -2.752117, 59.000000
-5.848546, -2.752117, 59.125000
-5.981468, -2.814665, 59.250000
-6.114389, -2.877213, 59.375000
-5.981468, -2.814665, 59.500000
-6.114389, -2.877213, 59.625000
-5.981468, -2.814665, 59.750000
-6.114389, -2.877213, 59.875000
-6.114389, -2.877213, 60.000000
-6.247311, -2.939761, 60.125000
-6.114389, -2.877213, 60.250000
-6.380232, -3.002310, 60.375000
-6.247311, -2.939761, 60.500000
-6.380232, -3.002310, 60.625000
-6.380232, -3.002310, 60.750000
-6.513154, -3.064858, 60.875000
-6.513154, -3.064858, 61.000000
-6.646076, -3.127406, 61.125000
-6.778997, -3.189954, 61.250000
-6.778997, -3.189954, 61.375000
-6.646076, -3.127406, 61.500000
-6.778997, -3.189954, 61.625000
-6.778997, -3.189954, 61.750000
-6.778997, -3.189954, 61.875000
-6.911919, -3.252502, 62.000000
-6.911919, -3.252502, 62.125000
-7.177762, -3.377598, 62.250000
-7.177762, -3.377598, 62.375000
-7.177762, -3.377598, 62.500000
-7.177762, -3.377598, 62.625000
-7.177762, -3.377598, 62.750000
-7.310683, -3.440146, 62.875000
-7.443605, -3.502694, 63.000000
-7.576526, -3.565243, 63.125000
-7.576526, -3.565243, 63.250000
-7.709448, -3.627791, 63.375000
-7.709448, -3.627791, 63.500000
-7.842369, -3.690339, 63.625000
-7.842369, -3.690339, 63.750000
-7.842369, -3.690339, 63.875000
-7.842369, -3.690339, 64.000000
-7.842369, -3.690339, 64.125000
-7.975291, -3.752887, 64.250000
-8.108212, -3.815435, 64.375000
-8.108212, -3.815435, 64.500000
-8.241134, -3.877983, 64.625000
-8.108212, -3.815435, 64.750000
-8.241134, -3.877983, 64.875000
-8.241134, -3.877983, 65.000000
-8.241134, -3.877983, 65.125000
-8.506977, -4.003079, 65.250000
-8.374055, -3.940531, 65.375000
-8.506977, -4.003079, 65.500000
-8.374055, -3.940531, 65.625000
-8.506977, -4.003079, 65.750000
-8.506977, -4.003079, 65.875000
-8.639898, -4.065627, 66.000000
-8.506977, -4.003079, 66.125000
-8.639898, -4.065627, 66.250000
-8.639898, -4.065627, 66.375000
-8.772820, -4.128176, 66.500000
-8.772820, -4.128176, 66.625000
-8.905741, -4.190724, 66.750000
-8.905741, -4.190724, 66.875000
-8.905741, -4.190724, 67.000000
-8.905741, -4.190724, 67.125000
-9.038663, -4.253272, 67.250000
-9.038663, -4.253272, 67.375000
-9.038663, -4.253272, 67.500000
-9.038663, -4.253272, 67.625000
-9.304506, -4.378368, 67.750000
-9.171584, -4.315820, 67.875000
-9.304506, -4.378368, 68.000000
-9.437427, -4.440916, 68.125000
-9.437427, -4.440916, 68.250000
-9.304506, -4.378368, 68.375000
-9.304506, -4.378368, 68.500000
-9.437427, -4.440916, 68.625000
-9.437427, -4.440916, 68.750000
-9.570349, -4.503464, 68.875000
-9.570349, -4.503464, 69.000000
-9.570349, -4.503464, 69.125000
-9.703270, -4.566012, 69.250000
-9.703270, -4.566012, 69.375000
-9.703270, -4.566012, 69.500000
-9.703270, -4.566012, 69.625000
-9.836192, -4.628561, 69.750000
-9.836192, -4.628561, 69.875000
-9.969113, -4.691109, 70.000000
-9.969113, -4.691109, 70.125000
-9.969113, -4.691109, 70.250000
-10.102035, -4.753657, 70.375000
-10.102035, -4.753657, 70.500000
-10.102035, -4.753657, 70.625000
-10.102035, -4.753657, 70.750000
-10.102035, -4.753657, 70.875000
-10.234956, -4.816205, 71.000000
-10.234956, -4.816205, 71.125000
-10.234956, -4.816205, 71.250000
-10.234956, -4.816205, 71.375000
-10.234956, -4.816205, 71.500000
-10.367878, -4.878753, 71.625000
-10.500799, -4.941301, 71.750000
-10.500799, -4.941301, 71.875000
-10.500799, -4.941301, 72.000000
-10.633721, -5.003849, 72.125000
-10.633721, -5.003849, 72.250000
-10.633721, -5.003849, 72.375000
-10.633721, -5.003849, 72.500000
-10.633721, -5.003849, 72.625000
-10.766642, -5.066397, 72.750000
-10.766642, -5.066397, 72.875000
-10.766642, -5.066397, 73.000000
-10.899564, -5.128945, 73.125000
-10.899564, -5.128945, 73.250000
-10.899564, -5.128945, 73.375000
-10.899564, -5.128945, 73.500000
-11.032485, -5.191494, 73.625000
-10.899564, -5.128945, 73.750000
-11.032485, -5.191494, 73.875000
-11.032485, -5.191494, 74.000000
-11.165407, -5.254042, 74.125000
-11.165407, -5.254042, 74.250000
-11.165407, -5.254042, 74.375000
-11.165407, -5.254042, 74.500000
-11.298328, -5.316590, 74.625000
-11.431250, -5.379138, 74.750000
-11.298328, -5.316590, 74.875000
-11.431250, -5.379138, 75.000000
-11.431250, -5.379138, 75.125000
-11.431250, -5.379138, 75.250000
-11.564171, -5.441686, 75.375000
-11.564171, -5.441686, 75.500000
-11.564171, -5.441686, 75.625000
-11.697093, -5.504234, 75.750000
-11.697093, -5.504234, 75.875000
-11.830014, -5.566782, 76.000000
-11.830014, -5.566782, 76.125000
-11.830014, -5.566782, 76.250000
-11.830014, -5.566782, 76.375000
-11.962936, -5.629330, 76.500000
-11.962936, -5.629330, 76.625000
-11.962936, -5.629330, 76.750000
-12.095857, -5.691878, 76.875000
-12.095857, -5.691878, 77.000000
-12.095857, -5.691878, 77.125000
-12.228779, -5.754427, 77.250000
-12.228779, -5.754427, 77.375000
-12.361700, -5.816975, 77.500000
-12.228779, -5.754427, 77.625000
-12.494622, -5.879523, 77.750000
-12.095857, -5.691878, 77.875000
-11.830014, -5.566782, 78.000000
-11.830014, -5.566782, 78.125000
-4.842976, -2.467619, 55.375000
-4.712085, -2.400927, 55.500000
-4.842976, -2.467619, 55.625000
-4.973867, -2.534312, 55.750000
-4.973867, -2.534312, 55.875000
-5.104758, -2.601004, 56.000000
-5.235650, -2.667697, 56.125000
-5.104758, -2.601004, 56.250000
-5.104758, -2.601004, 56.375000
-5.104758, -2.601004, 56.500000
-5.104758, -2.601004, 56.625000
-5.366541, -2.734389, 56.750000
-5.235650, -2.667697, 56.875000
-5.235650, -2.667697, 57.000000
-5.366541, -2.734389, 57.125000
-5.366541, -2.734389, 57.250000
-5.235650, -2.667697, 57.375000
-5.235650, -2.667697, 57.500000
-5.235650, -2.667697, 57.625000
-5.497432, -2.801082, 57.750000
-5.366541, -2.734389, 57.875000
-5.366541, -2.734389, 58.000000
-5.628323, -2.867774, 58.125000
-5.628323, -2.867774, 58.250000
-5.497432, -2.801082, 58.375000
-5.497432, -2.801082, 58.500000
-5.497432, -2.801082, 58.625000
-5.497432, -2.801082, 58.750000
-5.497432, -2.801082, 58.875000
-5.628323, -2.867774, 59.000000
-5.628323, -2.867774, 59.125000
-5.759214, -2.934466, 59.250000
-5.759214, -2.934466, 59.375000
-5.759214, -2.934466, 59.500000
-5.759214, -2.934466, 59.625000
-5.890106, -3.001159, 59.750000
-6.020997, -3.067851, 59.875000
-6.020997, -3.067851, 60.000000
-6.020997, -3.067851, 60.125000
-5.890106, -3.001159, 60.250000
-6.151888, -3.134544, 60.375000
-6.151888, -3.134544, 60.500000
-6.282779, -3.201236, 60.625000
-6.282779, -3.201236, 60.750000
-6.282779, -3.201236, 60.875000
-6.282779, -3.201236, 61.000000
-6.413671, -3.267928, 61.125000
-6.413671, -3.267928, 61.250000
-6.544562, -3.334621, 61.375000
-6.413671, -3.267928, 61.500000
-6.675453, -3.401313, 61.625000
-6.675453, -3.401313, 61.750000
-6.675453, -3.401313, 61.875000
-6.806344, -3.468006, 62.000000
-6.937236, -3.534698, 62.125000
-6.937236, -3.534698, 62.250000
-6.937236, -3.534698, 62.375000
-6.937236, -3.534698, 62.500000
-7.068127, -3.601391, 62.625000
-7.068127, -3.601391, 62.750000
-7.199018, -3.668083, 62.875000
-7.199018, -3.668083, 63.000000
-7.199018, -3.668083, 63.125000
-7.199018, -3.668083, 63.250000
-7.329909, -3.734775, 63.375000
-7.460801, -3.801468, 63.500000
-7.460801, -3.801468, 63.625000
-7.460801, -3.801468, 63.750000
-7.591692, -3.868160, 63.875000
-7.591692, -3.868160, 64.000000
-7.591692, -3.868160, 64.125000
-7.722583, -3.934853, 64.250000
-7.591692, -3.868160, 64.375000
-7.722583, -3.934853, 64.500000
-7.722583, -3.934853, 64.625000
-7.722583, -3.934853, 64.750000
-7.853474, -4.001545, 64.875000
-7.984366, -4.068237, 65.000000
-7.984366, -4.068237, 65.125000
-7.984366, -4.068237, 65.250000
-7.984366, -4.068237, 65.375000
-7.984366, -4.068237, 65.500000
-8.115257, -4.134930, 65.625000
-8.115257, -4.134930, 65.750000
-8.115257, -4.134930, 65.875000
-8.246148, -4.201622, 66.000000
-8.246148, -4.201622, 66.125000
-8.246148, -4.201622, 66.250000
-8.377039, -4.268315, 66.375000
-8.377039, -4.268315, 66.500000
-8.377039, -4.268315, 66.625000
-8.377039, -4.268315, 66.750000
-8.377039, -4.268315, 66.875000
-8.507930, -4.335007, 67.000000
-8.507930, -4.335007, 67.125000
-8.638822, -4.401700, 67.250000
-8.507930, -4.335007, 67.375000
-8.507930, -4.335007, 67.500000
-8.638822, -4.401700, 67.625000
-8.769713, -4.468392, 67.750000
-8.769713, -4.468392, 67.875000
-8.769713, -4.468392, 68.000000
-8.769713, -4.468392, 68.125000
-8.900604, -4.535084, 68.250000
-9.031495, -4.601777, 68.375000
-8.900604, -4.535084, 68.500000
-9.031495, -4.601777, 68.625000
-9.162387, -4.668469, 68.750000
-9.162387, -4.668469, 68.875000
-9.162387, -4.668469, 69.000000
-9.162387, -4.668469, 69.125000
-9.162387, -4.668469, 69.250000
-9.162387, -4.668469, 69.375000
-9.293278, -4.735162, 69.500000
-9.293278, -4.735162, 69.625000
-9.424169, -4.801854, 69.750000
-9.293278, -4.735162, 69.875000
-9.424169, -4.801854, 70.000000
-9.424169, -4.801854, 70.125000
-9.555060, -4.868546, 70.250000
-9.555060, -4.868546, 70.375000
-9.555060, -4.868546, 70.500000
-9.555060, -4.868546, 70.625000
-9.685952, -4.935239, 70.750000
-9.685952, -4.935239, 70.875000
-9.685952, -4.935239, 71.000000
-9.685952, -4.935239, 71.125000
-9.685952, -4.935239, 71.250000
-9.816843, -5.001931, 71.375000
-9.816843, -5.001931, 71.500000
-9.816843, -5.001931, 71.625000
-9.947734, -5.068624, 71.750000
-9.947734, -5.068624, 71.875000
-10.078625, -5.135316, 72.000000
-10.078625, -5.135316, 72.125000
-10.209517, -5.202009, 72.250000
-10.078625, -5.135316, 72.375000
-10.209517, -5.202009, 72.500000
-10.209517, -5.202009, 72.625000
-10.209517, -5.202009, 72.750000
-10.209517, -5.202009, 72.875000
-10.209517, -5.202009, 73.000000
-10.340408, -5.268701, 73.125000
-10.471299, -5.335393, 73.250000
-10.471299, -5.335393, 73.375000
-10.471299, -5.335393, 73.500000
-10.471299, -5.335393, 73.625000
-10.471299, -5.335393, 73.750000
-10.602190, -5.402086, 73.875000
-10.602190, -5.402086, 74.000000
-10.733081, -5.468778, 74.125000
-10.602190, -5.402086, 74.250000
-10.733081, -5.468778, 74.375000
-10.733081, -5.468778, 74.500000
-10.733081, -5.468778, 74.625000
-10.863973, -5.535471, 74.750000
-10.863973, -5.535471, 74.875000
-10.863973, -5.535471, 75.000000
-10.863973, -5.535471, 75.125000
-11.125755, -5.668855, 75.250000
-10.994864, -5.602163, 75.375000
-10.994864, -5.602163, 75.500000
-11.125755, -5.668855, 75.625000
-11.125755, -5.668855, 75.750000
-11.256646, -5.735548, 75.875000
-11.125755, -5.668855, 76.000000
-11.256646, -5.735548, 76.125000
-11.387538, -5.802240, 76.250000
-11.256646, -5.735548, 76.375000
-11.518429, -5.868933, 76.500000
-11.518429, -5.868933, 76.625000
-11.518429, -5.868933, 76.750000
-11.518429, -5.868933, 76.875000
-11.518429, -5.868933, 77.000000
-11.649320, -5.935625, 77.125000
-11.649320, -5.935625, 77.250000
-11.649320, -5.935625, 77.375000
-11.649320, -5.935625, 77.500000
-11.649320, -5.935625, 77.625000
-11.780211, -6.002318, 77.750000
-11.780211, -6.002318, 77.875000
-11.780211, -6.002318, 78.000000
-11.256646, -5.735548, 78.125000
-11.780211, -6.002318, 78.250000
-4.505613, -2.476982, 54.250000
-4.376881, -2.406211, 54.375000
-4.376881, -2.406211, 54.500000
-4.376881, -2.406211, 54.625000
-4.248149, -2.335440, 54.750000
-4.248149, -2.335440, 54.875000
-4.376881, -2.406211, 55.000000
-4.376881, -2.406211, 55.125000
-4.376881, -2.406211, 55.250000
-4.376881, -2.406211, 55.375000
-4.376881, -2.406211, 55.500000
-4.376881, -2.406211, 55.625000
-4.505613, -2.476982, 55.750000
-4.505613, -2.476982, 55.875000
-4.505613, -2.476982, 56.000000
-4.505613, -2.476982, 56.125000
-4.505613, -2.476982, 56.250000
-4.505613, -2.476982, 56.375000
-4.505613, -2.476982, 56.500000
-4.505613, -2.476982, 56.625000
-4.634344, -2.547752, 56.750000
-4.634344, -2.547752, 56.875000
-4.634344, -2.547752, 57.000000
-4.634344, -2.547752, 57.125000
-4.763076, -2.618523, 57.250000
-4.763076, -2.618523, 57.375000
-4.763076, -2.618523, 57.500000
-4.891808, -2.689294, 57.625000
-4.763076, -2.618523, 57.750000
-4.763076, -2.618523, 57.875000
-4.763076, -2.618523, 58.000000
-5.020540, -2.760065, 58.125000
-5.020540, -2.760065, 58.250000
-5.020540, -2.760065, 58.375000
-5.020540, -2.760065, 58.500000
-5.020540, -2.760065, 58.625000
-5.020540, -2.760065, 58.750000
-5.020540, -2.760065, 58.875000
-5.149272, -2.830836, 59.000000
-5.278003, -2.901607, 59.125000
-5.278003, -2.901607, 59.250000
-5.278003, -2.901607, 59.375000
-5.406735, -2.972378, 59.500000
-5.406735, -2.972378, 59.625000
-5.406735, -2.972378, 59.750000
-5.535467, -3.043149, 59.875000
-5.535467, -3.043149, 60.000000
-5.664199, -3.113920, 60.125000
-5.792931, -3.184691, 60.250000
-5.792931, -3.184691, 60.375000
-5.792931, -3.184691, 60.500000
-5.792931, -3.184691, 60.625000
-5.921662, -3.255461, 60.750000
-6.050394, -3.326232, 60.875000
-6.050394, -3.326232, 61.000000
-6.050394, -3.326232, 61.125000
-6.050394, -3.326232, 61.250000
-6.050394, -3.326232, 61.375000
-6.179126, -3.397003, 61.500000
-6.179126, -3.397003, 61.625000
-6.179126, -3.397003, 61.750000
-6.179126, -3.397003, 61.875000
-6.307858, -3.467774, 62.000000
-6.307858, -3.467774, 62.125000
-6.307858, -3.467774, 62.250000
-6.436590, -3.538545, 62.375000
-6.436590, -3.538545, 62.500000
-6.436590, -3.538545, 62.625000
-6.436590, -3.538545, 62.750000
-6.436590, -3.538545, 62.875000
-6.565321, -3.609316, 63.000000
-6.694053, -3.680087, 63.125000
-6.694053, -3.680087, 63.250000
-6.694053, -3.680087, 63.375000
-6.822785, -3.750858, 63.500000
-6.822785, -3.750858, 63.625000
-6.822785, -3.750858, 63.750000
-6.822785, -3.750858, 63.875000
-6.822785, -3.750858, 64.000000
-6.951517, -3.821629, 64.125000
-6.951517, -3.821629, 64.250000
-6.951517, -3.821629, 64.375000
-7.080249, -3.892400, 64.500000
-7.080249, -3.892400, 64.625000
-7.080249, -3.892400, 64.750000
-7.080249, -3.892400, 64.875000
-7.080249, -3.892400, 65.000000
-7.208980, -3.963170, 65.125000
-7.208980, -3.963170, 65.250000
-7.337712, -4.033941, 65.375000
-7.337712, -4.033941, 65.500000
-7.337712, -4.033941, 65.625000
-7.466444, -4.104712, 65.750000
-7.466444, -4.104712, 65.875000
-7.466444, -4.104712, 66.000000
-7.466444, -4.104712, 66.125000
-7.466444, -4.104712, 66.250000
-7.595176, -4.175483, 66.375000
-7.595176, -4.175483, 66.500000
-7.595176, -4.175483, 66.625000
-7.723907, -4.246254, 66.750000
-7.723907, -4.246254, 66.875000
-7.723907, -4.246254, 67.000000
-7.723907, -4.246254, 67.125000
-7.852639, -4.317025, 67.250000
-7.852639, -4.317025, 67.375000
-7.981371, -4.387796, 67.500000
-7.981371, -4.387796, 67.625000
-8.110103, -4.458567, 67.750000
-8.110103, -4.458567, 67.875000
-8.110103, -4.458567, 68.000000
-8.238835, -4.529338, 68.125000
-8.110103, -4.458567, 68.250000
-8.110103, -4.458567, 68.375000
-8.238835, -4.529338, 68.500000
-8.238835, -4.529338, 68.625000
-8.238835, -4.529338, 68.750000
-8.367566, -4.600109, 68.875000
-8.367566, -4.600109, 69.000000
-8.367566, -4.600109, 69.125000
-8.496298, -4.670879, 69.250000
-8.496298, -4.670879, 69.375000
-8.496298, -4.670879, 69.500000
-8.496298, -4.670879, 69.625000
-8.625030, -4.741650, 69.750000
-8.625030, -4.741650, 69.875000
-8.753762, -4.812421, 70.000000
-8.625030, -4.741650, 70.125000
-8.625030, -4.741650, 70.250000
-8.882494, -4.883192, 70.375000
-8.753762, -4.812421, 70.500000
-8.753762, -4.812421, 70.625000
-8.753762, -4.812421, 70.750000
-9.011225, -4.953963, 70.875000
-9.011225, -4.953963, 71.000000
-8.882494, -4.883192, 71.125000
-8.882494, -4.883192, 71.250000
-9.011225, -4.953963, 71.375000
-9.011225, -4.953963, 71.500000
-9.011225, -4.953963, 71.625000
-9.139957, -5.024734, 71.750000
-9.139957, -5.024734, 71.875000
-9.139957, -5.024734, 72.000000
-9.268689, -5.095505, 72.125000
-9.397421, -5.166276, 72.250000
-9.268689, -5.095505, 72.375000
-9.397421, -5.166276, 72.500000
-9.397421, -5.166276, 72.625000
-9.397421, -5.166276, 72.750000
-9.397421, -5.166276, 72.875000
-9.526153, -5.237047, 73.000000
-9.526153, -5.237047, 73.125000
-9.526153, -5.237047, 73.250000
-9.526153, -5.237047, 73.375000
-9.526153, -5.237047, 73.500000
-9.654884, -5.307818, 73.625000
-9.654884, -5.307818, 73.750000
-9.654884, -5.307818, 73.875000
-9.783616, -5.378588, 74.000000
-9.783616, -5.378588, 74.125000
-9.783616, -5.378588, 74.250000
-9.783616, -5.378588, 74.375000
-9.912348, -5.449359, 74.500000
-9.912348, -5.449359, 74.625000
-9.912348, -5.449359, 74.750000
-10.041080, -5.520130, 74.875000
-10.041080, -5.520130, 75.000000
-10.169812, -5.590901, 75.125000
-10.169812, -5.590901, 75.250000
-10.169812, -5.590901, 75.375000
-10.169812, -5.590901, 75.500000
-10.298543, -5.661672, 75.625000
-10.298543, -5.661672, 75.750000
-10.298543, -5.661672, 75.875000
-10.298543, -5.661672, 76.000000
-10.427275, -5.732443, 76.125000
-10.427275, -5.732443, 76.250000
-10.427275, -5.732443, 76.375000
-10.556007, -5.803214, 76.500000
-10.556007, -5.803214, 76.625000
-10.556007, -5.803214, 76.750000
-10.556007, -5.803214, 76.875000
-10.556007, -5.803214, 77.000000
-10.684739, -5.873985, 77.125000
-10.684739, -5.873985, 77.250000
-10.684739, -5.873985, 77.375000
-10.813470, -5.944756, 77.500000
-10.813470, -5.944756, 77.625000
-10.813470, -5.944756, 77.750000
-10.684739, -5.873985, 77.875000
-10.684739, -5.873985, 78.000000
-10.684739, -5.873985, 78.125000
