25.620362, -7.443403, 69.250000
25.620362, -7.443403, 69.375000
25.620362, -7.443403, 69.500000
25.971326, -7.545368, 69.625000
26.322290, -7.647332, 69.750000
25.971326, -7.545368, 69.875000
25.971326, -7.545368, 70.000000
25.971326, -7.545368, 70.125000
25.971326, -7.545368, 70.250000
26.322290, -7.647332, 70.375000
26.322290, -7.647332, 70.500000
26.673254, -7.749297, 70.625000
26.673254, -7.749297, 70.750000
26.673254, -7.749297, 70.875000
26.673254, -7.749297, 71.000000
26.673254, -7.749297, 71.125000
27.024217, -7.851261, 71.250000
27.024217, -7.851261, 71.375000
27.024217, -7.851261, 71.500000
27.024217, -7.851261, 71.625000
27.024217, -7.851261, 71.750000
27.024217, -7.851261, 71.875000
27.375181, -7.953225, 72.000000
27.375181, -7.953225, 72.125000
27.375181, -7.953225, 72.250000
27.726145, -8.055190, 72.375000
27.726145, -8.055190, 72.500000
27.726145, -8.055190, 72.625000
27.726145, -8.055190, 72.750000
28.077109, -8.157154, 72.875000
28.077109, -8.157154, 73.000000
28.077109, -8.157154, 73.125000
28.077109, -8.157154, 73.250000
28.428073, -8.259119, 73.375000
28.428073, -8.259119, 73.500000
28.428073, -8.259119, 73.625000
28.428073, -8.259119, 73.750000
28.428073, -8.259119, 73.875000
29.130001, -8.463048, 74.000000
28.779037, -8.361083, 74.125000
28.779037, -8.361083, 74.250000
29.130001, -8.463048, 74.375000
29.130001, -8.463048, 74.500000
29.130001, -8.463048, 74.625000
29.480964, -8.565012, 74.750000
29.480964, -8.565012, 74.875000
29.480964, -8.565012, 75.000000
29.480964, -8.565012, 75.125000
29.831928, -8.666976, 75.250000
29.480964, -8.565012, 75.375000
29.831928, -8.666976, 75.500000
29.831928, -8.666976, 75.625000
30.182892, -8.768941, 75.750000
30.182892, -8.768941, 75.875000
30.182892, -8.768941, 76.000000
30.182892, -8.768941, 76.125000
30.182892, -8.768941, 76.250000
30.182892, -8.768941, 76.375000
30.533856, -8.870905, 76.500000
30.533856, -8.870905, 76.625000
30.533856, -8.870905, 76.750000
30.884820, -8.972870, 76.875000
30.884820, -8.972870, 77.000000
30.884820, -8.972870, 77.125000
31.235784, -9.074834, 77.250000
31.235784, -9.074834, 77.375000
31.235784, -9.074834, 77.500000
31.235784, -9.074834, 77.625000
31.235784, -9.074834, 77.750000
31.235784, -9.074834, 77.875000
31.586748, -9.176799, 78.000000
31.586748, -9.176799, 78.125000
31.586748, -9.176799, 78.250000
31.586748, -9.176799, 78.375000
31.586748, -9.176799, 78.500000
31.586748, -9.176799, 78.625000
31.937712, -9.278763, 78.750000
31.937712, -9.278763, 78.875000
31.937712, -9.278763, 79.000000
32.288675, -9.380727, 79.125000
32.288675, -9.380727, 79.250000
32.288675, -9.380727, 79.375000
32.288675, -9.380727, 79.500000
32.639639, -9.482692, 79.625000
32.639639, -9.482692, 79.750000
32.639639, -9.482692, 79.875000
32.639639, -9.482692, 80.000000
32.639639, -9.482692, 80.125000
32.990603, -9.584656, 80.250000
32.990603, -9.584656, 80.375000
32.990603, -9.584656, 80.500000
32.990603, -9.584656, 80.625000
32.990603, -9.584656, 80.750000
33.341567, -9.686621, 80.875000
32.990603, -9.584656, 81.000000
33.341567, -9.686621, 81.125000
33.341567, -9.686621, 81.250000
33.341567, -9.686621, 81.375000
33.341567, -9.686621, 81.500000
33.341567, -9.686621, 81.625000
33.341567, -9.686621, 81.750000
55.452290, -16.110380, 103.000000
54.750363, -15.906451, 103.125000
55.803254, -16.212344, 103.250000
52.995543, -15.396629, 103.375000
55.101326, -16.008415, 103.500000
55.101326, -16.008415, 103.625000
56.505182, -16.416273, 103.750000
56.154218, -16.314308, 103.875000
56.154218, -16.314308, 104.000000
53.697471, -15.600557, 104.125000
53.697471, -15.600557, 104.250000
56.856146, -16.518237, 104.375000
57.558074, -16.722166, 104.500000
57.558074, -16.722166, 104.625000
57.207110, -16.620202, 104.750000
57.558074, -16.722166, 104.875000
57.909037, -16.824131, 105.000000
58.260001, -16.926095, 105.125000
195.404392, -50.171320, 0.000000
195.758385, -50.262211, 0.125000
189.032510, -48.535299, 0.250000
196.112379, -50.353101, 0.375000
196.112379, -50.353101, 0.500000
195.758385, -50.262211, 0.625000
196.112379, -50.353101, 0.750000
195.758385, -50.262211, 0.875000
195.404392, -50.171320, 1.000000
195.404392, -50.171320, 1.125000
195.758385, -50.262211, 1.250000
195.404392, -50.171320, 1.375000
190.448483, -48.898859, 1.500000
190.448483, -48.898859, 1.625000
196.466372, -50.443991, 1.750000
195.758385, -50.262211, 1.875000
194.342411, -49.898650, 2.000000
194.342411, -49.898650, 2.125000
192.926438, -49.535090, 2.250000
193.988418, -49.807760, 2.375000
193.988418, -49.807760, 2.500000
193.988418, -49.807760, 2.625000
9.911817, -2.544922, 43.750000
9.911817, -2.544922, 43.875000
9.557824, -2.454032, 44.000000
9.911817, -2.544922, 44.125000
9.911817, -2.544922, 44.250000
10.265810, -2.635812, 44.375000
9.911817, -2.544922, 44.500000
9.911817, -2.544922, 44.625000
9.911817, -2.544922, 44.750000
9.911817, -2.544922, 44.875000
10.265810, -2.635812, 45.000000
10.265810, -2.635812, 45.125000
10.265810, -2.635812, 45.250000
10.619804, -2.726702, 45.375000
10.619804, -2.726702, 45.500000
10.619804, -2.726702, 45.625000
10.619804, -2.726702, 45.750000
10.619804, -2.726702, 45.875000
10.973797, -2.817592, 46.000000
10.973797, -2.817592, 46.125000
10.973797, -2.817592, 46.250000
11.327791, -2.908482, 46.375000
10.973797, -2.817592, 46.500000
10.973797, -2.817592, 46.625000
11.327791, -2.908482, 46.750000
11.327791, -2.908482, 46.875000
11.327791, -2.908482, 47.000000
11.681784, -2.999372, 47.125000
11.681784, -2.999372, 47.250000
11.681784, -2.999372, 47.375000
11.681784, -2.999372, 47.500000
11.681784, -2.999372, 47.625000
12.035778, -3.090262, 47.750000
12.035778, -3.090262, 47.875000
12.035778, -3.090262, 48.000000
12.035778, -3.090262, 48.125000
12.389771, -3.181153, 48.250000
12.389771, -3.181153, 48.375000
12.389771, -3.181153, 48.500000
12.389771, -3.181153, 48.625000
12.389771, -3.181153, 48.750000
12.389771, -3.181153, 48.875000
12.743765, -3.272043, 49.000000
12.743765, -3.272043, 49.125000
12.743765, -3.272043, 49.250000
12.743765, -3.272043, 49.375000
13.097758, -3.362933, 49.500000
13.097758, -3.362933, 49.625000
13.097758, -3.362933, 49.750000
13.097758, -3.362933, 49.875000
13.097758, -3.362933, 50.000000
13.451752, -3.453823, 50.125000
13.451752, -3.453823, 50.250000
13.451752, -3.453823, 50.375000
13.451752, -3.453823, 50.500000
13.805745, -3.544713, 50.625000
13.805745, -3.544713, 50.750000
13.805745, -3.544713, 50.875000
13.805745, -3.544713, 51.000000
13.805745, -3.544713, 51.125000
14.159739, -3.635603, 51.250000
14.159739, -3.635603, 51.375000
14.159739, -3.635603, 51.500000
14.159739, -3.635603, 51.625000
14.159739, -3.635603, 51.750000
14.513732, -3.726493, 51.875000
14.513732, -3.726493, 52.000000
14.513732, -3.726493, 52.125000
14.513732, -3.726493, 52.250000
14.513732, -3.726493, 52.375000
14.513732, -3.726493, 52.500000
14.867725, -3.817383, 52.625000
14.867725, -3.817383, 52.750000
14.867725, -3.817383, 52.875000
14.867725, -3.817383, 53.000000
15.221719, -3.908273, 53.125000
15.221719, -3.908273, 53.250000
15.221719, -3.908273, 53.375000
15.221719, -3.908273, 53.500000
15.575712, -3.999163, 53.625000
15.575712, -3.999163, 53.750000
15.575712, -3.999163, 53.875000
15.575712, -3.999163, 54.000000
15.575712, -3.999163, 54.125000
15.929706, -4.090053, 54.250000
15.929706, -4.090053, 54.375000
15.929706, -4.090053, 54.500000
15.929706, -4.090053, 54.625000
16.283699, -4.180943, 54.750000
16.283699, -4.180943, 54.875000
16.283699, -4.180943, 55.000000
16.283699, -4.180943, 55.125000
16.637693, -4.271833, 55.250000
16.637693, -4.271833, 55.375000
16.637693, -4.271833, 55.500000
16.991686, -4.362724, 55.625000
16.991686, -4.362724, 55.750000
16.991686, -4.362724, 55.875000
16.991686, -4.362724, 56.000000
16.991686, -4.362724, 56.125000
17.345680, -4.453614, 56.250000
17.345680, -4.453614, 56.375000
17.345680, -4.453614, 56.500000
17.345680, -4.453614, 56.625000
17.699673, -4.544504, 56.750000
17.699673, -4.544504, 56.875000
17.699673, -4.544504, 57.000000
17.699673, -4.544504, 57.125000
18.053667, -4.635394, 57.250000
18.053667, -4.635394, 57.375000
18.053667, -4.635394, 57.500000
18.053667, -4.635394, 57.625000
18.053667, -4.635394, 57.750000
18.407660, -4.726284, 57.875000
18.407660, -4.726284, 58.000000
18.407660, -4.726284, 58.125000
18.407660, -4.726284, 58.250000
18.761654, -4.817174, 58.375000
18.761654, -4.817174, 58.500000
18.761654, -4.817174, 58.625000
19.115647, -4.908064, 58.750000
18.761654, -4.817174, 58.875000
19.115647, -4.908064, 59.000000
19.115647, -4.908064, 59.125000
19.115647, -4.908064, 59.250000
19.115647, -4.908064, 59.375000
19.469640, -4.998954, 59.500000
19.469640, -4.998954, 59.625000
19.469640, -4.998954, 59.750000
19.469640, -4.998954, 59.875000
19.469640, -4.998954, 60.000000
19.823634, -5.089844, 60.125000
19.823634, -5.089844, 60.250000
19.823634, -5.089844, 60.375000
19.823634, -5.089844, 60.500000
20.177627, -5.180734, 60.625000
20.177627, -5.180734, 60.750000
20.177627, -5.180734, 60.875000
20.531621, -5.271624, 61.000000
20.531621, -5.271624, 61.125000
20.531621, -5.271624, 61.250000
20.531621, -5.271624, 61.375000
20.885614, -5.362514, 61.500000
20.885614, -5.362514, 61.625000
20.885614, -5.362514, 61.750000
20.885614, -5.362514, 61.875000
20.885614, -5.362514, 62.000000
21.239608, -5.453404, 62.125000
21.239608, -5.453404, 62.250000
21.239608, -5.453404, 62.375000
21.593601, -5.544294, 62.500000
21.593601, -5.544294, 62.625000
21.593601, -5.544294, 62.750000
21.593601, -5.544294, 62.875000
21.593601, -5.544294, 63.000000
21.947595, -5.635185, 63.125000
21.947595, -5.635185, 63.250000
21.947595, -5.635185, 63.375000
21.947595, -5.635185, 63.500000
21.947595, -5.635185, 63.625000
22.301588, -5.726075, 63.750000
22.301588, -5.726075, 63.875000
22.301588, -5.726075, 64.000000
22.655582, -5.816965, 64.125000
22.655582, -5.816965, 64.250000
22.655582, -5.816965, 64.375000
22.655582, -5.816965, 64.500000
23.009575, -5.907855, 64.625000
22.655582, -5.816965, 64.750000
23.009575, -5.907855, 64.875000
23.009575, -5.907855, 65.000000
23.009575, -5.907855, 65.125000
23.363569, -5.998745, 65.250000
23.363569, -5.998745, 65.375000
23.363569, -5.998745, 65.500000
23.363569, -5.998745, 65.625000
23.717562, -6.089635, 65.750000
23.717562, -6.089635, 65.875000
23.717562, -6.089635, 66.000000
24.071556, -6.180525, 66.125000
24.071556, -6.180525, 66.250000
24.071556, -6.180525, 66.375000
24.071556, -6.180525, 66.500000
24.071556, -6.180525, 66.625000
24.425549, -6.271415, 66.750000
24.425549, -6.271415, 66.875000
24.425549, -6.271415, 67.000000
24.425549, -6.271415, 67.125000
24.425549, -6.271415, 67.250000
24.425549, -6.271415, 67.375000
24.779542, -6.362305, 67.500000
24.779542, -6.362305, 67.625000
24.779542, -6.362305, 67.750000
24.779542, -6.362305, 67.875000
25.133536, -6.453195, 68.000000
25.133536, -6.453195, 68.125000
25.133536, -6.453195, 68.250000
25.133536, -6.453195, 68.375000
25.133536, -6.453195, 68.500000
25.487529, -6.544085, 68.625000
25.487529, -6.544085, 68.750000
25.487529, -6.544085, 68.875000
25.487529, -6.544085, 69.000000
25.487529, -6.544085, 69.125000
25.841523, -6.634975, 69.250000
25.841523, -6.634975, 69.375000
25.841523, -6.634975, 69.500000
26.195516, -6.725865, 69.625000
26.195516, -6.725865, 69.750000
26.195516, -6.725865, 69.875000
26.195516, -6.725865, 70.000000
26.195516, -6.725865, 70.125000
26.549510, -6.816755, 70.250000
26.549510, -6.816755, 70.375000
26.549510, -6.816755, 70.500000
26.549510, -6.816755, 70.625000
26.903503, -6.907646, 70.750000
26.903503, -6.907646, 70.875000
26.903503, -6.907646, 71.000000
26.903503, -6.907646, 71.125000
27.257497, -6.998536, 71.250000
27.257497, -6.998536, 71.375000
27.257497, -6.998536, 71.500000
27.257497, -6.998536, 71.625000
27.257497, -6.998536, 71.750000
27.257497, -6.998536, 71.875000
27.611490, -7.089426, 72.000000
27.611490, -7.089426, 72.125000
27.965484, -7.180316, 72.250000
27.965484, -7.180316, 72.375000
27.965484, -7.180316, 72.500000
27.965484, -7.180316, 72.625000
27.965484, -7.180316, 72.750000
28.319477, -7.271206, 72.875000
28.319477, -7.271206, 73.000000
28.319477, -7.271206, 73.125000
28.319477, -7.271206, 73.250000
28.673471, -7.362096, 73.375000
28.673471, -7.362096, 73.500000
28.673471, -7.362096, 73.625000
28.673471, -7.362096, 73.750000
28.673471, -7.362096, 73.875000
29.027464, -7.452986, 74.000000
29.027464, -7.452986, 74.125000
29.027464, -7.452986, 74.250000
29.381457, -7.543876, 74.375000
29.381457, -7.543876, 74.500000
29.381457, -7.543876, 74.625000
29.381457, -7.543876, 74.750000
29.735451, -7.634766, 74.875000
29.735451, -7.634766, 75.000000
29.735451, -7.634766, 75.125000
29.735451, -7.634766, 75.250000
29.735451, -7.634766, 75.375000
30.089444, -7.725656, 75.500000
30.089444, -7.725656, 75.625000
30.089444, -7.725656, 75.750000
30.443438, -7.816546, 75.875000
30.443438, -7.816546, 76.000000
30.443438, -7.816546, 76.125000
30.443438, -7.816546, 76.250000
30.443438, -7.816546, 76.375000
30.797431, -7.907436, 76.500000
30.797431, -7.907436, 76.625000
30.797431, -7.907436, 76.750000
31.151425, -7.998326, 76.875000
31.151425, -7.998326, 77.000000
31.151425, -7.998326, 77.125000
31.151425, -7.998326, 77.250000
31.151425, -7.998326, 77.375000
31.151425, -7.998326, 77.500000
31.505418, -8.089217, 77.625000
31.505418, -8.089217, 77.750000
31.859412, -8.180107, 77.875000
31.859412, -8.180107, 78.000000
31.859412, -8.180107, 78.125000
31.859412, -8.180107, 78.250000
31.859412, -8.180107, 78.375000
32.213405, -8.270997, 78.500000
32.213405, -8.270997, 78.625000
32.213405, -8.270997, 78.750000
32.213405, -8.270997, 78.875000
32.213405, -8.270997, 79.000000
32.213405, -8.270997, 79.125000
32.567399, -8.361887, 79.250000
32.567399, -8.361887, 79.375000
32.567399, -8.361887, 79.500000
32.921392, -8.452777, 79.625000
32.921392, -8.452777, 79.750000
32.921392, -8.452777, 79.875000
32.921392, -8.452777, 80.000000
32.921392, -8.452777, 80.125000
33.275386, -8.543667, 80.250000
32.921392, -8.452777, 80.375000
33.275386, -8.543667, 80.500000
33.275386, -8.543667, 80.625000
33.275386, -8.543667, 80.750000
33.629379, -8.634557, 80.875000
33.275386, -8.543667, 81.000000
33.275386, -8.543667, 81.125000
33.629379, -8.634557, 81.250000
33.629379, -8.634557, 81.375000
33.629379, -8.634557, 81.500000
33.629379, -8.634557, 81.625000
33.629379, -8.634557, 81.750000
55.576974, -14.269742, 103.000000
54.868987, -14.087961, 103.125000
54.514993, -13.997071, 103.250000
53.453013, -13.724401, 103.375000
55.576974, -14.269742, 103.500000
55.576974, -14.269742, 103.625000
58.054928, -14.905972, 103.750000
56.638954, -14.542412, 103.875000
56.638954, -14.542412, 104.000000
54.161000, -13.906181, 104.125000
54.161000, -13.906181, 104.250000
57.346941, -14.724192, 104.375000
58.054928, -14.905972, 104.500000
58.054928, -14.905972, 104.625000
57.700935, -14.815082, 104.750000
58.054928, -14.905972, 104.875000
58.054928, -14.905972, 105.000000
58.762915, -15.087752, 105.125000
196.527217, -43.929038, 0.000000
196.883891, -44.008764, 0.125000
190.463764, -42.573695, 0.250000
197.953912, -44.247942, 0.375000
197.597238, -44.168216, 0.500000
197.597238, -44.168216, 0.625000
197.597238, -44.168216, 0.750000
197.597238, -44.168216, 0.875000
196.883891, -44.008764, 1.000000
196.883891, -44.008764, 1.125000
197.597238, -44.168216, 1.250000
197.240565, -44.088490, 1.375000
191.890459, -42.892599, 1.500000
191.890459, -42.892599, 1.625000
197.953912, -44.247942, 1.750000
196.883891, -44.008764, 1.875000
195.813870, -43.769586, 2.000000
195.813870, -43.769586, 2.125000
194.387175, -43.450682, 2.250000
195.457196, -43.689860, 2.375000
195.457196, -43.689860, 2.500000
195.457196, -43.689860, 2.625000
9.273517, -2.072877, 43.750000
9.986864, -2.232329, 43.875000
9.630190, -2.152603, 44.000000
9.986864, -2.232329, 44.125000
9.986864, -2.232329, 44.250000
9.630190, -2.152603, 44.375000
9.986864, -2.232329, 44.500000
9.986864, -2.232329, 44.625000
9.986864, -2.232329, 44.750000
9.986864, -2.232329, 44.875000
9.986864, -2.232329, 45.000000
9.986864, -2.232329, 45.125000
10.343538, -2.312055, 45.250000
10.343538, -2.312055, 45.375000
10.343538, -2.312055, 45.500000
10.343538, -2.312055, 45.625000
10.343538, -2.312055, 45.750000
10.700211, -2.391781, 45.875000
10.700211, -2.391781, 46.000000
10.700211, -2.391781, 46.125000
11.056885, -2.471507, 46.250000
11.056885, -2.471507, 46.375000
11.056885, -2.471507, 46.500000
11.056885, -2.471507, 46.625000
11.056885, -2.471507, 46.750000
11.056885, -2.471507, 46.875000
11.413559, -2.551233, 47.000000
11.413559, -2.551233, 47.125000
11.413559, -2.551233, 47.250000
11.413559, -2.551233, 47.375000
11.413559, -2.551233, 47.500000
11.770233, -2.630959, 47.625000
11.770233, -2.630959, 47.750000
11.770233, -2.630959, 47.875000
12.126906, -2.710685, 48.000000
12.126906, -2.710685, 48.125000
12.126906, -2.710685, 48.250000
12.483580, -2.790411, 48.375000
12.483580, -2.790411, 48.500000
12.483580, -2.790411, 48.625000
12.840254, -2.870137, 48.750000
12.483580, -2.790411, 48.875000
12.483580, -2.790411, 49.000000
12.840254, -2.870137, 49.125000
12.840254, -2.870137, 49.250000
12.840254, -2.870137, 49.375000
12.840254, -2.870137, 49.500000
12.840254, -2.870137, 49.625000
12.840254, -2.870137, 49.750000
12.840254, -2.870137, 49.875000
13.196927, -2.949863, 50.000000
13.196927, -2.949863, 50.125000
13.196927, -2.949863, 50.250000
13.553601, -3.029589, 50.375000
13.553601, -3.029589, 50.500000
13.553601, -3.029589, 50.625000
13.553601, -3.029589, 50.750000
13.553601, -3.029589, 50.875000
13.553601, -3.029589, 51.000000
13.910275, -3.109315, 51.125000
14.266949, -3.189041, 51.250000
13.910275, -3.109315, 51.375000
13.910275, -3.109315, 51.500000
13.910275, -3.109315, 51.625000
13.910275, -3.109315, 51.750000
14.266949, -3.189041, 51.875000
14.266949, -3.189041, 52.000000
14.266949, -3.189041, 52.125000
14.266949, -3.189041, 52.250000
14.623622, -3.268767, 52.375000
14.623622, -3.268767, 52.500000
14.623622, -3.268767, 52.625000
14.980296, -3.348493, 52.750000
14.980296, -3.348493, 52.875000
14.980296, -3.348493, 53.000000
14.980296, -3.348493, 53.125000
15.336970, -3.428219, 53.250000
15.336970, -3.428219, 53.375000
15.336970, -3.428219, 53.500000
15.336970, -3.428219, 53.625000
15.336970, -3.428219, 53.750000
15.336970, -3.428219, 53.875000
15.693643, -3.507945, 54.000000
15.693643, -3.507945, 54.125000
15.693643, -3.507945, 54.250000
16.050317, -3.587671, 54.375000
16.050317, -3.587671, 54.500000
16.050317, -3.587671, 54.625000
16.050317, -3.587671, 54.750000
16.050317, -3.587671, 54.875000
16.406991, -3.667397, 55.000000
16.406991, -3.667397, 55.125000
16.406991, -3.667397, 55.250000
16.406991, -3.667397, 55.375000
16.406991, -3.667397, 55.500000
16.763665, -3.747123, 55.625000
17.120338, -3.826849, 55.750000
16.763665, -3.747123, 55.875000
17.120338, -3.826849, 56.000000
17.120338, -3.826849, 56.125000
17.120338, -3.826849, 56.250000
17.120338, -3.826849, 56.375000
17.120338, -3.826849, 56.500000
17.477012, -3.906575, 56.625000
17.477012, -3.906575, 56.750000
17.833686, -3.986301, 56.875000
17.833686, -3.986301, 57.000000
17.833686, -3.986301, 57.125000
17.833686, -3.986301, 57.250000
17.833686, -3.986301, 57.375000
17.833686, -3.986301, 57.500000
18.190359, -4.066027, 57.625000
18.190359, -4.066027, 57.750000
18.190359, -4.066027, 57.875000
18.547033, -4.145753, 58.000000
18.547033, -4.145753, 58.125000
18.547033, -4.145753, 58.250000
18.547033, -4.145753, 58.375000
18.903707, -4.225479, 58.500000
18.903707, -4.225479, 58.625000
18.903707, -4.225479, 58.750000
18.903707, -4.225479, 58.875000
18.903707, -4.225479, 59.000000
18.903707, -4.225479, 59.125000
19.260381, -4.305205, 59.250000
19.260381, -4.305205, 59.375000
19.617054, -4.384931, 59.500000
19.260381, -4.305205, 59.625000
19.617054, -4.384931, 59.750000
19.617054, -4.384931, 59.875000
19.617054, -4.384931, 60.000000
19.617054, -4.384931, 60.125000
19.973728, -4.464657, 60.250000
19.973728, -4.464657, 60.375000
19.973728, -4.464657, 60.500000
20.330402, -4.544383, 60.625000
19.973728, -4.464657, 60.750000
20.330402, -4.544383, 60.875000
20.330402, -4.544383, 61.000000
20.330402, -4.544383, 61.125000
20.687075, -4.624109, 61.250000
20.687075, -4.624109, 61.375000
20.687075, -4.624109, 61.500000
20.687075, -4.624109, 61.625000
20.687075, -4.624109, 61.750000
20.687075, -4.624109, 61.875000
20.687075, -4.624109, 62.000000
21.043749, -4.703835, 62.125000
21.043749, -4.703835, 62.250000
21.043749, -4.703835, 62.375000
21.043749, -4.703835, 62.500000
21.400423, -4.783561, 62.625000
21.400423, -4.783561, 62.750000
21.400423, -4.783561, 62.875000
21.400423, -4.783561, 63.000000
21.400423, -4.783561, 63.125000
21.757097, -4.863287, 63.250000
22.113770, -4.943013, 63.375000
21.757097, -4.863287, 63.500000
22.113770, -4.943013, 63.625000
22.113770, -4.943013, 63.750000
22.113770, -4.943013, 63.875000
22.113770, -4.943013, 64.000000
22.113770, -4.943013, 64.125000
22.470444, -5.022739, 64.250000
22.470444, -5.022739, 64.375000
22.827118, -5.102465, 64.500000
22.827118, -5.102465, 64.625000
22.827118, -5.102465, 64.750000
23.183791, -5.182191, 64.875000
22.827118, -5.102465, 65.000000
23.183791, -5.182191, 65.125000
23.183791, -5.182191, 65.250000
23.540465, -5.261917, 65.375000
23.183791, -5.182191, 65.500000
23.540465, -5.261917, 65.625000
23.540465, -5.261917, 65.750000
23.897139, -5.341643, 65.875000
23.540465, -5.261917, 66.000000
23.540465, -5.261917, 66.125000
23.897139, -5.341643, 66.250000
23.897139, -5.341643, 66.375000
23.897139, -5.341643, 66.500000
23.897139, -5.341643, 66.625000
24.253813, -5.421369, 66.750000
24.253813, -5.421369, 66.875000
24.610486, -5.501095, 67.000000
24.253813, -5.421369, 67.125000
24.253813, -5.421369, 67.250000
24.610486, -5.501095, 67.375000
24.610486, -5.501095, 67.500000
24.610486, -5.501095, 67.625000
24.610486, -5.501095, 67.750000
24.967160, -5.580821, 67.875000
24.967160, -5.580821, 68.000000
24.967160, -5.580821, 68.125000
24.967160, -5.580821, 68.250000
24.967160, -5.580821, 68.375000
24.967160, -5.580821, 68.500000
25.323834, -5.660548, 68.625000
25.323834, -5.660548, 68.750000
25.323834, -5.660548, 68.875000
25.680508, -5.740274, 69.000000
25.680508, -5.740274, 69.125000
25.680508, -5.740274, 69.250000
25.680508, -5.740274, 69.375000
26.037181, -5.820000, 69.500000
26.037181, -5.820000, 69.625000
26.037181, -5.820000, 69.750000
26.037181, -5.820000, 69.875000
26.393855, -5.899726, 70.000000
26.393855, -5.899726, 70.125000
26.393855, -5.899726, 70.250000
26.750529, -5.979452, 70.375000
26.750529, -5.979452, 70.500000
26.750529, -5.979452, 70.625000
26.750529, -5.979452, 70.750000
27.107202, -6.059178, 70.875000
26.750529, -5.979452, 71.000000
27.107202, -6.059178, 71.125000
27.107202, -6.059178, 71.250000
27.107202, -6.059178, 71.375000
27.107202, -6.059178, 71.500000
27.463876, -6.138904, 71.625000
27.463876, -6.138904, 71.750000
27.463876, -6.138904, 71.875000
27.463876, -6.138904, 72.000000
27.820550, -6.218630, 72.125000
27.820550, -6.218630, 72.250000
27.820550, -6.218630, 72.375000
27.820550, -6.218630, 72.500000
28.177224, -6.298356, 72.625000
28.177224, -6.298356, 72.750000
28.177224, -6.298356, 72.875000
28.177224, -6.298356, 73.000000
28.177224, -6.298356, 73.125000
28.533897, -6.378082, 73.250000
28.533897, -6.378082, 73.375000
28.533897, -6.378082, 73.500000
28.533897, -6.378082, 73.625000
28.890571, -6.457808, 73.750000
28.890571, -6.457808, 73.875000
28.890571, -6.457808, 74.000000
28.890571, -6.457808, 74.125000
28.890571, -6.457808, 74.250000
29.247245, -6.537534, 74.375000
29.247245, -6.537534, 74.500000
29.603918, -6.617260, 74.625000
29.603918, -6.617260, 74.750000
29.603918, -6.617260, 74.875000
29.603918, -6.617260, 75.000000
29.603918, -6.617260, 75.125000
29.960592, -6.696986, 75.250000
29.960592, -6.696986, 75.375000
29.960592, -6.696986, 75.500000
29.960592, -6.696986, 75.625000
30.317266, -6.776712, 75.750000
30.317266, -6.776712, 75.875000
30.317266, -6.776712, 76.000000
30.317266, -6.776712, 76.125000
30.317266, -6.776712, 76.250000
30.673940, -6.856438, 76.375000
30.673940, -6.856438, 76.500000
30.673940, -6.856438, 76.625000
31.030613, -6.936164, 76.750000
31.030613, -6.936164, 76.875000
31.030613, -6.936164, 77.000000
31.030613, -6.936164, 77.125000
31.387287, -7.015890, 77.250000
31.387287, -7.015890, 77.375000
31.387287, -7.015890, 77.500000
31.387287, -7.015890, 77.625000
31.387287, -7.015890, 77.750000
31.387287, -7.015890, 77.875000
31.743961, -7.095616, 78.000000
31.743961, -7.095616, 78.125000
31.743961, -7.095616, 78.250000
31.743961, -7.095616, 78.375000
32.100634, -7.175342, 78.500000
32.100634, -7.175342, 78.625000
32.457308, -7.255068, 78.750000
32.457308, -7.255068, 78.875000
32.457308, -7.255068, 79.000000
32.457308, -7.255068, 79.125000
32.813982, -7.334794, 79.250000
32.813982, -7.334794, 79.375000
32.813982, -7.334794, 79.500000
32.813982, -7.334794, 79.625000
32.813982, -7.334794, 79.750000
32.813982, -7.334794, 79.875000
32.813982, -7.334794, 80.000000
33.170656, -7.414520, 80.125000
33.170656, -7.414520, 80.250000
33.170656, -7.414520, 80.375000
33.527329, -7.494246, 80.500000
33.170656, -7.414520, 80.625000
33.170656, -7.414520, 80.750000
33.527329, -7.494246, 80.875000
33.170656, -7.414520, 81.000000
33.170656, -7.414520, 81.125000
33.527329, -7.494246, 81.250000
33.527329, -7.494246, 81.375000
33.527329, -7.494246, 81.500000
33.527329, -7.494246, 81.625000
56.354447, -12.596711, 103.000000
55.641100, -12.437259, 103.125000
54.927752, -12.277807, 103.250000
53.857731, -12.038629, 103.375000
55.997773, -12.516985, 103.500000
55.997773, -12.516985, 103.625000
58.137816, -12.995341, 103.750000
57.067794, -12.756163, 103.875000
57.067794, -12.756163, 104.000000
54.571078, -12.198081, 104.125000
54.571078, -12.198081, 104.250000
57.781142, -12.915615, 104.375000
58.494489, -13.075067, 104.500000
58.137816, -12.995341, 104.625000
58.494489, -13.075067, 104.750000
58.494489, -13.075067, 104.875000
58.851163, -13.154793, 105.000000
59.207837, -13.234520, 105.125000
198.169089, -37.802776, 0.000000
197.810087, -37.734292, 0.125000
191.707054, -36.570076, 0.250000
198.887093, -37.939742, 0.375000
198.528091, -37.871259, 0.500000
198.528091, -37.871259, 0.625000
198.887093, -37.939742, 0.750000
198.528091, -37.871259, 0.875000
198.169089, -37.802776, 1.000000
198.169089, -37.802776, 1.125000
198.528091, -37.871259, 1.250000
198.528091, -37.871259, 1.375000
193.143062, -36.844009, 1.500000
193.143062, -36.844009, 1.625000
199.246095, -38.008225, 1.750000
198.887093, -37.939742, 1.875000
197.092083, -37.597326, 2.000000
196.015077, -37.391876, 2.125000
196.015077, -37.391876, 2.250000
196.733081, -37.528842, 2.375000
197.092083, -37.597326, 2.500000
196.733081, -37.528842, 2.625000
9.693053, -1.849049, 43.750000
9.334051, -1.780566, 43.875000
9.693053, -1.849049, 44.000000
9.693053, -1.849049, 44.125000
9.693053, -1.849049, 44.250000
9.693053, -1.849049, 44.375000
9.693053, -1.849049, 44.500000
9.693053, -1.849049, 44.625000
10.052055, -1.917532, 44.750000
10.052055, -1.917532, 44.875000
10.052055, -1.917532, 45.000000
10.052055, -1.917532, 45.125000
10.411057, -1.986015, 45.250000
10.411057, -1.986015, 45.375000
10.411057, -1.986015, 45.500000
10.411057, -1.986015, 45.625000
10.411057, -1.986015, 45.750000
11.129061, -2.122982, 45.875000
10.770059, -2.054499, 46.000000
10.770059, -2.054499, 46.125000
11.129061, -2.122982, 46.250000
10.770059, -2.054499, 46.375000
10.770059, -2.054499, 46.500000
11.129061, -2.122982, 46.625000
11.129061, -2.122982, 46.750000
11.488063, -2.191465, 46.875000
11.488063, -2.191465, 47.000000
11.488063, -2.191465, 47.125000
11.488063, -2.191465, 47.250000
11.488063, -2.191465, 47.375000
11.847065, -2.259949, 47.500000
11.847065, -2.259949, 47.625000
12.206067, -2.328432, 47.750000
11.847065, -2.259949, 47.875000
12.206067, -2.328432, 48.000000
12.206067, -2.328432, 48.125000
12.206067, -2.328432, 48.250000
12.206067, -2.328432, 48.375000
12.206067, -2.328432, 48.500000
12.206067, -2.328432, 48.625000
12.565069, -2.396915, 48.750000
12.206067, -2.328432, 48.875000
12.565069, -2.396915, 49.000000
12.565069, -2.396915, 49.125000
12.924071, -2.465398, 49.250000
12.924071, -2.465398, 49.375000
12.924071, -2.465398, 49.500000
12.924071, -2.465398, 49.625000
12.924071, -2.465398, 49.750000
12.924071, -2.465398, 49.875000
13.283073, -2.533882, 50.000000
13.283073, -2.533882, 50.125000
13.283073, -2.533882, 50.250000
13.283073, -2.533882, 50.375000
13.642075, -2.602365, 50.500000
13.642075, -2.602365, 50.625000
13.642075, -2.602365, 50.750000
13.642075, -2.602365, 50.875000
13.642075, -2.602365, 51.000000
14.001077, -2.670848, 51.125000
14.360079, -2.739332, 51.250000
14.001077, -2.670848, 51.375000
14.001077, -2.670848, 51.500000
14.001077, -2.670848, 51.625000
14.001077, -2.670848, 51.750000
14.360079, -2.739332, 51.875000
14.719081, -2.807815, 52.000000
14.360079, -2.739332, 52.125000
14.719081, -2.807815, 52.250000
14.719081, -2.807815, 52.375000
14.719081, -2.807815, 52.500000
14.719081, -2.807815, 52.625000
15.078083, -2.876298, 52.750000
15.078083, -2.876298, 52.875000
15.078083, -2.876298, 53.000000
15.078083, -2.876298, 53.125000
15.078083, -2.876298, 53.250000
15.078083, -2.876298, 53.375000
15.437085, -2.944781, 53.500000
15.437085, -2.944781, 53.625000
15.437085, -2.944781, 53.750000
15.796087, -3.013265, 53.875000
15.796087, -3.013265, 54.000000
15.796087, -3.013265, 54.125000
15.796087, -3.013265, 54.250000
15.796087, -3.013265, 54.375000
16.155089, -3.081748, 54.500000
16.155089, -3.081748, 54.625000
16.155089, -3.081748, 54.750000
16.155089, -3.081748, 54.875000
16.514091, -3.150231, 55.000000
16.514091, -3.150231, 55.125000
16.514091, -3.150231, 55.250000
16.873093, -3.218715, 55.375000
16.873093, -3.218715, 55.500000
16.873093, -3.218715, 55.625000
17.232095, -3.287198, 55.750000
17.232095, -3.287198, 55.875000
16.873093, -3.218715, 56.000000
17.232095, -3.287198, 56.125000
17.232095, -3.287198, 56.250000
17.232095, -3.287198, 56.375000
17.232095, -3.287198, 56.500000
17.232095, -3.287198, 56.625000
17.591097, -3.355681, 56.750000
17.950099, -3.424164, 56.875000
17.950099, -3.424164, 57.000000
17.950099, -3.424164, 57.125000
17.950099, -3.424164, 57.250000
17.950099, -3.424164, 57.375000
17.950099, -3.424164, 57.500000
18.309101, -3.492648, 57.625000
18.309101, -3.492648, 57.750000
18.309101, -3.492648, 57.875000
18.309101, -3.492648, 58.000000
18.309101, -3.492648, 58.125000
18.668103, -3.561131, 58.250000
18.668103, -3.561131, 58.375000
18.668103, -3.561131, 58.500000
18.668103, -3.561131, 58.625000
19.027105, -3.629614, 58.750000
19.027105, -3.629614, 58.875000
19.027105, -3.629614, 59.000000
19.027105, -3.629614, 59.125000
19.027105, -3.629614, 59.250000
19.386107, -3.698098, 59.375000
19.386107, -3.698098, 59.500000
19.386107, -3.698098, 59.625000
19.745109, -3.766581, 59.750000
19.745109, -3.766581, 59.875000
19.745109, -3.766581, 60.000000
20.104111, -3.835064, 60.125000
20.104111, -3.835064, 60.250000
20.104111, -3.835064, 60.375000
20.104111, -3.835064, 60.500000
20.104111, -3.835064, 60.625000
20.104111, -3.835064, 60.750000
20.463112, -3.903547, 60.875000
20.463112, -3.903547, 61.000000
20.463112, -3.903547, 61.125000
20.463112, -3.903547, 61.250000
20.822114, -3.972031, 61.375000
20.822114, -3.972031, 61.500000
20.822114, -3.972031, 61.625000
20.822114, -3.972031, 61.750000
20.822114, -3.972031, 61.875000
20.822114, -3.972031, 62.000000
21.181116, -4.040514, 62.125000
21.181116, -4.040514, 62.250000
21.181116, -4.040514, 62.375000
21.181116, -4.040514, 62.500000
21.540118, -4.108997, 62.625000
21.540118, -4.108997, 62.750000
21.540118, -4.108997, 62.875000
21.540118, -4.108997, 63.000000
21.540118, -4.108997, 63.125000
21.899120, -4.177481, 63.250000
22.258122, -4.245964, 63.375000
22.258122, -4.245964, 63.500000
21.899120, -4.177481, 63.625000
22.258122, -4.245964, 63.750000
22.617124, -4.314447, 63.875000
22.258122, -4.245964, 64.000000
22.617124, -4.314447, 64.125000
22.617124, -4.314447, 64.250000
22.617124, -4.314447, 64.375000
22.617124, -4.314447, 64.500000
22.976126, -4.382930, 64.625000
22.976126, -4.382930, 64.750000
22.976126, -4.382930, 64.875000
23.335128, -4.451414, 65.000000
23.335128, -4.451414, 65.125000
23.335128, -4.451414, 65.250000
23.694130, -4.519897, 65.375000
23.335128, -4.451414, 65.500000
23.694130, -4.519897, 65.625000
23.694130, -4.519897, 65.750000
23.694130, -4.519897, 65.875000
23.694130, -4.519897, 66.000000
23.694130, -4.519897, 66.125000
24.053132, -4.588380, 66.250000
24.053132, -4.588380, 66.375000
24.053132, -4.588380, 66.500000
24.053132, -4.588380, 66.625000
24.412134, -4.656864, 66.750000
24.412134, -4.656864, 66.875000
24.412134, -4.656864, 67.000000
24.412134, -4.656864, 67.125000
24.412134, -4.656864, 67.250000
24.771136, -4.725347, 67.375000
24.771136, -4.725347, 67.500000
24.771136, -4.725347, 67.625000
24.771136, -4.725347, 67.750000
24.771136, -4.725347, 67.875000
24.771136, -4.725347, 68.000000
25.130138, -4.793830, 68.125000
25.130138, -4.793830, 68.250000
25.130138, -4.793830, 68.375000
25.489140, -4.862314, 68.500000
25.489140, -4.862314, 68.625000
25.848142, -4.930797, 68.750000
25.848142, -4.930797, 68.875000
25.848142, -4.930797, 69.000000
25.848142, -4.930797, 69.125000
25.848142, -4.930797, 69.250000
25.848142, -4.930797, 69.375000
25.848142, -4.930797, 69.500000
26.207144, -4.999280, 69.625000
26.207144, -4.999280, 69.750000
26.207144, -4.999280, 69.875000
26.566146, -5.067763, 70.000000
26.207144, -4.999280, 70.125000
26.566146, -5.067763, 70.250000
26.566146, -5.067763, 70.375000
26.925148, -5.136247, 70.500000
26.925148, -5.136247, 70.625000
26.925148, -5.136247, 70.750000
26.925148, -5.136247, 70.875000
26.925148, -5.136247, 71.000000
26.925148, -5.136247, 71.125000
27.284150, -5.204730, 71.250000
27.284150, -5.204730, 71.375000
27.284150, -5.204730, 71.500000
27.643152, -5.273213, 71.625000
27.643152, -5.273213, 71.750000
27.643152, -5.273213, 71.875000
27.643152, -5.273213, 72.000000
27.643152, -5.273213, 72.125000
28.002154, -5.341697, 72.250000
28.002154, -5.341697, 72.375000
28.002154, -5.341697, 72.500000
28.361156, -5.410180, 72.625000
28.361156, -5.410180, 72.750000
28.361156, -5.410180, 72.875000
28.361156, -5.410180, 73.000000
28.361156, -5.410180, 73.125000
28.720158, -5.478663, 73.250000
28.720158, -5.478663, 73.375000
28.720158, -5.478663, 73.500000
29.079160, -5.547146, 73.625000
29.079160, -5.547146, 73.750000
29.079160, -5.547146, 73.875000
29.079160, -5.547146, 74.000000
29.438162, -5.615630, 74.125000
29.079160, -5.547146, 74.250000
29.438162, -5.615630, 74.375000
29.438162, -5.615630, 74.500000
29.438162, -5.615630, 74.625000
29.797164, -5.684113, 74.750000
29.797164, -5.684113, 74.875000
29.797164, -5.684113, 75.000000
30.156166, -5.752596, 75.125000
30.156166, -5.752596, 75.250000
30.156166, -5.752596, 75.375000
30.156166, -5.752596, 75.500000
30.156166, -5.752596, 75.625000
30.515168, -5.821080, 75.750000
30.515168, -5.821080, 75.875000
30.515168, -5.821080, 76.000000
30.515168, -5.821080, 76.125000
30.874170, -5.889563, 76.250000
30.515168, -5.821080, 76.375000
30.874170, -5.889563, 76.500000
30.874170, -5.889563, 76.625000
31.233172, -5.958046, 76.750000
31.233172, -5.958046, 76.875000
31.233172, -5.958046, 77.000000
31.233172, -5.958046, 77.125000
31.233172, -5.958046, 77.250000
31.233172, -5.958046, 77.375000
31.592174, -6.026529, 77.500000
31.592174, -6.026529, 77.625000
31.951176, -6.095013, 77.750000
31.592174, -6.026529, 77.875000
31.951176, -6.095013, 78.000000
31.951176, -6.095013, 78.125000
32.310178, -6.163496, 78.250000
31.951176, -6.095013, 78.375000
32.310178, -6.163496, 78.500000
32.310178, -6.163496, 78.625000
32.310178, -6.163496, 78.750000
32.310178, -6.163496, 78.875000
32.310178, -6.163496, 79.000000
32.669180, -6.231979, 79.125000
32.669180, -6.231979, 79.250000
33.028182, -6.300463, 79.375000
33.028182, -6.300463, 79.500000
33.028182, -6.300463, 79.625000
33.028182, -6.300463, 79.750000
33.028182, -6.300463, 79.875000
33.387184, -6.368946, 80.000000
33.387184, -6.368946, 80.125000
33.387184, -6.368946, 80.250000
33.387184, -6.368946, 80.375000
33.387184, -6.368946, 80.500000
33.387184, -6.368946, 80.625000
33.387184, -6.368946, 80.750000
33.746185, -6.437429, 80.875000
33.387184, -6.368946, 81.000000
33.387184, -6.368946, 81.125000
33.746185, -6.437429, 81.250000
33.387184, -6.368946, 81.375000
33.746185, -6.437429, 81.500000
33.746185, -6.437429, 81.625000
33.746185, -6.437429, 81.750000
58.517322, -11.162776, 103.000000
56.004308, -10.683393, 103.125000
55.286304, -10.546427, 103.250000
54.209298, -10.340977, 103.375000
56.363310, -10.751876, 103.500000
56.363310, -10.751876, 103.625000
58.517322, -11.162776, 103.750000
57.440316, -10.957326, 103.875000
57.440316, -10.957326, 104.000000
54.927302, -10.477943, 104.125000
54.568300, -10.409460, 104.250000
57.799318, -11.025810, 104.375000
59.235326, -11.299743, 104.500000
58.517322, -11.162776, 104.625000
58.876324, -11.231259, 104.750000
58.876324, -11.231259, 104.875000
59.235326, -11.299743, 105.000000
59.594328, -11.368226, 105.125000
199.258719, -31.559481, 0.000000
199.258719, -31.559481, 0.125000
199.619695, -31.616654, 0.250000
199.980670, -31.673827, 0.375000
199.980670, -31.673827, 0.500000
199.619695, -31.616654, 0.625000
199.980670, -31.673827, 0.750000
199.619695, -31.616654, 0.875000
199.258719, -31.559481, 1.000000
198.897743, -31.502308, 1.125000
199.619695, -31.616654, 1.250000
199.619695, -31.616654, 1.375000
194.205055, -30.759059, 1.500000
194.205055, -30.759059, 1.625000
200.341646, -31.731000, 1.750000
199.619695, -31.616654, 1.875000
199.258719, -31.559481, 2.000000
198.897743, -31.502308, 2.125000
197.092863, -31.216443, 2.250000
197.814815, -31.330789, 2.375000
197.814815, -31.330789, 2.500000
197.814815, -31.330789, 2.625000
9.385374, -1.486497, 43.750000
9.385374, -1.486497, 43.875000
9.746350, -1.543670, 44.000000
9.746350, -1.543670, 44.125000
9.746350, -1.543670, 44.250000
9.746350, -1.543670, 44.375000
9.746350, -1.543670, 44.500000
9.746350, -1.543670, 44.625000
10.107326, -1.600843, 44.750000
10.107326, -1.600843, 44.875000
10.107326, -1.600843, 45.000000
10.107326, -1.600843, 45.125000
10.468302, -1.658016, 45.250000
10.468302, -1.658016, 45.375000
10.468302, -1.658016, 45.500000
10.468302, -1.658016, 45.625000
10.468302, -1.658016, 45.750000
10.829278, -1.715189, 45.875000
10.468302, -1.658016, 46.000000
10.829278, -1.715189, 46.125000
10.829278, -1.715189, 46.250000
10.829278, -1.715189, 46.375000
11.190254, -1.772362, 46.500000
11.190254, -1.772362, 46.625000
11.190254, -1.772362, 46.750000
11.190254, -1.772362, 46.875000
11.190254, -1.772362, 47.000000
11.190254, -1.772362, 47.125000
11.551230, -1.829535, 47.250000
11.551230, -1.829535, 47.375000
11.551230, -1.829535, 47.500000
11.551230, -1.829535, 47.625000
11.912206, -1.886708, 47.750000
11.912206, -1.886708, 47.875000
12.273182, -1.943881, 48.000000
11.912206, -1.886708, 48.125000
11.912206, -1.886708, 48.250000
12.273182, -1.943881, 48.375000
12.273182, -1.943881, 48.500000
12.273182, -1.943881, 48.625000
12.273182, -1.943881, 48.750000
12.634158, -2.001054, 48.875000
12.634158, -2.001054, 49.000000
12.634158, -2.001054, 49.125000
12.634158, -2.001054, 49.250000
12.634158, -2.001054, 49.375000
12.995134, -2.058227, 49.500000
12.995134, -2.058227, 49.625000
12.995134, -2.058227, 49.750000
12.995134, -2.058227, 49.875000
13.356110, -2.115400, 50.000000
13.356110, -2.115400, 50.125000
13.356110, -2.115400, 50.250000
13.717086, -2.172573, 50.375000
13.356110, -2.115400, 50.500000
13.356110, -2.115400, 50.625000
13.356110, -2.115400, 50.750000
13.356110, -2.115400, 50.875000
13.717086, -2.172573, 51.000000
13.717086, -2.172573, 51.125000
13.717086, -2.172573, 51.250000
14.078062, -2.229746, 51.375000
14.078062, -2.229746, 51.500000
14.078062, -2.229746, 51.625000
14.078062, -2.229746, 51.750000
14.439038, -2.286919, 51.875000
14.439038, -2.286919, 52.000000
14.439038, -2.286919, 52.125000
14.439038, -2.286919, 52.250000
14.439038, -2.286919, 52.375000
14.800014, -2.344092, 52.500000
14.800014, -2.344092, 52.625000
14.800014, -2.344092, 52.750000
15.160989, -2.401265, 52.875000
15.160989, -2.401265, 53.000000
15.160989, -2.401265, 53.125000
15.521965, -2.458438, 53.250000
15.160989, -2.401265, 53.375000
15.160989, -2.401265, 53.500000
15.521965, -2.458438, 53.625000
15.521965, -2.458438, 53.750000
15.882941, -2.515611, 53.875000
15.521965, -2.458438, 54.000000
15.882941, -2.515611, 54.125000
15.882941, -2.515611, 54.250000
15.882941, -2.515611, 54.375000
15.882941, -2.515611, 54.500000
15.882941, -2.515611, 54.625000
16.243917, -2.572784, 54.750000
16.243917, -2.572784, 54.875000
16.243917, -2.572784, 55.000000
16.243917, -2.572784, 55.125000
16.243917, -2.572784, 55.250000
16.965869, -2.687130, 55.375000
16.604893, -2.629957, 55.500000
16.604893, -2.629957, 55.625000
16.604893, -2.629957, 55.750000
16.965869, -2.687130, 55.875000
16.965869, -2.687130, 56.000000
16.965869, -2.687130, 56.125000
16.965869, -2.687130, 56.250000
17.326845, -2.744303, 56.375000
17.326845, -2.744303, 56.500000
17.326845, -2.744303, 56.625000
17.326845, -2.744303, 56.750000
17.326845, -2.744303, 56.875000
18.048797, -2.858649, 57.000000
17.687821, -2.801476, 57.125000
17.687821, -2.801476, 57.250000
18.048797, -2.858649, 57.375000
18.048797, -2.858649, 57.500000
18.048797, -2.858649, 57.625000
18.048797, -2.858649, 57.750000
18.048797, -2.858649, 57.875000
18.048797, -2.858649, 58.000000
18.409773, -2.915822, 58.125000
18.409773, -2.915822, 58.250000
18.770749, -2.972995, 58.375000
18.770749, -2.972995, 58.500000
18.770749, -2.972995, 58.625000
18.770749, -2.972995, 58.750000
18.770749, -2.972995, 58.875000
19.131725, -3.030168, 59.000000
19.131725, -3.030168, 59.125000
19.131725, -3.030168, 59.250000
19.492701, -3.087340, 59.375000
19.492701, -3.087340, 59.500000
19.492701, -3.087340, 59.625000
19.853677, -3.144513, 59.750000
19.492701, -3.087340, 59.875000
19.853677, -3.144513, 60.000000
19.853677, -3.144513, 60.125000
19.853677, -3.144513, 60.250000
19.853677, -3.144513, 60.375000
20.214653, -3.201686, 60.500000
20.214653, -3.201686, 60.625000
20.575629, -3.258859, 60.750000
20.214653, -3.201686, 60.875000
20.214653, -3.201686, 61.000000
20.214653, -3.201686, 61.125000
20.575629, -3.258859, 61.250000
20.575629, -3.258859, 61.375000
20.575629, -3.258859, 61.500000
20.575629, -3.258859, 61.625000
20.936604, -3.316032, 61.750000
20.936604, -3.316032, 61.875000
20.936604, -3.316032, 62.000000
20.936604, -3.316032, 62.125000
20.936604, -3.316032, 62.250000
21.297580, -3.373205, 62.375000
21.297580, -3.373205, 62.500000
21.297580, -3.373205, 62.625000
21.658556, -3.430378, 62.750000
21.658556, -3.430378, 62.875000
21.658556, -3.430378, 63.000000
21.658556, -3.430378, 63.125000
21.658556, -3.430378, 63.250000
22.019532, -3.487551, 63.375000
22.019532, -3.487551, 63.500000
22.019532, -3.487551, 63.625000
22.019532, -3.487551, 63.750000
22.380508, -3.544724, 63.875000
22.380508, -3.544724, 64.000000
22.380508, -3.544724, 64.125000
22.380508, -3.544724, 64.250000
22.741484, -3.601897, 64.375000
22.741484, -3.601897, 64.500000
22.741484, -3.601897, 64.625000
22.741484, -3.601897, 64.750000
22.741484, -3.601897, 64.875000
23.102460, -3.659070, 65.000000
23.102460, -3.659070, 65.125000
23.102460, -3.659070, 65.250000
23.463436, -3.716243, 65.375000
23.463436, -3.716243, 65.500000
23.463436, -3.716243, 65.625000
23.463436, -3.716243, 65.750000
23.463436, -3.716243, 65.875000
23.824412, -3.773416, 66.000000
23.824412, -3.773416, 66.125000
23.824412, -3.773416, 66.250000
23.824412, -3.773416, 66.375000
24.185388, -3.830589, 66.500000
24.185388, -3.830589, 66.625000
24.185388, -3.830589, 66.750000
24.185388, -3.830589, 66.875000
24.185388, -3.830589, 67.000000
24.546364, -3.887762, 67.125000
24.546364, -3.887762, 67.250000
24.546364, -3.887762, 67.375000
24.546364, -3.887762, 67.500000
24.907340, -3.944935, 67.625000
24.907340, -3.944935, 67.750000
24.907340, -3.944935, 67.875000
24.907340, -3.944935, 68.000000
25.268316, -4.002108, 68.125000
25.268316, -4.002108, 68.250000
25.268316, -4.002108, 68.375000
25.268316, -4.002108, 68.500000
25.629292, -4.059281, 68.625000
25.629292, -4.059281, 68.750000
25.629292, -4.059281, 68.875000
25.990268, -4.116454, 69.000000
25.990268, -4.116454, 69.125000
25.629292, -4.059281, 69.250000
25.990268, -4.116454, 69.375000
25.990268, -4.116454, 69.500000
25.990268, -4.116454, 69.625000
25.990268, -4.116454, 69.750000
25.990268, -4.116454, 69.875000
26.351244, -4.173627, 70.000000
26.351244, -4.173627, 70.125000
26.351244, -4.173627, 70.250000
26.351244, -4.173627, 70.375000
27.073195, -4.287973, 70.500000
26.712220, -4.230800, 70.625000
26.712220, -4.230800, 70.750000
27.073195, -4.287973, 70.875000
27.073195, -4.287973, 71.000000
27.073195, -4.287973, 71.125000
27.073195, -4.287973, 71.250000
27.073195, -4.287973, 71.375000
27.073195, -4.287973, 71.500000
27.434171, -4.345146, 71.625000
27.434171, -4.345146, 71.750000
27.434171, -4.345146, 71.875000
27.434171, -4.345146, 72.000000
27.434171, -4.345146, 72.125000
28.156123, -4.459492, 72.250000
27.795147, -4.402319, 72.375000
27.795147, -4.402319, 72.500000
28.156123, -4.459492, 72.625000
28.156123, -4.459492, 72.750000
28.156123, -4.459492, 72.875000
28.156123, -4.459492, 73.000000
28.156123, -4.459492, 73.125000
28.878075, -4.573838, 73.250000
28.517099, -4.516665, 73.375000
28.517099, -4.516665, 73.500000
28.878075, -4.573838, 73.625000
28.878075, -4.573838, 73.750000
28.878075, -4.573838, 73.875000
28.878075, -4.573838, 74.000000
28.878075, -4.573838, 74.125000
29.239051, -4.631011, 74.250000
29.239051, -4.631011, 74.375000
29.239051, -4.631011, 74.500000
29.239051, -4.631011, 74.625000
29.600027, -4.688184, 74.750000
29.961003, -4.745357, 74.875000
29.600027, -4.688184, 75.000000
29.961003, -4.745357, 75.125000
29.961003, -4.745357, 75.250000
29.961003, -4.745357, 75.375000
29.961003, -4.745357, 75.500000
29.961003, -4.745357, 75.625000
30.321979, -4.802530, 75.750000
30.321979, -4.802530, 75.875000
30.321979, -4.802530, 76.000000
30.321979, -4.802530, 76.125000
30.682955, -4.859703, 76.250000
30.682955, -4.859703, 76.375000
30.682955, -4.859703, 76.500000
30.682955, -4.859703, 76.625000
31.043931, -4.916876, 76.750000
31.043931, -4.916876, 76.875000
31.043931, -4.916876, 77.000000
31.043931, -4.916876, 77.125000
31.404907, -4.974049, 77.250000
31.404907, -4.974049, 77.375000
31.404907, -4.974049, 77.500000
31.404907, -4.974049, 77.625000
31.404907, -4.974049, 77.750000
31.765883, -5.031222, 77.875000
31.765883, -5.031222, 78.000000
31.765883, -5.031222, 78.125000
32.126859, -5.088395, 78.250000
32.126859, -5.088395, 78.375000
32.126859, -5.088395, 78.500000
32.487835, -5.145567, 78.625000
32.487835, -5.145567, 78.750000
32.848810, -5.202740, 78.875000
32.848810, -5.202740, 79.000000
32.848810, -5.202740, 79.125000
33.209786, -5.259913, 79.250000
33.209786, -5.259913, 79.375000
33.209786, -5.259913, 79.500000
33.209786, -5.259913, 79.625000
33.209786, -5.259913, 79.750000
33.931738, -5.374259, 79.875000
33.570762, -5.317086, 80.000000
33.931738, -5.374259, 80.125000
33.931738, -5.374259, 80.250000
33.931738, -5.374259, 80.375000
33.570762, -5.317086, 80.500000
33.570762, -5.317086, 80.625000
33.570762, -5.317086, 80.750000
33.570762, -5.317086, 80.875000
33.570762, -5.317086, 81.000000
33.570762, -5.317086, 81.125000
33.570762, -5.317086, 81.250000
33.570762, -5.317086, 81.375000
33.570762, -5.317086, 81.500000
33.931738, -5.374259, 81.625000
56.673223, -8.976157, 103.000000
56.312247, -8.918984, 103.125000
57.395174, -9.090503, 103.250000
54.507367, -8.633119, 103.375000
54.507367, -8.633119, 103.500000
56.673223, -8.976157, 103.625000
59.200054, -9.376367, 103.750000
57.756150, -9.147676, 103.875000
57.756150, -9.147676, 104.000000
55.229319, -8.747465, 104.125000
55.229319, -8.747465, 104.250000
58.478102, -9.262021, 104.375000
58.478102, -9.262021, 104.500000
58.839078, -9.319194, 104.625000
