4.973481, -19.370428, 62.625000
4.973481, -19.370428, 62.750000
4.973481, -19.370428, 62.875000
5.007780, -19.504017, 63.000000
5.007780, -19.504017, 63.125000
5.042080, -19.637606, 63.250000
5.076380, -19.771196, 63.375000
5.110680, -19.904785, 63.500000
5.110680, -19.904785, 63.625000
5.144980, -20.038374, 63.750000
5.144980, -20.038374, 63.875000
5.179280, -20.171963, 64.000000
5.213580, -20.305552, 64.125000
5.247880, -20.439141, 64.250000
5.247880, -20.439141, 64.375000
5.282179, -20.572730, 64.500000
5.316479, -20.706320, 64.625000
5.316479, -20.706320, 64.750000
5.350779, -20.839909, 64.875000
5.350779, -20.839909, 65.000000
5.385079, -20.973498, 65.125000
5.385079, -20.973498, 65.250000
5.419379, -21.107087, 65.375000
5.419379, -21.107087, 65.500000
5.453679, -21.240676, 65.625000
5.487979, -21.374265, 65.750000
5.487979, -21.374265, 65.875000
5.522278, -21.507855, 66.000000
5.556578, -21.641444, 66.125000
5.590878, -21.775033, 66.250000
5.590878, -21.775033, 66.375000
5.625178, -21.908622, 66.500000
5.625178, -21.908622, 66.625000
5.659478, -22.042211, 66.750000
5.693778, -22.175800, 66.875000
5.693778, -22.175800, 67.000000
5.728078, -22.309390, 67.125000
5.762378, -22.442979, 67.250000
5.762378, -22.442979, 67.375000
5.796677, -22.576568, 67.500000
5.796677, -22.576568, 67.625000
5.830977, -22.710157, 67.750000
5.865277, -22.843746, 67.875000
5.865277, -22.843746, 68.000000
5.899577, -22.977335, 68.125000
5.899577, -22.977335, 68.250000
5.933877, -23.110925, 68.375000
5.968177, -23.244514, 68.500000
5.968177, -23.244514, 68.625000
6.036776, -23.511692, 68.750000
6.036776, -23.511692, 68.875000
6.036776, -23.511692, 69.000000
6.071076, -23.645281, 69.125000
6.105376, -23.778870, 69.250000
6.105376, -23.778870, 69.375000
6.139676, -23.912459, 69.500000
6.139676, -23.912459, 69.625000
6.173976, -24.046049, 69.750000
6.208276, -24.179638, 69.875000
6.242576, -24.313227, 70.000000
6.242576, -24.313227, 70.125000
6.276876, -24.446816, 70.250000
6.276876, -24.446816, 70.375000
6.311175, -24.580405, 70.500000
6.345475, -24.713994, 70.625000
6.345475, -24.713994, 70.750000
6.379775, -24.847584, 70.875000
6.414075, -24.981173, 71.000000
6.414075, -24.981173, 71.125000
6.448375, -25.114762, 71.250000
6.482675, -25.248351, 71.375000
6.482675, -25.248351, 71.500000
6.516975, -25.381940, 71.625000
6.551274, -25.515529, 71.750000
6.585574, -25.649119, 71.875000
6.585574, -25.649119, 72.000000
6.585574, -25.649119, 72.125000
6.654174, -25.916297, 72.250000
6.654174, -25.916297, 72.375000
6.654174, -25.916297, 72.500000
6.722774, -26.183475, 72.625000
6.757074, -26.317064, 72.750000
6.722774, -26.183475, 72.875000
6.757074, -26.317064, 73.000000
6.791374, -26.450653, 73.125000
6.791374, -26.450653, 73.250000
6.825673, -26.584243, 73.375000
6.894273, -26.851421, 73.500000
6.859973, -26.717832, 73.625000
6.928573, -26.985010, 73.750000
6.894273, -26.851421, 73.875000
6.928573, -26.985010, 74.000000
6.962873, -27.118599, 74.125000
6.962873, -27.118599, 74.250000
6.997173, -27.252188, 74.375000
7.031473, -27.385778, 74.500000
7.031473, -27.385778, 74.625000
7.065772, -27.519367, 74.750000
7.065772, -27.519367, 74.875000
7.100072, -27.652956, 75.000000
7.134372, -27.786545, 75.125000
7.168672, -27.920134, 75.250000
7.168672, -27.920134, 75.375000
7.202972, -28.053723, 75.500000
7.237272, -28.187313, 75.625000
7.271572, -28.320902, 75.750000
7.271572, -28.320902, 75.875000
7.305872, -28.454491, 76.000000
7.340171, -28.588080, 76.125000
7.340171, -28.588080, 76.250000
7.374471, -28.721669, 76.375000
7.408771, -28.855258, 76.500000
7.408771, -28.855258, 76.625000
7.408771, -28.855258, 76.750000
7.477371, -29.122437, 76.875000
7.477371, -29.122437, 77.000000
7.511671, -29.256026, 77.125000
7.545971, -29.389615, 77.250000
7.545971, -29.389615, 77.375000
7.580270, -29.523204, 77.500000
7.614570, -29.656793, 77.625000
7.614570, -29.656793, 77.750000
7.614570, -29.656793, 77.875000
7.648870, -29.790382, 78.000000
7.683170, -29.923972, 78.125000
7.683170, -29.923972, 78.250000
7.717470, -30.057561, 78.375000
7.683170, -29.923972, 78.500000
7.683170, -29.923972, 78.625000
7.717470, -30.057561, 78.750000
7.717470, -30.057561, 78.875000
7.717470, -30.057561, 79.000000
7.751770, -30.191150, 79.125000
7.751770, -30.191150, 79.250000
7.717470, -30.057561, 79.375000
7.751770, -30.191150, 79.500000
1.846996, -6.357401, 43.125000
1.885475, -6.489847, 43.250000
1.923954, -6.622293, 43.375000
1.923954, -6.622293, 43.500000
1.923954, -6.622293, 43.625000
1.962433, -6.754739, 43.750000
2.000912, -6.887185, 43.875000
2.000912, -6.887185, 44.000000
2.000912, -6.887185, 44.125000
2.039391, -7.019630, 44.250000
2.039391, -7.019630, 44.375000
2.077870, -7.152076, 44.500000
2.077870, -7.152076, 44.625000
2.077870, -7.152076, 44.750000
2.116349, -7.284522, 44.875000
2.154828, -7.416968, 45.000000
2.193307, -7.549414, 45.125000
2.231787, -7.681860, 45.250000
2.270266, -7.814306, 45.375000
2.270266, -7.814306, 45.500000
2.308745, -7.946751, 45.625000
2.308745, -7.946751, 45.750000
2.347224, -8.079197, 45.875000
2.385703, -8.211643, 46.000000
2.385703, -8.211643, 46.125000
2.424182, -8.344089, 46.250000
2.424182, -8.344089, 46.375000
2.462661, -8.476535, 46.500000
2.501140, -8.608981, 46.625000
2.501140, -8.608981, 46.750000
2.539619, -8.741427, 46.875000
2.539619, -8.741427, 47.000000
2.578098, -8.873872, 47.125000
2.616577, -9.006318, 47.250000
2.616577, -9.006318, 47.375000
2.655056, -9.138764, 47.500000
2.655056, -9.138764, 47.625000
2.693535, -9.271210, 47.750000
2.732015, -9.403656, 47.875000
2.732015, -9.403656, 48.000000
2.770494, -9.536102, 48.125000
2.808973, -9.668547, 48.250000
2.808973, -9.668547, 48.375000
2.847452, -9.800993, 48.500000
2.885931, -9.933439, 48.625000
2.924410, -10.065885, 48.750000
2.924410, -10.065885, 48.875000
2.924410, -10.065885, 49.000000
2.962889, -10.198331, 49.125000
2.962889, -10.198331, 49.250000
3.001368, -10.330777, 49.375000
3.039847, -10.463223, 49.500000
3.039847, -10.463223, 49.625000
3.078326, -10.595668, 49.750000
3.078326, -10.595668, 49.875000
3.116805, -10.728114, 50.000000
3.116805, -10.728114, 50.125000
3.155284, -10.860560, 50.250000
3.155284, -10.860560, 50.375000
3.193763, -10.993006, 50.500000
3.232243, -11.125452, 50.625000
3.232243, -11.125452, 50.750000
3.270722, -11.257898, 50.875000
3.309201, -11.390344, 51.000000
3.309201, -11.390344, 51.125000
3.347680, -11.522789, 51.250000
3.386159, -11.655235, 51.375000
3.424638, -11.787681, 51.500000
3.386159, -11.655235, 51.625000
3.424638, -11.787681, 51.750000
3.424638, -11.787681, 51.875000
3.463117, -11.920127, 52.000000
3.501596, -12.052573, 52.125000
3.540075, -12.185019, 52.250000
3.540075, -12.185019, 52.375000
3.578554, -12.317465, 52.500000
3.617033, -12.449910, 52.625000
3.655512, -12.582356, 52.750000
3.655512, -12.582356, 52.875000
3.693992, -12.714802, 53.000000
3.693992, -12.714802, 53.125000
3.732471, -12.847248, 53.250000
3.732471, -12.847248, 53.375000
3.770950, -12.979694, 53.500000
3.770950, -12.979694, 53.625000
3.809429, -13.112140, 53.750000
3.847908, -13.244586, 53.875000
3.886387, -13.377031, 54.000000
3.886387, -13.377031, 54.125000
3.924866, -13.509477, 54.250000
3.924866, -13.509477, 54.375000
3.963345, -13.641923, 54.500000
4.001824, -13.774369, 54.625000
4.001824, -13.774369, 54.750000
4.040303, -13.906815, 54.875000
4.040303, -13.906815, 55.000000
4.078782, -14.039261, 55.125000
4.117261, -14.171707, 55.250000
4.155740, -14.304152, 55.375000
4.155740, -14.304152, 55.500000
4.194220, -14.436598, 55.625000
4.194220, -14.436598, 55.750000
4.232699, -14.569044, 55.875000
4.271178, -14.701490, 56.000000
4.309657, -14.833936, 56.125000
4.309657, -14.833936, 56.250000
4.348136, -14.966382, 56.375000
4.386615, -15.098828, 56.500000
4.386615, -15.098828, 56.625000
4.425094, -15.231273, 56.750000
4.425094, -15.231273, 56.875000
4.463573, -15.363719, 57.000000
4.502052, -15.496165, 57.125000
4.540531, -15.628611, 57.250000
4.540531, -15.628611, 57.375000
4.579010, -15.761057, 57.500000
4.617489, -15.893503, 57.625000
4.617489, -15.893503, 57.750000
4.655968, -16.025949, 57.875000
4.694448, -16.158394, 58.000000
4.694448, -16.158394, 58.125000
4.732927, -16.290840, 58.250000
4.771406, -16.423286, 58.375000
4.771406, -16.423286, 58.500000
4.809885, -16.555732, 58.625000
4.848364, -16.688178, 58.750000
4.848364, -16.688178, 58.875000
4.886843, -16.820624, 59.000000
4.925322, -16.953070, 59.125000
4.925322, -16.953070, 59.250000
4.963801, -17.085515, 59.375000
5.002280, -17.217961, 59.500000
5.002280, -17.217961, 59.625000
5.040759, -17.350407, 59.750000
5.040759, -17.350407, 59.875000
5.079238, -17.482853, 60.000000
5.117717, -17.615299, 60.125000
5.156196, -17.747745, 60.250000
5.156196, -17.747745, 60.375000
5.194676, -17.880191, 60.500000
5.194676, -17.880191, 60.625000
5.194676, -17.880191, 60.750000
5.233155, -18.012636, 60.875000
5.271634, -18.145082, 61.000000
5.310113, -18.277528, 61.125000
5.310113, -18.277528, 61.250000
5.348592, -18.409974, 61.375000
5.348592, -18.409974, 61.500000
5.387071, -18.542420, 61.625000
5.425550, -18.674866, 61.750000
5.425550, -18.674866, 61.875000
5.464029, -18.807312, 62.000000
5.502508, -18.939757, 62.125000
5.502508, -18.939757, 62.250000
5.540987, -19.072203, 62.375000
5.579466, -19.204649, 62.500000
5.617945, -19.337095, 62.625000
5.617945, -19.337095, 62.750000
5.656425, -19.469541, 62.875000
5.694904, -19.601987, 63.000000
5.694904, -19.601987, 63.125000
5.733383, -19.734433, 63.250000
5.771862, -19.866878, 63.375000
5.771862, -19.866878, 63.500000
5.848820, -20.131770, 63.625000
5.848820, -20.131770, 63.750000
5.848820, -20.131770, 63.875000
5.887299, -20.264216, 64.000000
5.925778, -20.396662, 64.125000
5.925778, -20.396662, 64.250000
5.964257, -20.529108, 64.375000
5.964257, -20.529108, 64.500000
6.002736, -20.661554, 64.625000
6.041215, -20.793999, 64.750000
6.079694, -20.926445, 64.875000
6.079694, -20.926445, 65.000000
6.156653, -21.191337, 65.125000
6.118173, -21.058891, 65.250000
6.156653, -21.191337, 65.375000
6.195132, -21.323783, 65.500000
6.233611, -21.456229, 65.625000
6.233611, -21.456229, 65.750000
6.272090, -21.588675, 65.875000
6.310569, -21.721120, 66.000000
6.310569, -21.721120, 66.125000
6.349048, -21.853566, 66.250000
6.349048, -21.853566, 66.375000
6.387527, -21.986012, 66.500000
6.426006, -22.118458, 66.625000
6.426006, -22.118458, 66.750000
6.464485, -22.250904, 66.875000
6.464485, -22.250904, 67.000000
6.541443, -22.515796, 67.125000
6.541443, -22.515796, 67.250000
6.541443, -22.515796, 67.375000
6.618401, -22.780687, 67.500000
6.618401, -22.780687, 67.625000
6.618401, -22.780687, 67.750000
6.656881, -22.913133, 67.875000
6.656881, -22.913133, 68.000000
6.695360, -23.045579, 68.125000
6.695360, -23.045579, 68.250000
6.733839, -23.178025, 68.375000
6.772318, -23.310471, 68.500000
6.810797, -23.442917, 68.625000
6.849276, -23.575362, 68.750000
6.849276, -23.575362, 68.875000
6.849276, -23.575362, 69.000000
6.887755, -23.707808, 69.125000
6.926234, -23.840254, 69.250000
6.964713, -23.972700, 69.375000
7.003192, -24.105146, 69.500000
7.003192, -24.105146, 69.625000
7.080150, -24.370038, 69.750000
7.041671, -24.237592, 69.875000
7.080150, -24.370038, 70.000000
7.118629, -24.502483, 70.125000
7.157109, -24.634929, 70.250000
7.157109, -24.634929, 70.375000
7.195588, -24.767375, 70.500000
7.234067, -24.899821, 70.625000
7.234067, -24.899821, 70.750000
7.272546, -25.032267, 70.875000
7.311025, -25.164713, 71.000000
7.311025, -25.164713, 71.125000
7.349504, -25.297159, 71.250000
7.349504, -25.297159, 71.375000
7.387983, -25.429604, 71.500000
7.387983, -25.429604, 71.625000
7.426462, -25.562050, 71.750000
7.464941, -25.694496, 71.875000
7.464941, -25.694496, 72.000000
7.503420, -25.826942, 72.125000
7.541899, -25.959388, 72.250000
7.580378, -26.091834, 72.375000
7.580378, -26.091834, 72.500000
7.580378, -26.091834, 72.625000
7.618857, -26.224280, 72.750000
7.657337, -26.356725, 72.875000
7.695816, -26.489171, 73.000000
7.695816, -26.489171, 73.125000
7.734295, -26.621617, 73.250000
7.772774, -26.754063, 73.375000
7.772774, -26.754063, 73.500000
7.811253, -26.886509, 73.625000
7.849732, -27.018955, 73.750000
7.849732, -27.018955, 73.875000
7.888211, -27.151400, 74.000000
7.888211, -27.151400, 74.125000
7.926690, -27.283846, 74.250000
7.965169, -27.416292, 74.375000
8.003648, -27.548738, 74.500000
8.003648, -27.548738, 74.625000
8.042127, -27.681184, 74.750000
8.042127, -27.681184, 74.875000
8.080606, -27.813630, 75.000000
8.119086, -27.946076, 75.125000
8.119086, -27.946076, 75.250000
8.157565, -28.078521, 75.375000
8.196044, -28.210967, 75.500000
8.234523, -28.343413, 75.625000
8.234523, -28.343413, 75.750000
8.311481, -28.608305, 75.875000
8.311481, -28.608305, 76.000000
8.311481, -28.608305, 76.125000
8.349960, -28.740751, 76.250000
8.388439, -28.873197, 76.375000
8.426918, -29.005642, 76.500000
8.426918, -29.005642, 76.625000
8.465397, -29.138088, 76.750000
8.465397, -29.138088, 76.875000
8.503876, -29.270534, 77.000000
8.542355, -29.402980, 77.125000
8.542355, -29.402980, 77.250000
8.580834, -29.535426, 77.375000
8.657793, -29.800318, 77.500000
8.619314, -29.667872, 77.625000
8.657793, -29.800318, 77.750000
8.657793, -29.800318, 77.875000
8.696272, -29.932763, 78.000000
8.696272, -29.932763, 78.125000
8.734751, -30.065209, 78.250000
8.734751, -30.065209, 78.375000
8.734751, -30.065209, 78.500000
8.773230, -30.197655, 78.625000
8.773230, -30.197655, 78.750000
8.773230, -30.197655, 78.875000
8.773230, -30.197655, 79.000000
8.811709, -30.330101, 79.125000
8.811709, -30.330101, 79.250000
8.773230, -30.197655, 79.375000
8.811709, -30.330101, 79.500000
2.088395, -6.427420, 43.250000
2.088395, -6.427420, 43.375000
2.088395, -6.427420, 43.500000
2.088395, -6.427420, 43.625000
2.173636, -6.689764, 43.750000
2.173636, -6.689764, 43.875000
2.173636, -6.689764, 44.000000
2.216256, -6.820936, 44.125000
2.216256, -6.820936, 44.250000
2.258877, -6.952108, 44.375000
2.258877, -6.952108, 44.500000
2.301497, -7.083280, 44.625000
2.301497, -7.083280, 44.750000
2.386738, -7.345623, 44.875000
2.386738, -7.345623, 45.000000
2.429358, -7.476795, 45.125000
2.471978, -7.607967, 45.250000
2.471978, -7.607967, 45.375000
2.514599, -7.739139, 45.500000
2.557219, -7.870311, 45.625000
2.599839, -8.001483, 45.750000
2.599839, -8.001483, 45.875000
2.642460, -8.132654, 46.000000
2.642460, -8.132654, 46.125000
2.685080, -8.263826, 46.250000
2.727700, -8.394998, 46.375000
2.770321, -8.526170, 46.500000
2.770321, -8.526170, 46.625000
2.812941, -8.657342, 46.750000
2.812941, -8.657342, 46.875000
2.855561, -8.788514, 47.000000
2.855561, -8.788514, 47.125000
2.898181, -8.919685, 47.250000
2.940802, -9.050857, 47.375000
2.940802, -9.050857, 47.500000
2.983422, -9.182029, 47.625000
3.026042, -9.313201, 47.750000
3.026042, -9.313201, 47.875000
3.068663, -9.444373, 48.000000
3.111283, -9.575545, 48.125000
3.153903, -9.706717, 48.250000
3.196524, -9.837888, 48.375000
3.196524, -9.837888, 48.500000
3.196524, -9.837888, 48.625000
3.239144, -9.969060, 48.750000
3.281764, -10.100232, 48.875000
3.324385, -10.231404, 49.000000
3.324385, -10.231404, 49.125000
3.324385, -10.231404, 49.250000
3.367005, -10.362576, 49.375000
3.409625, -10.493748, 49.500000
3.409625, -10.493748, 49.625000
3.452246, -10.624919, 49.750000
3.452246, -10.624919, 49.875000
3.494866, -10.756091, 50.000000
3.537486, -10.887263, 50.125000
3.537486, -10.887263, 50.250000
3.580107, -11.018435, 50.375000
3.580107, -11.018435, 50.500000
3.622727, -11.149607, 50.625000
3.665347, -11.280779, 50.750000
3.665347, -11.280779, 50.875000
3.707967, -11.411951, 51.000000
3.750588, -11.543122, 51.125000
3.750588, -11.543122, 51.250000
3.793208, -11.674294, 51.375000
3.835828, -11.805466, 51.500000
3.835828, -11.805466, 51.625000
3.878449, -11.936638, 51.750000
3.878449, -11.936638, 51.875000
3.921069, -12.067810, 52.000000
3.963689, -12.198982, 52.125000
3.963689, -12.198982, 52.250000
4.006310, -12.330153, 52.375000
4.048930, -12.461325, 52.500000
4.091550, -12.592497, 52.625000
4.091550, -12.592497, 52.750000
4.134171, -12.723669, 52.875000
4.176791, -12.854841, 53.000000
4.176791, -12.854841, 53.125000
4.219411, -12.986013, 53.250000
4.262032, -13.117184, 53.375000
4.304652, -13.248356, 53.500000
4.304652, -13.248356, 53.625000
4.347272, -13.379528, 53.750000
4.347272, -13.379528, 53.875000
4.389893, -13.510700, 54.000000
4.432513, -13.641872, 54.125000
4.432513, -13.641872, 54.250000
4.517753, -13.904216, 54.375000
4.517753, -13.904216, 54.500000
4.517753, -13.904216, 54.625000
4.602994, -14.166559, 54.750000
4.602994, -14.166559, 54.875000
4.645614, -14.297731, 55.000000
4.645614, -14.297731, 55.125000
4.688235, -14.428903, 55.250000
4.730855, -14.560075, 55.375000
4.730855, -14.560075, 55.500000
4.773475, -14.691247, 55.625000
4.816096, -14.822418, 55.750000
4.858716, -14.953590, 55.875000
4.858716, -14.953590, 56.000000
4.901336, -15.084762, 56.125000
4.901336, -15.084762, 56.250000
4.943957, -15.215934, 56.375000
4.986577, -15.347106, 56.500000
4.986577, -15.347106, 56.625000
5.029197, -15.478278, 56.750000
5.071818, -15.609450, 56.875000
5.114438, -15.740621, 57.000000
5.114438, -15.740621, 57.125000
5.157058, -15.871793, 57.250000
5.199679, -16.002965, 57.375000
5.242299, -16.134137, 57.500000
5.242299, -16.134137, 57.625000
5.284919, -16.265309, 57.750000
5.327540, -16.396481, 57.875000
5.327540, -16.396481, 58.000000
5.370160, -16.527652, 58.125000
5.412780, -16.658824, 58.250000
5.455400, -16.789996, 58.375000
5.455400, -16.789996, 58.500000
5.498021, -16.921168, 58.625000
5.540641, -17.052340, 58.750000
5.583261, -17.183512, 58.875000
5.583261, -17.183512, 59.000000
5.625882, -17.314684, 59.125000
5.668502, -17.445855, 59.250000
5.668502, -17.445855, 59.375000
5.711122, -17.577027, 59.500000
5.753743, -17.708199, 59.625000
5.796363, -17.839371, 59.750000
5.796363, -17.839371, 59.875000
5.838983, -17.970543, 60.000000
5.881604, -18.101715, 60.125000
5.881604, -18.101715, 60.250000
5.924224, -18.232886, 60.375000
5.924224, -18.232886, 60.500000
5.966844, -18.364058, 60.625000
6.009465, -18.495230, 60.750000
6.009465, -18.495230, 60.875000
6.052085, -18.626402, 61.000000
6.094705, -18.757574, 61.125000
6.094705, -18.757574, 61.250000
6.137326, -18.888746, 61.375000
6.137326, -18.888746, 61.500000
6.179946, -19.019918, 61.625000
6.222566, -19.151089, 61.750000
6.265186, -19.282261, 61.875000
6.307807, -19.413433, 62.000000
6.307807, -19.413433, 62.125000
6.350427, -19.544605, 62.250000
6.393047, -19.675777, 62.375000
6.393047, -19.675777, 62.500000
6.435668, -19.806949, 62.625000
6.478288, -19.938120, 62.750000
6.520908, -20.069292, 62.875000
6.563529, -20.200464, 63.000000
6.563529, -20.200464, 63.125000
6.606149, -20.331636, 63.250000
6.606149, -20.331636, 63.375000
6.648769, -20.462808, 63.500000
6.691390, -20.593980, 63.625000
6.691390, -20.593980, 63.750000
6.734010, -20.725152, 63.875000
6.776630, -20.856323, 64.000000
6.819251, -20.987495, 64.125000
6.819251, -20.987495, 64.250000
6.861871, -21.118667, 64.375000
6.904491, -21.249839, 64.500000
6.947112, -21.381011, 64.625000
6.947112, -21.381011, 64.750000
6.989732, -21.512183, 64.875000
6.989732, -21.512183, 65.000000
7.032352, -21.643354, 65.125000
7.074972, -21.774526, 65.250000
7.117593, -21.905698, 65.375000
7.160213, -22.036870, 65.500000
7.160213, -22.036870, 65.625000
7.202833, -22.168042, 65.750000
7.202833, -22.168042, 65.875000
7.245454, -22.299214, 66.000000
7.288074, -22.430385, 66.125000
7.330694, -22.561557, 66.250000
7.373315, -22.692729, 66.375000
7.373315, -22.692729, 66.500000
7.373315, -22.692729, 66.625000
7.458555, -22.955073, 66.750000
7.415935, -22.823901, 66.875000
7.458555, -22.955073, 67.000000
7.501176, -23.086245, 67.125000
7.543796, -23.217417, 67.250000
7.543796, -23.217417, 67.375000
7.586416, -23.348588, 67.500000
7.629037, -23.479760, 67.625000
7.629037, -23.479760, 67.750000
7.671657, -23.610932, 67.875000
7.714277, -23.742104, 68.000000
7.714277, -23.742104, 68.125000
7.756898, -23.873276, 68.250000
7.799518, -24.004448, 68.375000
7.842138, -24.135619, 68.500000
7.842138, -24.135619, 68.625000
7.884758, -24.266791, 68.750000
7.927379, -24.397963, 68.875000
7.927379, -24.397963, 69.000000
7.969999, -24.529135, 69.125000
8.012619, -24.660307, 69.250000
8.055240, -24.791479, 69.375000
8.055240, -24.791479, 69.500000
8.097860, -24.922651, 69.625000
8.140480, -25.053822, 69.750000
8.140480, -25.053822, 69.875000
8.225721, -25.316166, 70.000000
8.225721, -25.316166, 70.125000
8.268341, -25.447338, 70.250000
8.310962, -25.578510, 70.375000
8.310962, -25.578510, 70.500000
8.353582, -25.709682, 70.625000
8.396202, -25.840853, 70.750000
8.396202, -25.840853, 70.875000
8.438823, -25.972025, 71.000000
8.438823, -25.972025, 71.125000
8.524063, -26.234369, 71.250000
8.524063, -26.234369, 71.375000
8.524063, -26.234369, 71.500000
8.609304, -26.496713, 71.625000
8.609304, -26.496713, 71.750000
8.651924, -26.627885, 71.875000
8.651924, -26.627885, 72.000000
8.694544, -26.759056, 72.125000
8.694544, -26.759056, 72.250000
8.737165, -26.890228, 72.375000
8.779785, -27.021400, 72.500000
8.822405, -27.152572, 72.625000
8.822405, -27.152572, 72.750000
8.865026, -27.283744, 72.875000
8.907646, -27.414916, 73.000000
8.950266, -27.546087, 73.125000
8.950266, -27.546087, 73.250000
8.950266, -27.546087, 73.375000
8.992887, -27.677259, 73.500000
9.035507, -27.808431, 73.625000
9.120748, -28.070775, 73.750000
9.078127, -27.939603, 73.875000
9.120748, -28.070775, 74.000000
9.163368, -28.201947, 74.125000
9.205988, -28.333119, 74.250000
9.205988, -28.333119, 74.375000
9.291229, -28.595462, 74.500000
9.291229, -28.595462, 74.625000
9.291229, -28.595462, 74.750000
9.376470, -28.857806, 74.875000
9.376470, -28.857806, 75.000000
9.376470, -28.857806, 75.125000
9.419090, -28.988978, 75.250000
9.461710, -29.120150, 75.375000
9.504330, -29.251321, 75.500000
9.546951, -29.382493, 75.625000
9.589571, -29.513665, 75.750000
9.589571, -29.513665, 75.875000
9.632191, -29.644837, 76.000000
9.632191, -29.644837, 76.125000
9.674812, -29.776009, 76.250000
9.717432, -29.907181, 76.375000
9.760052, -30.038352, 76.500000
9.760052, -30.038352, 76.625000
9.802673, -30.169524, 76.750000
9.845293, -30.300696, 76.875000
9.887913, -30.431868, 77.000000
9.887913, -30.431868, 77.125000
9.930534, -30.563040, 77.250000
9.930534, -30.563040, 77.375000
9.973154, -30.694212, 77.500000
10.015774, -30.825384, 77.625000
10.058395, -30.956555, 77.750000
10.058395, -30.956555, 77.875000
10.101015, -31.087727, 78.000000
10.101015, -31.087727, 78.125000
10.143635, -31.218899, 78.250000
10.143635, -31.218899, 78.375000
10.143635, -31.218899, 78.500000
10.186256, -31.350071, 78.625000
10.186256, -31.350071, 78.750000
10.186256, -31.350071, 78.875000
10.228876, -31.481243, 79.000000
10.228876, -31.481243, 79.125000
10.186256, -31.350071, 79.250000
10.228876, -31.481243, 79.375000
10.228876, -31.481243, 79.500000
2.242536, -6.228882, 43.250000
2.289255, -6.358651, 43.375000
2.289255, -6.358651, 43.500000
2.382694, -6.618188, 43.625000
2.382694, -6.618188, 43.750000
2.429414, -6.747956, 43.875000
2.429414, -6.747956, 44.000000
2.429414, -6.747956, 44.125000
2.476133, -6.877724, 44.250000
2.476133, -6.877724, 44.375000
2.569572, -7.137261, 44.500000
2.569572, -7.137261, 44.625000
2.569572, -7.137261, 44.750000
2.616292, -7.267029, 44.875000
2.663011, -7.396798, 45.000000
2.709731, -7.526566, 45.125000
2.756450, -7.656335, 45.250000
2.803170, -7.786103, 45.375000
2.803170, -7.786103, 45.500000
2.849889, -7.915871, 45.625000
2.849889, -7.915871, 45.750000
2.896609, -8.045640, 45.875000
2.943328, -8.175408, 46.000000
2.990048, -8.305177, 46.125000
2.990048, -8.305177, 46.250000
3.036767, -8.434945, 46.375000
3.036767, -8.434945, 46.500000
3.130206, -8.694482, 46.625000
3.130206, -8.694482, 46.750000
3.130206, -8.694482, 46.875000
3.176926, -8.824250, 47.000000
3.176926, -8.824250, 47.125000
3.223645, -8.954018, 47.250000
3.223645, -8.954018, 47.375000
3.270364, -9.083787, 47.500000
3.317084, -9.213555, 47.625000
3.363803, -9.343324, 47.750000
3.410523, -9.473092, 47.875000
3.410523, -9.473092, 48.000000
3.457242, -9.602860, 48.125000
3.503962, -9.732629, 48.250000
3.503962, -9.732629, 48.375000
3.550681, -9.862397, 48.500000
3.597401, -9.992165, 48.625000
3.644120, -10.121934, 48.750000
3.644120, -10.121934, 48.875000
3.690840, -10.251702, 49.000000
3.690840, -10.251702, 49.125000
3.737559, -10.381471, 49.250000
3.784279, -10.511239, 49.375000
3.784279, -10.511239, 49.500000
3.784279, -10.511239, 49.625000
3.830998, -10.641007, 49.750000
3.877718, -10.770776, 49.875000
3.924437, -10.900544, 50.000000
3.924437, -10.900544, 50.125000
3.924437, -10.900544, 50.250000
3.971157, -11.030313, 50.375000
4.017876, -11.160081, 50.500000
4.017876, -11.160081, 50.625000
4.064596, -11.289849, 50.750000
4.111315, -11.419618, 50.875000
4.158035, -11.549386, 51.000000
4.158035, -11.549386, 51.125000
4.204754, -11.679154, 51.250000
4.251474, -11.808923, 51.375000
4.298193, -11.938691, 51.500000
4.298193, -11.938691, 51.625000
4.298193, -11.938691, 51.750000
4.344913, -12.068460, 51.875000
4.344913, -12.068460, 52.000000
4.391632, -12.198228, 52.125000
4.438352, -12.327996, 52.250000
4.485071, -12.457765, 52.375000
4.531791, -12.587533, 52.500000
4.531791, -12.587533, 52.625000
4.578510, -12.717302, 52.750000
4.625230, -12.847070, 52.875000
4.671949, -12.976838, 53.000000
4.671949, -12.976838, 53.125000
4.718669, -13.106607, 53.250000
4.765388, -13.236375, 53.375000
4.812108, -13.366143, 53.500000
4.812108, -13.366143, 53.625000
4.858827, -13.495912, 53.750000
4.858827, -13.495912, 53.875000
4.905547, -13.625680, 54.000000
4.905547, -13.625680, 54.125000
4.952266, -13.755449, 54.250000
4.998986, -13.885217, 54.375000
5.045705, -14.014985, 54.500000
5.092425, -14.144754, 54.625000
5.045705, -14.014985, 54.750000
5.092425, -14.144754, 54.875000
5.185864, -14.404291, 55.000000
5.185864, -14.404291, 55.125000
5.232583, -14.534059, 55.250000
5.279303, -14.663827, 55.375000
5.279303, -14.663827, 55.500000
5.326022, -14.793596, 55.625000
5.372742, -14.923364, 55.750000
5.419461, -15.053132, 55.875000
5.466181, -15.182901, 56.000000
5.466181, -15.182901, 56.125000
5.466181, -15.182901, 56.250000
5.559620, -15.442438, 56.375000
5.559620, -15.442438, 56.500000
5.606339, -15.572206, 56.625000
5.606339, -15.572206, 56.750000
5.653059, -15.701974, 56.875000
5.699778, -15.831743, 57.000000
5.746498, -15.961511, 57.125000
5.746498, -15.961511, 57.250000
5.793217, -16.091280, 57.375000
5.839937, -16.221048, 57.500000
5.886656, -16.350816, 57.625000
5.886656, -16.350816, 57.750000
5.933376, -16.480585, 57.875000
5.980095, -16.610353, 58.000000
6.026815, -16.740121, 58.125000
6.026815, -16.740121, 58.250000
6.073534, -16.869890, 58.375000
6.120254, -16.999658, 58.500000
6.166973, -17.129427, 58.625000
6.213693, -17.259195, 58.750000
6.213693, -17.259195, 58.875000
6.260412, -17.388963, 59.000000
6.307132, -17.518732, 59.125000
6.307132, -17.518732, 59.250000
6.307132, -17.518732, 59.375000
6.353851, -17.648500, 59.500000
6.400570, -17.778268, 59.625000
6.447290, -17.908037, 59.750000
6.447290, -17.908037, 59.875000
6.494009, -18.037805, 60.000000
6.540729, -18.167574, 60.125000
6.587448, -18.297342, 60.250000
6.587448, -18.297342, 60.375000
6.634168, -18.427110, 60.500000
6.680887, -18.556879, 60.625000
6.680887, -18.556879, 60.750000
6.727607, -18.686647, 60.875000
6.774326, -18.816416, 61.000000
6.774326, -18.816416, 61.125000
6.821046, -18.946184, 61.250000
6.867765, -19.075952, 61.375000
6.867765, -19.075952, 61.500000
6.914485, -19.205721, 61.625000
6.961204, -19.335489, 61.750000
7.007924, -19.465257, 61.875000
7.007924, -19.465257, 62.000000
7.054643, -19.595026, 62.125000
7.101363, -19.724794, 62.250000
7.148082, -19.854563, 62.375000
7.148082, -19.854563, 62.500000
7.194802, -19.984331, 62.625000
7.241521, -20.114099, 62.750000
7.241521, -20.114099, 62.875000
7.334960, -20.373636, 63.000000
7.334960, -20.373636, 63.125000
7.334960, -20.373636, 63.250000
7.381680, -20.503405, 63.375000
7.428399, -20.633173, 63.500000
7.475119, -20.762941, 63.625000
7.475119, -20.762941, 63.750000
7.568558, -21.022478, 63.875000
7.568558, -21.022478, 64.000000
7.615277, -21.152246, 64.125000
7.661997, -21.282015, 64.250000
7.661997, -21.282015, 64.375000
7.708716, -21.411783, 64.500000
7.755436, -21.541552, 64.625000
7.802155, -21.671320, 64.750000
7.802155, -21.671320, 64.875000
7.848875, -21.801088, 65.000000
7.848875, -21.801088, 65.125000
7.895594, -21.930857, 65.250000
7.942314, -22.060625, 65.375000
7.942314, -22.060625, 65.500000
7.989033, -22.190394, 65.625000
8.035753, -22.320162, 65.750000
8.035753, -22.320162, 65.875000
8.082472, -22.449930, 66.000000
8.175911, -22.709467, 66.125000
8.129192, -22.579699, 66.250000
8.175911, -22.709467, 66.375000
8.222631, -22.839235, 66.500000
8.222631, -22.839235, 66.625000
8.269350, -22.969004, 66.750000
8.316070, -23.098772, 66.875000
8.362789, -23.228541, 67.000000
8.362789, -23.228541, 67.125000
8.409509, -23.358309, 67.250000
8.456228, -23.488077, 67.375000
8.502948, -23.617846, 67.500000
8.502948, -23.617846, 67.625000
8.549667, -23.747614, 67.750000
8.596387, -23.877382, 67.875000
8.643106, -24.007151, 68.000000
8.643106, -24.007151, 68.125000
8.689826, -24.136919, 68.250000
8.736545, -24.266688, 68.375000
8.736545, -24.266688, 68.500000
8.783265, -24.396456, 68.625000
8.829984, -24.526224, 68.750000
8.829984, -24.526224, 68.875000
8.876704, -24.655993, 69.000000
8.876704, -24.655993, 69.125000
8.970143, -24.915530, 69.250000
9.016862, -25.045298, 69.375000
9.063582, -25.175066, 69.500000
9.063582, -25.175066, 69.625000
9.063582, -25.175066, 69.750000
9.157021, -25.434603, 69.875000
9.157021, -25.434603, 70.000000
9.157021, -25.434603, 70.125000
9.203740, -25.564371, 70.250000
9.297179, -25.823908, 70.375000
9.297179, -25.823908, 70.500000
9.343899, -25.953677, 70.625000
9.343899, -25.953677, 70.750000
9.390618, -26.083445, 70.875000
9.437338, -26.213213, 71.000000
9.484057, -26.342982, 71.125000
9.484057, -26.342982, 71.250000
9.484057, -26.342982, 71.375000
9.530777, -26.472750, 71.500000
9.577496, -26.602519, 71.625000
9.624215, -26.732287, 71.750000
9.624215, -26.732287, 71.875000
9.670935, -26.862055, 72.000000
9.670935, -26.862055, 72.125000
9.717654, -26.991824, 72.250000
9.764374, -27.121592, 72.375000
9.811093, -27.251360, 72.500000
9.811093, -27.251360, 72.625000
9.857813, -27.381129, 72.750000
9.951252, -27.640666, 72.875000
9.951252, -27.640666, 73.000000
9.951252, -27.640666, 73.125000
9.997971, -27.770434, 73.250000
10.044691, -27.900202, 73.375000
10.091410, -28.029971, 73.500000
10.138130, -28.159739, 73.625000
10.138130, -28.159739, 73.750000
10.184849, -28.289508, 73.875000
10.184849, -28.289508, 74.000000
10.231569, -28.419276, 74.125000
10.278288, -28.549044, 74.250000
10.278288, -28.549044, 74.375000
10.325008, -28.678813, 74.500000
10.371727, -28.808581, 74.625000
10.418447, -28.938349, 74.750000
10.465166, -29.068118, 74.875000
10.465166, -29.068118, 75.000000
10.465166, -29.068118, 75.125000
10.511886, -29.197886, 75.250000
10.558605, -29.327655, 75.375000
10.605325, -29.457423, 75.500000
10.652044, -29.587191, 75.625000
10.652044, -29.587191, 75.750000
10.698764, -29.716960, 75.875000
10.745483, -29.846728, 76.000000
10.792203, -29.976496, 76.125000
10.792203, -29.976496, 76.250000
10.838922, -30.106265, 76.375000
10.932361, -30.365802, 76.500000
10.932361, -30.365802, 76.625000
10.979081, -30.495570, 76.750000
10.979081, -30.495570, 76.875000
11.025800, -30.625338, 77.000000
11.072520, -30.755107, 77.125000
11.119239, -30.884875, 77.250000
11.119239, -30.884875, 77.375000
11.165959, -31.014644, 77.500000
11.165959, -31.014644, 77.625000
11.212678, -31.144412, 77.750000
11.212678, -31.144412, 77.875000
11.259398, -31.274180, 78.000000
11.306117, -31.403949, 78.125000
11.352837, -31.533717, 78.250000
11.352837, -31.533717, 78.375000
11.352837, -31.533717, 78.500000
11.399556, -31.663485, 78.625000
11.446276, -31.793254, 78.750000
11.446276, -31.793254, 78.875000
11.399556, -31.663485, 79.000000
11.446276, -31.793254, 79.125000
11.492995, -31.923022, 79.250000
11.446276, -31.793254, 79.375000
11.492995, -31.923022, 79.500000
11.446276, -31.793254, 79.625000
2.437083, -6.155369, 43.375000
2.589401, -6.540080, 43.500000
2.589401, -6.540080, 43.625000
2.589401, -6.540080, 43.750000
2.589401, -6.540080, 43.875000
2.690946, -6.796553, 44.000000
2.690946, -6.796553, 44.125000
2.741718, -6.924790, 44.250000
2.741718, -6.924790, 44.375000
2.792491, -7.053027, 44.500000
2.894036, -7.309501, 44.625000
2.894036, -7.309501, 44.750000
2.894036, -7.309501, 44.875000
2.944809, -7.437738, 45.000000
2.944809, -7.437738, 45.125000
3.046354, -7.694211, 45.250000
3.046354, -7.694211, 45.375000
3.097126, -7.822448, 45.500000
3.147899, -7.950685, 45.625000
3.147899, -7.950685, 45.750000
3.198671, -8.078922, 45.875000
3.249444, -8.207159, 46.000000
3.300217, -8.335396, 46.125000
3.300217, -8.335396, 46.250000
3.350989, -8.463632, 46.375000
3.401762, -8.591869, 46.500000
3.401762, -8.591869, 46.625000
3.452534, -8.720106, 46.750000
3.503307, -8.848343, 46.875000
3.503307, -8.848343, 47.000000
3.554079, -8.976580, 47.125000
3.604852, -9.104817, 47.250000
3.604852, -9.104817, 47.375000
3.604852, -9.104817, 47.500000
3.757170, -9.489527, 47.625000
3.757170, -9.489527, 47.750000
3.807942, -9.617764, 47.875000
3.858715, -9.746001, 48.000000
3.858715, -9.746001, 48.125000
3.858715, -9.746001, 48.250000
3.909487, -9.874238, 48.375000
3.960260, -10.002475, 48.500000
3.960260, -10.002475, 48.625000
4.011032, -10.130712, 48.750000
4.061805, -10.258948, 48.875000
4.061805, -10.258948, 49.000000
4.163350, -10.515422, 49.125000
4.163350, -10.515422, 49.250000
4.163350, -10.515422, 49.375000
4.264895, -10.771896, 49.500000
4.315668, -10.900133, 49.625000
4.315668, -10.900133, 49.750000
4.315668, -10.900133, 49.875000
4.315668, -10.900133, 50.000000
4.417213, -11.156606, 50.125000
4.417213, -11.156606, 50.250000
4.467986, -11.284843, 50.375000
4.518758, -11.413080, 50.500000
4.467986, -11.284843, 50.625000
4.518758, -11.413080, 50.750000
4.620303, -11.669554, 50.875000
4.620303, -11.669554, 51.000000
4.620303, -11.669554, 51.125000
4.671076, -11.797791, 51.250000
4.721848, -11.926028, 51.375000
4.772621, -12.054264, 51.500000
4.823393, -12.182501, 51.625000
4.823393, -12.182501, 51.750000
4.823393, -12.182501, 51.875000
4.924939, -12.438975, 52.000000
4.924939, -12.438975, 52.125000
4.975711, -12.567212, 52.250000
5.026484, -12.695449, 52.375000
5.026484, -12.695449, 52.500000
5.077256, -12.823686, 52.625000
5.128029, -12.951922, 52.750000
5.128029, -12.951922, 52.875000
5.178801, -13.080159, 53.000000
5.229574, -13.208396, 53.125000
5.280347, -13.336633, 53.250000
5.331119, -13.464870, 53.375000
5.331119, -13.464870, 53.500000
5.381892, -13.593107, 53.625000
5.381892, -13.593107, 53.750000
5.432664, -13.721344, 53.875000
5.483437, -13.849580, 54.000000
5.534209, -13.977817, 54.125000
5.584982, -14.106054, 54.250000
5.584982, -14.106054, 54.375000
5.635754, -14.234291, 54.500000
5.686527, -14.362528, 54.625000
5.686527, -14.362528, 54.750000
5.737300, -14.490765, 54.875000
5.737300, -14.490765, 55.000000
5.838845, -14.747238, 55.125000
5.838845, -14.747238, 55.250000
5.889617, -14.875475, 55.375000
5.940390, -15.003712, 55.500000
5.991162, -15.131949, 55.625000
6.041935, -15.260186, 55.750000
6.041935, -15.260186, 55.875000
6.092708, -15.388423, 56.000000
6.143480, -15.516660, 56.125000
6.194253, -15.644896, 56.250000
6.194253, -15.644896, 56.375000
6.245025, -15.773133, 56.500000
6.295798, -15.901370, 56.625000
6.295798, -15.901370, 56.750000
6.397343, -16.157844, 56.875000
6.397343, -16.157844, 57.000000
6.448115, -16.286081, 57.125000
6.498888, -16.414318, 57.250000
6.498888, -16.414318, 57.375000
6.600433, -16.670791, 57.500000
6.600433, -16.670791, 57.625000
6.651206, -16.799028, 57.750000
6.701978, -16.927265, 57.875000
6.752751, -17.055502, 58.000000
6.752751, -17.055502, 58.125000
6.803523, -17.183739, 58.250000
6.854296, -17.311975, 58.375000
6.905069, -17.440212, 58.500000
6.905069, -17.440212, 58.625000
6.955841, -17.568449, 58.750000
7.006614, -17.696686, 58.875000
7.006614, -17.696686, 59.000000
7.057386, -17.824923, 59.125000
7.108159, -17.953160, 59.250000
7.108159, -17.953160, 59.375000
7.158931, -18.081397, 59.500000
7.209704, -18.209633, 59.625000
7.260476, -18.337870, 59.750000
7.260476, -18.337870, 59.875000
7.311249, -18.466107, 60.000000
7.311249, -18.466107, 60.125000
7.412794, -18.722581, 60.250000
7.514339, -18.979055, 60.375000
7.463567, -18.850818, 60.500000
7.463567, -18.850818, 60.625000
7.514339, -18.979055, 60.750000
7.565112, -19.107291, 60.875000
7.615884, -19.235528, 61.000000
7.666657, -19.363765, 61.125000
7.717430, -19.492002, 61.250000
7.717430, -19.492002, 61.375000
7.768202, -19.620239, 61.500000
7.818975, -19.748476, 61.625000
7.818975, -19.748476, 61.750000
7.869747, -19.876713, 61.875000
7.971292, -20.133186, 62.000000
7.971292, -20.133186, 62.125000
7.971292, -20.133186, 62.250000
8.022065, -20.261423, 62.375000
8.072837, -20.389660, 62.500000
8.123610, -20.517897, 62.625000
8.225155, -20.774371, 62.750000
8.225155, -20.774371, 62.875000
8.275928, -20.902607, 63.000000
8.326700, -21.030844, 63.125000
8.275928, -20.902607, 63.250000
8.326700, -21.030844, 63.375000
8.377473, -21.159081, 63.500000
8.428245, -21.287318, 63.625000
8.479018, -21.415555, 63.750000
8.479018, -21.415555, 63.875000
8.529791, -21.543792, 64.000000
8.580563, -21.672029, 64.125000
8.631336, -21.800265, 64.250000
8.682108, -21.928502, 64.375000
8.732881, -22.056739, 64.500000
8.783653, -22.184976, 64.625000
8.783653, -22.184976, 64.750000
8.783653, -22.184976, 64.875000
8.885199, -22.441450, 65.000000
8.885199, -22.441450, 65.125000
8.935971, -22.569687, 65.250000
8.935971, -22.569687, 65.375000
8.986744, -22.697923, 65.500000
9.037516, -22.826160, 65.625000
9.088289, -22.954397, 65.750000
9.139061, -23.082634, 65.875000
9.139061, -23.082634, 66.000000
9.139061, -23.082634, 66.125000
9.240606, -23.339108, 66.250000
9.240606, -23.339108, 66.375000
9.291379, -23.467345, 66.500000
9.342152, -23.595581, 66.625000
9.342152, -23.595581, 66.750000
9.392924, -23.723818, 66.875000
9.443697, -23.852055, 67.000000
9.443697, -23.852055, 67.125000
9.545242, -24.108529, 67.250000
9.545242, -24.108529, 67.375000
9.596014, -24.236766, 67.500000
9.646787, -24.365003, 67.625000
9.646787, -24.365003, 67.750000
9.697560, -24.493239, 67.875000
9.748332, -24.621476, 68.000000
9.799105, -24.749713, 68.125000
9.799105, -24.749713, 68.250000
9.849877, -24.877950, 68.375000
9.849877, -24.877950, 68.500000
9.951422, -25.134424, 68.625000
10.002195, -25.262661, 68.750000
10.002195, -25.262661, 68.875000
10.052967, -25.390897, 69.000000
10.103740, -25.519134, 69.125000
10.154513, -25.647371, 69.250000
10.205285, -25.775608, 69.375000
10.205285, -25.775608, 69.500000
10.256058, -25.903845, 69.625000
10.306830, -26.032082, 69.750000
10.306830, -26.032082, 69.875000
10.408375, -26.288555, 70.000000
10.408375, -26.288555, 70.125000
10.408375, -26.288555, 70.250000
10.459148, -26.416792, 70.375000
10.509921, -26.545029, 70.500000
10.560693, -26.673266, 70.625000
10.611466, -26.801503, 70.750000
10.662238, -26.929740, 70.875000
10.662238, -26.929740, 71.000000
10.713011, -27.057977, 71.125000
10.763783, -27.186213, 71.250000
10.814556, -27.314450, 71.375000
10.865328, -27.442687, 71.500000
10.865328, -27.442687, 71.625000
10.916101, -27.570924, 71.750000
10.966874, -27.699161, 71.875000
10.966874, -27.699161, 72.000000
11.017646, -27.827398, 72.125000
11.017646, -27.827398, 72.250000
11.068419, -27.955635, 72.375000
11.068419, -27.955635, 72.500000
11.119191, -28.083871, 72.625000
11.169964, -28.212108, 72.750000
11.220736, -28.340345, 72.875000
11.220736, -28.340345, 73.000000
11.271509, -28.468582, 73.125000
11.322282, -28.596819, 73.250000
11.373054, -28.725056, 73.375000
11.423827, -28.853292, 73.500000
11.474599, -28.981529, 73.625000
11.525372, -29.109766, 73.750000
11.525372, -29.109766, 73.875000
11.525372, -29.109766, 74.000000
11.576144, -29.238003, 74.125000
11.626917, -29.366240, 74.250000
11.626917, -29.366240, 74.375000
11.677689, -29.494477, 74.500000
11.728462, -29.622714, 74.625000
11.779235, -29.750950, 74.750000
11.830007, -29.879187, 74.875000
11.880780, -30.007424, 75.000000
11.880780, -30.007424, 75.125000
11.931552, -30.135661, 75.250000
11.982325, -30.263898, 75.375000
12.033097, -30.392135, 75.500000
12.083870, -30.520372, 75.625000
12.083870, -30.520372, 75.750000
12.134643, -30.648608, 75.875000
12.185415, -30.776845, 76.000000
12.185415, -30.776845, 76.125000
12.236188, -30.905082, 76.250000
12.286960, -31.033319, 76.375000
12.337733, -31.161556, 76.500000
12.388505, -31.289793, 76.625000
12.439278, -31.418030, 76.750000
12.490050, -31.546266, 76.875000
12.490050, -31.546266, 77.000000
12.540823, -31.674503, 77.125000
12.540823, -31.674503, 77.250000
12.591596, -31.802740, 77.375000
12.693141, -32.059214, 77.500000
12.693141, -32.059214, 77.625000
12.693141, -32.059214, 77.750000
12.794686, -32.315688, 77.875000
12.794686, -32.315688, 78.000000
12.794686, -32.315688, 78.125000
12.845458, -32.443924, 78.250000
12.896231, -32.572161, 78.375000
12.896231, -32.572161, 78.500000
12.947004, -32.700398, 78.625000
12.947004, -32.700398, 78.750000
12.947004, -32.700398, 78.875000
12.947004, -32.700398, 79.000000
12.947004, -32.700398, 79.125000
12.997776, -32.828635, 79.250000
12.997776, -32.828635, 79.375000
12.997776, -32.828635, 79.500000
12.997776, -32.828635, 79.625000
12.997776, -32.828635, 79.750000
2.738776, -6.328939, 43.125000
2.738776, -6.328939, 43.250000
2.738776, -6.328939, 43.375000
2.793552, -6.455517, 43.500000
2.903103, -6.708675, 43.625000
2.957878, -6.835254, 43.750000
2.957878, -6.835254, 43.875000
3.067429, -7.088411, 44.000000
3.067429, -7.088411, 44.125000
3.067429, -7.088411, 44.250000
3.122205, -7.214990, 44.375000
3.176981, -7.341569, 44.500000
3.176981, -7.341569, 44.625000
3.231756, -7.468148, 44.750000
3.286532, -7.594726, 44.875000
3.286532, -7.594726, 45.000000
3.341307, -7.721305, 45.125000
3.396083, -7.847884, 45.250000
3.450858, -7.974463, 45.375000
3.450858, -7.974463, 45.500000
3.505634, -8.101042, 45.625000
3.505634, -8.101042, 45.750000
3.615185, -8.354199, 45.875000
3.669960, -8.480778, 46.000000
3.669960, -8.480778, 46.125000
3.724736, -8.607357, 46.250000
3.724736, -8.607357, 46.375000
3.724736, -8.607357, 46.500000
3.779511, -8.733935, 46.625000
3.834287, -8.860514, 46.750000
3.889062, -8.987093, 46.875000
3.889062, -8.987093, 47.000000
3.943838, -9.113672, 47.125000
3.998613, -9.240250, 47.250000
4.053389, -9.366829, 47.375000
4.053389, -9.366829, 47.500000
4.108164, -9.493408, 47.625000
4.162940, -9.619987, 47.750000
4.162940, -9.619987, 47.875000
4.272491, -9.873144, 48.000000
4.272491, -9.873144, 48.125000
4.327267, -9.999723, 48.250000
4.382042, -10.126302, 48.375000
4.382042, -10.126302, 48.500000
4.436818, -10.252881, 48.625000
4.436818, -10.252881, 48.750000
4.491593, -10.379459, 48.875000
4.546369, -10.506038, 49.000000
4.601144, -10.632617, 49.125000
4.601144, -10.632617, 49.250000
4.601144, -10.632617, 49.375000
4.710695, -10.885775, 49.500000
4.710695, -10.885775, 49.625000
4.710695, -10.885775, 49.750000
4.765471, -11.012353, 49.875000
4.820246, -11.138932, 50.000000
4.875022, -11.265511, 50.125000
4.875022, -11.265511, 50.250000
4.929797, -11.392090, 50.375000
4.929797, -11.392090, 50.500000
4.984573, -11.518668, 50.625000
5.039348, -11.645247, 50.750000
5.039348, -11.645247, 50.875000
5.094124, -11.771826, 51.000000
5.094124, -11.771826, 51.125000
5.148900, -11.898405, 51.250000
5.203675, -12.024983, 51.375000
5.258451, -12.151562, 51.500000
5.258451, -12.151562, 51.625000
5.313226, -12.278141, 51.750000
5.368002, -12.404720, 51.875000
5.422777, -12.531299, 52.000000
5.477553, -12.657877, 52.125000
5.477553, -12.657877, 52.250000
5.587104, -12.911035, 52.375000
5.587104, -12.911035, 52.500000
5.587104, -12.911035, 52.625000
5.641879, -13.037614, 52.750000
5.696655, -13.164192, 52.875000
5.751430, -13.290771, 53.000000
5.751430, -13.290771, 53.125000
5.806206, -13.417350, 53.250000
5.860981, -13.543929, 53.375000
5.860981, -13.543929, 53.500000
5.915757, -13.670508, 53.625000
5.970532, -13.797086, 53.750000
5.970532, -13.797086, 53.875000
6.025308, -13.923665, 54.000000
6.025308, -13.923665, 54.125000
6.134859, -14.176823, 54.250000
6.134859, -14.176823, 54.375000
6.189635, -14.303401, 54.500000
6.244410, -14.429980, 54.625000
6.244410, -14.429980, 54.750000
6.353961, -14.683138, 54.875000
6.353961, -14.683138, 55.000000
6.408737, -14.809717, 55.125000
6.408737, -14.809717, 55.250000
6.463512, -14.936295, 55.375000
6.518288, -15.062874, 55.500000
6.573063, -15.189453, 55.625000
6.627839, -15.316032, 55.750000
6.627839, -15.316032, 55.875000
6.682614, -15.442610, 56.000000
6.682614, -15.442610, 56.125000
6.737390, -15.569189, 56.250000
6.792165, -15.695768, 56.375000
6.792165, -15.695768, 56.500000
6.846941, -15.822347, 56.625000
6.956492, -16.075504, 56.750000
7.011267, -16.202083, 56.875000
7.011267, -16.202083, 57.000000
7.011267, -16.202083, 57.125000
7.066043, -16.328662, 57.250000
7.120818, -16.455241, 57.375000
7.175594, -16.581819, 57.500000
7.230370, -16.708398, 57.625000
7.230370, -16.708398, 57.750000
7.285145, -16.834977, 57.875000
7.394696, -17.088134, 58.000000
7.394696, -17.088134, 58.125000
7.449472, -17.214713, 58.250000
7.449472, -17.214713, 58.375000
7.559023, -17.467871, 58.500000
7.559023, -17.467871, 58.625000
7.613798, -17.594450, 58.750000
7.613798, -17.594450, 58.875000
7.723349, -17.847607, 59.000000
7.723349, -17.847607, 59.125000
7.778125, -17.974186, 59.250000
7.778125, -17.974186, 59.375000
7.832900, -18.100765, 59.500000
7.887676, -18.227343, 59.625000
7.942451, -18.353922, 59.750000
7.942451, -18.353922, 59.875000
7.997227, -18.480501, 60.000000
7.997227, -18.480501, 60.125000
8.052002, -18.607080, 60.250000
8.161553, -18.860237, 60.375000
8.161553, -18.860237, 60.500000
8.216329, -18.986816, 60.625000
8.216329, -18.986816, 60.750000
8.271105, -19.113395, 60.875000
8.271105, -19.113395, 61.000000
8.325880, -19.239974, 61.125000
8.380656, -19.366552, 61.250000
8.380656, -19.366552, 61.375000
8.490207, -19.619710, 61.500000
8.490207, -19.619710, 61.625000
8.544982, -19.746289, 61.750000
8.599758, -19.872867, 61.875000
8.654533, -19.999446, 62.000000
8.709309, -20.126025, 62.125000
8.709309, -20.126025, 62.250000
8.764084, -20.252604, 62.375000
8.764084, -20.252604, 62.500000
8.818860, -20.379183, 62.625000
8.873635, -20.505761, 62.750000
8.928411, -20.632340, 62.875000
8.983186, -20.758919, 63.000000
9.037962, -20.885498, 63.125000
9.092737, -21.012076, 63.250000
9.092737, -21.012076, 63.375000
9.092737, -21.012076, 63.500000
9.202288, -21.265234, 63.625000
9.202288, -21.265234, 63.750000
9.257064, -21.391813, 63.875000
9.311840, -21.518392, 64.000000
9.311840, -21.518392, 64.125000
9.366615, -21.644970, 64.250000
9.421391, -21.771549, 64.375000
9.476166, -21.898128, 64.500000
9.530942, -22.024707, 64.625000
9.585717, -22.151285, 64.750000
9.640493, -22.277864, 64.875000
9.640493, -22.277864, 65.000000
9.640493, -22.277864, 65.125000
9.750044, -22.531022, 65.250000
9.750044, -22.531022, 65.375000
9.804819, -22.657600, 65.500000
9.804819, -22.657600, 65.625000
9.859595, -22.784179, 65.750000
9.914370, -22.910758, 65.875000
9.914370, -22.910758, 66.000000
9.969146, -23.037337, 66.125000
10.023921, -23.163916, 66.250000
10.078697, -23.290494, 66.375000
10.078697, -23.290494, 66.500000
10.133472, -23.417073, 66.625000
10.188248, -23.543652, 66.750000
10.188248, -23.543652, 66.875000
10.297799, -23.796809, 67.000000
10.297799, -23.796809, 67.125000
10.352575, -23.923388, 67.250000
10.462126, -24.176546, 67.375000
10.407350, -24.049967, 67.500000
10.462126, -24.176546, 67.625000
10.516901, -24.303125, 67.750000
