50.786835, -27.920299, 19.000000
50.786835, -27.920299, 19.125000
50.786835, -27.920299, 19.250000
50.786835, -27.920299, 19.375000
50.786835, -27.920299, 19.500000
50.363612, -27.687630, 19.625000
50.786835, -27.920299, 19.750000
50.363612, -27.687630, 19.875000
50.786835, -27.920299, 20.000000
50.363612, -27.687630, 20.125000
50.363612, -27.687630, 20.250000
50.363612, -27.687630, 20.375000
50.363612, -27.687630, 20.500000
50.363612, -27.687630, 20.625000
50.363612, -27.687630, 20.750000
50.363612, -27.687630, 20.875000
50.363612, -27.687630, 21.000000
50.363612, -27.687630, 21.125000
49.940388, -27.454961, 21.250000
49.940388, -27.454961, 21.375000
50.363612, -27.687630, 21.500000
49.940388, -27.454961, 21.625000
50.363612, -27.687630, 21.750000
49.517164, -27.222291, 21.875000
49.940388, -27.454961, 22.000000
49.940388, -27.454961, 22.125000
-10.580591, 5.816729, 43.750000
-11.427038, 6.282067, 43.875000
-11.427038, 6.282067, 44.000000
-11.427038, 6.282067, 44.125000
-11.427038, 6.282067, 44.250000
-12.273485, 6.747406, 44.375000
-11.850262, 6.514736, 44.500000
-11.850262, 6.514736, 44.625000
-11.427038, 6.282067, 44.750000
-11.850262, 6.514736, 44.875000
-11.850262, 6.514736, 45.000000
-11.850262, 6.514736, 45.125000
-11.850262, 6.514736, 45.250000
-11.427038, 6.282067, 45.375000
-12.273485, 6.747406, 45.500000
-12.273485, 6.747406, 45.625000
-12.273485, 6.747406, 45.750000
-12.273485, 6.747406, 45.875000
-12.696709, 6.980075, 46.000000
-12.696709, 6.980075, 46.125000
-12.696709, 6.980075, 46.250000
-12.696709, 6.980075, 46.375000
-13.119932, 7.212744, 46.500000
-13.119932, 7.212744, 46.625000
-12.696709, 6.980075, 46.750000
-13.119932, 7.212744, 46.875000
-13.543156, 7.445413, 47.000000
-13.119932, 7.212744, 47.125000
-13.119932, 7.212744, 47.250000
-13.119932, 7.212744, 47.375000
-13.119932, 7.212744, 47.500000
-13.543156, 7.445413, 47.625000
-13.543156, 7.445413, 47.750000
-13.543156, 7.445413, 47.875000
-13.966380, 7.678082, 48.000000
-13.966380, 7.678082, 48.125000
-13.966380, 7.678082, 48.250000
-14.389603, 7.910751, 48.375000
-13.966380, 7.678082, 48.500000
-14.389603, 7.910751, 48.625000
-14.389603, 7.910751, 48.750000
-14.389603, 7.910751, 48.875000
-14.389603, 7.910751, 49.000000
-14.389603, 7.910751, 49.125000
-14.812827, 8.143421, 49.250000
-14.812827, 8.143421, 49.375000
-14.812827, 8.143421, 49.500000
-14.812827, 8.143421, 49.625000
-14.812827, 8.143421, 49.750000
-15.236051, 8.376090, 49.875000
-14.812827, 8.143421, 50.000000
-15.236051, 8.376090, 50.125000
-15.236051, 8.376090, 50.250000
-15.236051, 8.376090, 50.375000
-15.236051, 8.376090, 50.500000
-15.236051, 8.376090, 50.625000
-15.236051, 8.376090, 50.750000
-15.236051, 8.376090, 50.875000
-15.659274, 8.608759, 51.000000
-15.659274, 8.608759, 51.125000
-15.659274, 8.608759, 51.250000
-16.082498, 8.841428, 51.375000
-16.082498, 8.841428, 51.500000
-16.505721, 9.074097, 51.625000
-16.082498, 8.841428, 51.750000
-16.082498, 8.841428, 51.875000
-16.082498, 8.841428, 52.000000
-16.505721, 9.074097, 52.125000
-16.505721, 9.074097, 52.250000
-16.505721, 9.074097, 52.375000
-16.505721, 9.074097, 52.500000
-16.928945, 9.306766, 52.625000
-16.928945, 9.306766, 52.750000
-16.928945, 9.306766, 52.875000
-16.928945, 9.306766, 53.000000
-17.352169, 9.539435, 53.125000
-16.928945, 9.306766, 53.250000
-17.352169, 9.539435, 53.375000
-17.352169, 9.539435, 53.500000
-17.352169, 9.539435, 53.625000
-17.352169, 9.539435, 53.750000
-17.352169, 9.539435, 53.875000
-17.775392, 9.772105, 54.000000
-17.775392, 9.772105, 54.125000
-17.775392, 9.772105, 54.250000
-17.775392, 9.772105, 54.375000
-17.775392, 9.772105, 54.500000
-17.775392, 9.772105, 54.625000
-18.198616, 10.004774, 54.750000
-18.621840, 10.237443, 54.875000
-18.198616, 10.004774, 55.000000
-18.198616, 10.004774, 55.125000
-18.198616, 10.004774, 55.250000
-18.621840, 10.237443, 55.375000
-18.621840, 10.237443, 55.500000
-18.621840, 10.237443, 55.625000
-18.621840, 10.237443, 55.750000
-18.621840, 10.237443, 55.875000
-19.045063, 10.470112, 56.000000
-19.045063, 10.470112, 56.125000
-19.045063, 10.470112, 56.250000
-19.045063, 10.470112, 56.375000
-19.468287, 10.702781, 56.500000
-19.468287, 10.702781, 56.625000
-19.468287, 10.702781, 56.750000
-19.468287, 10.702781, 56.875000
-19.891510, 10.935450, 57.000000
-20.314734, 11.168120, 57.125000
-19.891510, 10.935450, 57.250000
-19.891510, 10.935450, 57.375000
-19.891510, 10.935450, 57.500000
-20.314734, 11.168120, 57.625000
-20.314734, 11.168120, 57.750000
-20.737958, 11.400789, 57.875000
-20.314734, 11.168120, 58.000000
-20.737958, 11.400789, 58.125000
-20.737958, 11.400789, 58.250000
-20.737958, 11.400789, 58.375000
-20.737958, 11.400789, 58.500000
-20.737958, 11.400789, 58.625000
-21.161181, 11.633458, 58.750000
-21.161181, 11.633458, 58.875000
-21.161181, 11.633458, 59.000000
-21.161181, 11.633458, 59.125000
-21.584405, 11.866127, 59.250000
-21.584405, 11.866127, 59.375000
-21.584405, 11.866127, 59.500000
-21.584405, 11.866127, 59.625000
-22.007629, 12.098796, 59.750000
-22.007629, 12.098796, 59.875000
-22.430852, 12.331465, 60.000000
-22.430852, 12.331465, 60.125000
-22.007629, 12.098796, 60.250000
-22.007629, 12.098796, 60.375000
-22.430852, 12.331465, 60.500000
-22.430852, 12.331465, 60.625000
-22.854076, 12.564135, 60.750000
-22.430852, 12.331465, 60.875000
-22.430852, 12.331465, 61.000000
-22.430852, 12.331465, 61.125000
-22.854076, 12.564135, 61.250000
-22.854076, 12.564135, 61.375000
-22.854076, 12.564135, 61.500000
-22.854076, 12.564135, 61.625000
-22.854076, 12.564135, 61.750000
-23.277299, 12.796804, 61.875000
-23.277299, 12.796804, 62.000000
-23.700523, 13.029473, 62.125000
-23.700523, 13.029473, 62.250000
-23.700523, 13.029473, 62.375000
-23.277299, 12.796804, 62.500000
-23.700523, 13.029473, 62.625000
-23.700523, 13.029473, 62.750000
-23.700523, 13.029473, 62.875000
-23.700523, 13.029473, 63.000000
-24.123747, 13.262142, 63.125000
-24.123747, 13.262142, 63.250000
-24.546970, 13.494811, 63.375000
-24.123747, 13.262142, 63.500000
-24.123747, 13.262142, 63.625000
-24.546970, 13.494811, 63.750000
-24.970194, 13.727480, 63.875000
-24.546970, 13.494811, 64.000000
-24.970194, 13.727480, 64.125000
-24.546970, 13.494811, 64.250000
-24.970194, 13.727480, 64.375000
-24.970194, 13.727480, 64.500000
-25.393418, 13.960149, 64.625000
-25.816641, 14.192819, 64.750000
-25.393418, 13.960149, 64.875000
-25.393418, 13.960149, 65.000000
-25.816641, 14.192819, 65.125000
-25.816641, 14.192819, 65.250000
-25.816641, 14.192819, 65.375000
-25.816641, 14.192819, 65.500000
-25.816641, 14.192819, 65.625000
-25.816641, 14.192819, 65.750000
-25.816641, 14.192819, 65.875000
-26.239865, 14.425488, 66.000000
-26.239865, 14.425488, 66.125000
-26.239865, 14.425488, 66.250000
-26.663089, 14.658157, 66.375000
-26.663089, 14.658157, 66.500000
-26.663089, 14.658157, 66.625000
-27.086312, 14.890826, 66.750000
-27.086312, 14.890826, 66.875000
-27.509536, 15.123495, 67.000000
-27.509536, 15.123495, 67.125000
-27.086312, 14.890826, 67.250000
-27.086312, 14.890826, 67.375000
-27.086312, 14.890826, 67.500000
-27.509536, 15.123495, 67.625000
-27.509536, 15.123495, 67.750000
-27.932759, 15.356164, 67.875000
-27.509536, 15.123495, 68.000000
-27.932759, 15.356164, 68.125000
-27.932759, 15.356164, 68.250000
-27.932759, 15.356164, 68.375000
-27.932759, 15.356164, 68.500000
-27.932759, 15.356164, 68.625000
-28.355983, 15.588834, 68.750000
-28.355983, 15.588834, 68.875000
-28.355983, 15.588834, 69.000000
-28.779207, 15.821503, 69.125000
-28.355983, 15.588834, 69.250000
-28.779207, 15.821503, 69.375000
-28.779207, 15.821503, 69.500000
-29.202430, 16.054172, 69.625000
-29.202430, 16.054172, 69.750000
-29.202430, 16.054172, 69.875000
-29.202430, 16.054172, 70.000000
-29.202430, 16.054172, 70.125000
-29.202430, 16.054172, 70.250000
-29.625654, 16.286841, 70.375000
-29.625654, 16.286841, 70.500000
-29.625654, 16.286841, 70.625000
-29.625654, 16.286841, 70.750000
-29.625654, 16.286841, 70.875000
-30.472101, 16.752179, 71.000000
-30.048878, 16.519510, 71.125000
-30.048878, 16.519510, 71.250000
-30.048878, 16.519510, 71.375000
-30.048878, 16.519510, 71.500000
-30.472101, 16.752179, 71.625000
-30.048878, 16.519510, 71.750000
-30.472101, 16.752179, 71.875000
-30.895325, 16.984849, 72.000000
-30.472101, 16.752179, 72.125000
-30.472101, 16.752179, 72.250000
-30.895325, 16.984849, 72.375000
-30.895325, 16.984849, 72.500000
-31.318548, 17.217518, 72.625000
-31.318548, 17.217518, 72.750000
-31.318548, 17.217518, 72.875000
-31.318548, 17.217518, 73.000000
-31.318548, 17.217518, 73.125000
-31.318548, 17.217518, 73.250000
-31.318548, 17.217518, 73.375000
-31.741772, 17.450187, 73.500000
-32.164996, 17.682856, 73.625000
-31.741772, 17.450187, 73.750000
-32.164996, 17.682856, 73.875000
-32.164996, 17.682856, 74.000000
-32.588219, 17.915525, 74.125000
-32.164996, 17.682856, 74.250000
-32.588219, 17.915525, 74.375000
-32.588219, 17.915525, 74.500000
-32.588219, 17.915525, 74.625000
-32.588219, 17.915525, 74.750000
-33.011443, 18.148194, 74.875000
-33.011443, 18.148194, 75.000000
-33.434667, 18.380863, 75.125000
-33.434667, 18.380863, 75.250000
-33.011443, 18.148194, 75.375000
-33.011443, 18.148194, 75.500000
-33.434667, 18.380863, 75.625000
-33.434667, 18.380863, 75.750000
-33.434667, 18.380863, 75.875000
-33.857890, 18.613533, 76.000000
-33.857890, 18.613533, 76.125000
-33.857890, 18.613533, 76.250000
-33.857890, 18.613533, 76.375000
-34.281114, 18.846202, 76.500000
-33.857890, 18.613533, 76.625000
-33.857890, 18.613533, 76.750000
-33.857890, 18.613533, 76.875000
-34.704337, 19.078871, 77.000000
-34.704337, 19.078871, 77.125000
-34.704337, 19.078871, 77.250000
-34.704337, 19.078871, 77.375000
-34.704337, 19.078871, 77.500000
-34.704337, 19.078871, 77.625000
-35.127561, 19.311540, 77.750000
-35.127561, 19.311540, 77.875000
-35.127561, 19.311540, 78.000000
-35.127561, 19.311540, 78.125000
-35.127561, 19.311540, 78.250000
-35.550785, 19.544209, 78.375000
-35.550785, 19.544209, 78.500000
-35.550785, 19.544209, 78.625000
-35.550785, 19.544209, 78.750000
-35.974008, 19.776878, 78.875000
-35.550785, 19.544209, 79.000000
-35.974008, 19.776878, 79.125000
-35.974008, 19.776878, 79.250000
-35.974008, 19.776878, 79.375000
-36.397232, 20.009548, 79.500000
-36.397232, 20.009548, 79.625000
-36.397232, 20.009548, 79.750000
-36.820456, 20.242217, 79.875000
-36.820456, 20.242217, 80.000000
-36.820456, 20.242217, 80.125000
-36.820456, 20.242217, 80.250000
-36.820456, 20.242217, 80.375000
-36.820456, 20.242217, 80.500000
-37.243679, 20.474886, 80.625000
-37.243679, 20.474886, 80.750000
-37.243679, 20.474886, 80.875000
-37.243679, 20.474886, 81.000000
-37.243679, 20.474886, 81.125000
-37.243679, 20.474886, 81.250000
-37.666903, 20.707555, 81.375000
-38.090126, 20.940224, 81.500000
-37.666903, 20.707555, 81.625000
-37.666903, 20.707555, 81.750000
-37.666903, 20.707555, 81.875000
-38.090126, 20.940224, 82.000000
-38.090126, 20.940224, 82.125000
-38.936574, 21.405563, 82.250000
-38.513350, 21.172893, 82.375000
-38.090126, 20.940224, 82.500000
-54.595848, 30.014321, 102.875000
-55.865519, 30.712329, 103.000000
-56.288742, 30.944998, 103.125000
-53.326177, 29.316314, 103.250000
-53.326177, 29.316314, 103.375000
-54.595848, 30.014321, 103.500000
-52.902953, 29.083645, 103.625000
-53.326177, 29.316314, 103.750000
-53.326177, 29.316314, 103.875000
-53.326177, 29.316314, 104.000000
-53.749401, 29.548983, 104.125000
-55.442295, 30.479660, 104.250000
-55.442295, 30.479660, 104.375000
-55.865519, 30.712329, 104.500000
-63.060320, 34.667705, 104.625000
58.093619, -29.600178, 0.000000
58.093619, -29.600178, 0.125000
58.093619, -29.600178, 0.250000
58.093619, -29.600178, 0.375000
58.093619, -29.600178, 0.500000
57.663296, -29.380917, 0.625000
57.663296, -29.380917, 0.750000
57.663296, -29.380917, 0.875000
57.663296, -29.380917, 1.000000
57.663296, -29.380917, 1.125000
57.663296, -29.380917, 1.250000
57.663296, -29.380917, 1.375000
57.663296, -29.380917, 1.500000
57.663296, -29.380917, 1.625000
57.663296, -29.380917, 1.750000
57.663296, -29.380917, 1.875000
57.232973, -29.161656, 2.000000
57.232973, -29.161656, 2.125000
57.232973, -29.161656, 2.250000
57.232973, -29.161656, 2.375000
57.232973, -29.161656, 2.500000
57.232973, -29.161656, 2.625000
56.802650, -28.942396, 2.750000
56.802650, -28.942396, 2.875000
57.232973, -29.161656, 3.000000
57.232973, -29.161656, 3.125000
56.802650, -28.942396, 3.250000
56.802650, -28.942396, 3.375000
56.372327, -28.723135, 3.500000
56.372327, -28.723135, 3.625000
56.372327, -28.723135, 3.750000
56.372327, -28.723135, 3.875000
56.802650, -28.942396, 4.000000
56.372327, -28.723135, 4.125000
56.372327, -28.723135, 4.250000
56.372327, -28.723135, 4.375000
56.372327, -28.723135, 4.500000
56.372327, -28.723135, 4.625000
56.802650, -28.942396, 4.750000
56.372327, -28.723135, 4.875000
56.372327, -28.723135, 5.000000
56.372327, -28.723135, 5.125000
56.372327, -28.723135, 5.250000
56.372327, -28.723135, 5.375000
55.942004, -28.503875, 5.500000
55.942004, -28.503875, 5.625000
55.942004, -28.503875, 5.750000
55.942004, -28.503875, 5.875000
55.942004, -28.503875, 6.000000
55.942004, -28.503875, 6.125000
56.372327, -28.723135, 6.250000
55.942004, -28.503875, 6.375000
55.942004, -28.503875, 6.500000
55.942004, -28.503875, 6.625000
55.511681, -28.284614, 6.750000
55.511681, -28.284614, 6.875000
55.511681, -28.284614, 7.000000
55.511681, -28.284614, 7.125000
55.511681, -28.284614, 7.250000
55.511681, -28.284614, 7.375000
55.081358, -28.065354, 7.500000
55.511681, -28.284614, 7.625000
55.511681, -28.284614, 7.750000
55.081358, -28.065354, 7.875000
55.081358, -28.065354, 8.000000
55.081358, -28.065354, 8.125000
55.511681, -28.284614, 8.250000
55.511681, -28.284614, 8.375000
55.511681, -28.284614, 8.500000
55.081358, -28.065354, 8.625000
55.081358, -28.065354, 8.750000
55.081358, -28.065354, 8.875000
55.081358, -28.065354, 9.000000
54.651035, -27.846093, 9.125000
55.081358, -28.065354, 9.250000
54.651035, -27.846093, 9.375000
54.651035, -27.846093, 9.500000
54.651035, -27.846093, 9.625000
54.651035, -27.846093, 9.750000
54.651035, -27.846093, 9.875000
54.651035, -27.846093, 10.000000
54.651035, -27.846093, 10.125000
54.651035, -27.846093, 10.250000
54.220711, -27.626832, 10.375000
54.651035, -27.846093, 10.500000
54.651035, -27.846093, 10.625000
54.651035, -27.846093, 10.750000
54.651035, -27.846093, 10.875000
54.651035, -27.846093, 11.000000
54.651035, -27.846093, 11.125000
54.651035, -27.846093, 11.250000
54.651035, -27.846093, 11.375000
54.651035, -27.846093, 11.500000
54.220711, -27.626832, 11.625000
53.790388, -27.407572, 11.750000
54.220711, -27.626832, 11.875000
53.790388, -27.407572, 12.000000
54.220711, -27.626832, 12.125000
54.220711, -27.626832, 12.250000
54.220711, -27.626832, 12.375000
54.220711, -27.626832, 12.500000
53.790388, -27.407572, 12.625000
53.360065, -27.188311, 12.750000
53.790388, -27.407572, 12.875000
53.790388, -27.407572, 13.000000
53.790388, -27.407572, 13.125000
53.790388, -27.407572, 13.250000
53.790388, -27.407572, 13.375000
53.360065, -27.188311, 13.500000
53.790388, -27.407572, 13.625000
53.360065, -27.188311, 13.750000
53.360065, -27.188311, 13.875000
53.790388, -27.407572, 14.000000
53.360065, -27.188311, 14.125000
53.360065, -27.188311, 14.250000
53.360065, -27.188311, 14.375000
52.929742, -26.969051, 14.500000
53.360065, -27.188311, 14.625000
53.360065, -27.188311, 14.750000
53.360065, -27.188311, 14.875000
53.360065, -27.188311, 15.000000
52.929742, -26.969051, 15.125000
52.929742, -26.969051, 15.250000
52.929742, -26.969051, 15.375000
52.929742, -26.969051, 15.500000
52.929742, -26.969051, 15.625000
52.929742, -26.969051, 15.750000
52.929742, -26.969051, 15.875000
52.929742, -26.969051, 16.000000
52.929742, -26.969051, 16.125000
52.929742, -26.969051, 16.250000
52.499419, -26.749790, 16.375000
52.499419, -26.749790, 16.500000
52.499419, -26.749790, 16.625000
52.499419, -26.749790, 16.750000
52.499419, -26.749790, 16.875000
52.499419, -26.749790, 17.000000
51.638773, -26.311269, 17.125000
51.638773, -26.311269, 17.250000
52.499419, -26.749790, 17.375000
52.499419, -26.749790, 17.500000
52.069096, -26.530529, 17.625000
52.069096, -26.530529, 17.750000
51.638773, -26.311269, 17.875000
52.069096, -26.530529, 18.000000
52.069096, -26.530529, 18.125000
52.069096, -26.530529, 18.250000
51.638773, -26.311269, 18.375000
51.638773, -26.311269, 18.500000
51.638773, -26.311269, 18.625000
52.069096, -26.530529, 18.750000
52.069096, -26.530529, 18.875000
51.638773, -26.311269, 19.000000
51.638773, -26.311269, 19.125000
51.638773, -26.311269, 19.250000
51.208450, -26.092008, 19.375000
51.208450, -26.092008, 19.500000
51.208450, -26.092008, 19.625000
51.638773, -26.311269, 19.750000
51.208450, -26.092008, 19.875000
51.638773, -26.311269, 20.000000
51.208450, -26.092008, 20.125000
51.208450, -26.092008, 20.250000
51.208450, -26.092008, 20.375000
51.208450, -26.092008, 20.500000
51.208450, -26.092008, 20.625000
51.208450, -26.092008, 20.750000
51.208450, -26.092008, 20.875000
51.208450, -26.092008, 21.000000
50.778127, -25.872748, 21.125000
50.778127, -25.872748, 21.250000
50.778127, -25.872748, 21.375000
51.208450, -26.092008, 21.500000
51.208450, -26.092008, 21.625000
51.208450, -26.092008, 21.750000
50.778127, -25.872748, 21.875000
51.208450, -26.092008, 22.000000
50.778127, -25.872748, 22.125000
-10.758078, 5.481514, 43.750000
-11.188401, 5.700775, 43.875000
-11.188401, 5.700775, 44.000000
-11.618724, 5.920036, 44.125000
-11.618724, 5.920036, 44.250000
-11.618724, 5.920036, 44.375000
-11.618724, 5.920036, 44.500000
-12.049047, 6.139296, 44.625000
-12.049047, 6.139296, 44.750000
-11.618724, 5.920036, 44.875000
-12.049047, 6.139296, 45.000000
-12.479370, 6.358557, 45.125000
-12.479370, 6.358557, 45.250000
-12.479370, 6.358557, 45.375000
-12.479370, 6.358557, 45.500000
-12.049047, 6.139296, 45.625000
-12.479370, 6.358557, 45.750000
-12.479370, 6.358557, 45.875000
-12.479370, 6.358557, 46.000000
-12.909693, 6.577817, 46.125000
-12.479370, 6.358557, 46.250000
-12.909693, 6.577817, 46.375000
-12.909693, 6.577817, 46.500000
-13.340016, 6.797078, 46.625000
-13.340016, 6.797078, 46.750000
-13.340016, 6.797078, 46.875000
-13.340016, 6.797078, 47.000000
-13.340016, 6.797078, 47.125000
-13.340016, 6.797078, 47.250000
-13.770339, 7.016338, 47.375000
-13.340016, 6.797078, 47.500000
-13.770339, 7.016338, 47.625000
-13.770339, 7.016338, 47.750000
-13.770339, 7.016338, 47.875000
-14.200663, 7.235599, 48.000000
-14.200663, 7.235599, 48.125000
-14.200663, 7.235599, 48.250000
-14.200663, 7.235599, 48.375000
-14.630986, 7.454860, 48.500000
-14.630986, 7.454860, 48.625000
-14.200663, 7.235599, 48.750000
-15.061309, 7.674120, 48.875000
-14.630986, 7.454860, 49.000000
-14.630986, 7.454860, 49.125000
-14.630986, 7.454860, 49.250000
-14.630986, 7.454860, 49.375000
-15.061309, 7.674120, 49.500000
-15.061309, 7.674120, 49.625000
-15.061309, 7.674120, 49.750000
-15.061309, 7.674120, 49.875000
-15.061309, 7.674120, 50.000000
-15.061309, 7.674120, 50.125000
-15.491632, 7.893381, 50.250000
-15.491632, 7.893381, 50.375000
-15.491632, 7.893381, 50.500000
-15.491632, 7.893381, 50.625000
-15.491632, 7.893381, 50.750000
-15.921955, 8.112641, 50.875000
-15.491632, 7.893381, 51.000000
-15.921955, 8.112641, 51.125000
-15.921955, 8.112641, 51.250000
-15.921955, 8.112641, 51.375000
-16.352278, 8.331902, 51.500000
-16.352278, 8.331902, 51.625000
-16.352278, 8.331902, 51.750000
-16.352278, 8.331902, 51.875000
-16.352278, 8.331902, 52.000000
-16.352278, 8.331902, 52.125000
-16.782601, 8.551162, 52.250000
-16.782601, 8.551162, 52.375000
-16.782601, 8.551162, 52.500000
-16.782601, 8.551162, 52.625000
-16.782601, 8.551162, 52.750000
-16.782601, 8.551162, 52.875000
-17.212924, 8.770423, 53.000000
-17.212924, 8.770423, 53.125000
-17.212924, 8.770423, 53.250000
-17.212924, 8.770423, 53.375000
-17.643247, 8.989684, 53.500000
-17.643247, 8.989684, 53.625000
-17.643247, 8.989684, 53.750000
-17.643247, 8.989684, 53.875000
-17.643247, 8.989684, 54.000000
-17.643247, 8.989684, 54.125000
-18.073570, 9.208944, 54.250000
-18.073570, 9.208944, 54.375000
-18.073570, 9.208944, 54.500000
-18.503894, 9.428205, 54.625000
-18.073570, 9.208944, 54.750000
-18.503894, 9.428205, 54.875000
-18.503894, 9.428205, 55.000000
-18.503894, 9.428205, 55.125000
-18.503894, 9.428205, 55.250000
-18.503894, 9.428205, 55.375000
-18.934217, 9.647465, 55.500000
-18.934217, 9.647465, 55.625000
-18.934217, 9.647465, 55.750000
-18.934217, 9.647465, 55.875000
-19.364540, 9.866726, 56.000000
-19.364540, 9.866726, 56.125000
-19.364540, 9.866726, 56.250000
-19.794863, 10.085986, 56.375000
-19.364540, 9.866726, 56.500000
-19.794863, 10.085986, 56.625000
-19.794863, 10.085986, 56.750000
-19.794863, 10.085986, 56.875000
-19.794863, 10.085986, 57.000000
-20.225186, 10.305247, 57.125000
-19.794863, 10.085986, 57.250000
-20.225186, 10.305247, 57.375000
-20.225186, 10.305247, 57.500000
-20.225186, 10.305247, 57.625000
-20.225186, 10.305247, 57.750000
-20.655509, 10.524508, 57.875000
-21.085832, 10.743768, 58.000000
-20.655509, 10.524508, 58.125000
-21.085832, 10.743768, 58.250000
-21.085832, 10.743768, 58.375000
-21.085832, 10.743768, 58.500000
-21.085832, 10.743768, 58.625000
-21.085832, 10.743768, 58.750000
-21.516155, 10.963029, 58.875000
-21.946478, 11.182289, 59.000000
-21.516155, 10.963029, 59.125000
-21.946478, 11.182289, 59.250000
-21.946478, 11.182289, 59.375000
-21.946478, 11.182289, 59.500000
-22.376802, 11.401550, 59.625000
-21.946478, 11.182289, 59.750000
-21.946478, 11.182289, 59.875000
-22.376802, 11.401550, 60.000000
-22.376802, 11.401550, 60.125000
-22.376802, 11.401550, 60.250000
-22.376802, 11.401550, 60.375000
-22.807125, 11.620810, 60.500000
-22.807125, 11.620810, 60.625000
-22.807125, 11.620810, 60.750000
-22.807125, 11.620810, 60.875000
-23.237448, 11.840071, 61.000000
-22.807125, 11.620810, 61.125000
-23.237448, 11.840071, 61.250000
-23.667771, 12.059332, 61.375000
-23.237448, 11.840071, 61.500000
-23.237448, 11.840071, 61.625000
-23.237448, 11.840071, 61.750000
-23.237448, 11.840071, 61.875000
-23.667771, 12.059332, 62.000000
-23.667771, 12.059332, 62.125000
-23.667771, 12.059332, 62.250000
-24.098094, 12.278592, 62.375000
-24.098094, 12.278592, 62.500000
-24.098094, 12.278592, 62.625000
-24.528417, 12.497853, 62.750000
-24.958740, 12.717113, 62.875000
-24.528417, 12.497853, 63.000000
-24.528417, 12.497853, 63.125000
-24.528417, 12.497853, 63.250000
-24.528417, 12.497853, 63.375000
-24.528417, 12.497853, 63.500000
-24.958740, 12.717113, 63.625000
-24.958740, 12.717113, 63.750000
-24.958740, 12.717113, 63.875000
-24.958740, 12.717113, 64.000000
-24.958740, 12.717113, 64.125000
-25.389063, 12.936374, 64.250000
-25.389063, 12.936374, 64.375000
-25.389063, 12.936374, 64.500000
-25.389063, 12.936374, 64.625000
-25.389063, 12.936374, 64.750000
-25.819386, 13.155634, 64.875000
-25.819386, 13.155634, 65.000000
-26.249709, 13.374895, 65.125000
-26.249709, 13.374895, 65.250000
-26.249709, 13.374895, 65.375000
-26.249709, 13.374895, 65.500000
-26.249709, 13.374895, 65.625000
-26.249709, 13.374895, 65.750000
-27.110356, 13.813416, 65.875000
-27.110356, 13.813416, 66.000000
-26.680033, 13.594156, 66.125000
-26.680033, 13.594156, 66.250000
-27.110356, 13.813416, 66.375000
-27.110356, 13.813416, 66.500000
-27.110356, 13.813416, 66.625000
-27.110356, 13.813416, 66.750000
-27.110356, 13.813416, 66.875000
-27.540679, 14.032677, 67.000000
-27.540679, 14.032677, 67.125000
-27.540679, 14.032677, 67.250000
-27.540679, 14.032677, 67.375000
-27.971002, 14.251937, 67.500000
-27.971002, 14.251937, 67.625000
-27.971002, 14.251937, 67.750000
-27.971002, 14.251937, 67.875000
-27.971002, 14.251937, 68.000000
-27.971002, 14.251937, 68.125000
-28.401325, 14.471198, 68.250000
-28.401325, 14.471198, 68.375000
-28.831648, 14.690458, 68.500000
-28.831648, 14.690458, 68.625000
-28.831648, 14.690458, 68.750000
-28.831648, 14.690458, 68.875000
-28.831648, 14.690458, 69.000000
-28.831648, 14.690458, 69.125000
-29.261971, 14.909719, 69.250000
-29.261971, 14.909719, 69.375000
-28.831648, 14.690458, 69.500000
-29.261971, 14.909719, 69.625000
-29.261971, 14.909719, 69.750000
-29.692294, 15.128980, 69.875000
-29.692294, 15.128980, 70.000000
-29.692294, 15.128980, 70.125000
-29.692294, 15.128980, 70.250000
-29.692294, 15.128980, 70.375000
-29.692294, 15.128980, 70.500000
-29.692294, 15.128980, 70.625000
-30.122617, 15.348240, 70.750000
-30.122617, 15.348240, 70.875000
-30.552941, 15.567501, 71.000000
-30.552941, 15.567501, 71.125000
-30.552941, 15.567501, 71.250000
-30.552941, 15.567501, 71.375000
-30.552941, 15.567501, 71.500000
-30.983264, 15.786761, 71.625000
-30.983264, 15.786761, 71.750000
-30.983264, 15.786761, 71.875000
-30.983264, 15.786761, 72.000000
-31.413587, 16.006022, 72.125000
-31.413587, 16.006022, 72.250000
-31.413587, 16.006022, 72.375000
-31.843910, 16.225282, 72.500000
-31.413587, 16.006022, 72.625000
-31.843910, 16.225282, 72.750000
-31.843910, 16.225282, 72.875000
-31.843910, 16.225282, 73.000000
-31.843910, 16.225282, 73.125000
-31.843910, 16.225282, 73.250000
-31.843910, 16.225282, 73.375000
-32.274233, 16.444543, 73.500000
-32.274233, 16.444543, 73.625000
-32.704556, 16.663804, 73.750000
-32.704556, 16.663804, 73.875000
-32.704556, 16.663804, 74.000000
-32.704556, 16.663804, 74.125000
-32.704556, 16.663804, 74.250000
-32.704556, 16.663804, 74.375000
-33.134879, 16.883064, 74.500000
-33.134879, 16.883064, 74.625000
-33.565202, 17.102325, 74.750000
-33.565202, 17.102325, 74.875000
-33.565202, 17.102325, 75.000000
-33.565202, 17.102325, 75.125000
-33.565202, 17.102325, 75.250000
-33.565202, 17.102325, 75.375000
-33.995525, 17.321585, 75.500000
-33.995525, 17.321585, 75.625000
-33.995525, 17.321585, 75.750000
-33.995525, 17.321585, 75.875000
-33.995525, 17.321585, 76.000000
-34.425849, 17.540846, 76.125000
-34.425849, 17.540846, 76.250000
-34.425849, 17.540846, 76.375000
-34.856172, 17.760107, 76.500000
-34.856172, 17.760107, 76.625000
-34.856172, 17.760107, 76.750000
-34.856172, 17.760107, 76.875000
-35.286495, 17.979367, 77.000000
-35.286495, 17.979367, 77.125000
-35.286495, 17.979367, 77.250000
-35.286495, 17.979367, 77.375000
-35.286495, 17.979367, 77.500000
-35.716818, 18.198628, 77.625000
-35.716818, 18.198628, 77.750000
-35.716818, 18.198628, 77.875000
-35.716818, 18.198628, 78.000000
-35.716818, 18.198628, 78.125000
-36.147141, 18.417888, 78.250000
-36.147141, 18.417888, 78.375000
-35.716818, 18.198628, 78.500000
-36.577464, 18.637149, 78.625000
-36.577464, 18.637149, 78.750000
-36.147141, 18.417888, 78.875000
-36.147141, 18.417888, 79.000000
-36.577464, 18.637149, 79.125000
-36.577464, 18.637149, 79.250000
-36.577464, 18.637149, 79.375000
-37.007787, 18.856409, 79.500000
-36.577464, 18.637149, 79.625000
-36.577464, 18.637149, 79.750000
-37.007787, 18.856409, 79.875000
-37.438110, 19.075670, 80.000000
-37.438110, 19.075670, 80.125000
-37.438110, 19.075670, 80.250000
-37.438110, 19.075670, 80.375000
-37.438110, 19.075670, 80.500000
-37.868433, 19.294931, 80.625000
-38.298756, 19.514191, 80.750000
-37.868433, 19.294931, 80.875000
-38.298756, 19.514191, 81.000000
-37.868433, 19.294931, 81.125000
-38.729080, 19.733452, 81.250000
-38.298756, 19.514191, 81.375000
-38.729080, 19.733452, 81.500000
-38.729080, 19.733452, 81.625000
-38.298756, 19.514191, 81.750000
-38.729080, 19.733452, 81.875000
-38.298756, 19.514191, 82.000000
-38.298756, 19.514191, 82.125000
-38.729080, 19.733452, 82.250000
-39.159403, 19.952712, 82.375000
-39.159403, 19.952712, 82.500000
-39.159403, 19.952712, 82.625000
-55.511681, 28.284614, 102.875000
-56.802650, 28.942396, 103.000000
-56.802650, 28.942396, 103.125000
-54.220711, 27.626832, 103.250000
-54.220711, 27.626832, 103.375000
-55.511681, 28.284614, 103.500000
-53.790388, 27.407572, 103.625000
-53.790388, 27.407572, 103.750000
-54.220711, 27.626832, 103.875000
-54.220711, 27.626832, 104.000000
-58.523942, 29.819438, 104.125000
-56.802650, 28.942396, 104.250000
-56.372327, 28.723135, 104.375000
-56.802650, 28.942396, 104.500000
58.994718, -27.760807, 0.000000
58.994718, -27.760807, 0.125000
58.994718, -27.760807, 0.250000
58.994718, -27.760807, 0.375000
58.557720, -27.555171, 0.500000
58.557720, -27.555171, 0.625000
58.557720, -27.555171, 0.750000
58.557720, -27.555171, 0.875000
58.557720, -27.555171, 1.000000
58.557720, -27.555171, 1.125000
58.994718, -27.760807, 1.250000
58.557720, -27.555171, 1.375000
58.557720, -27.555171, 1.500000
58.557720, -27.555171, 1.625000
58.120722, -27.349536, 1.750000
58.557720, -27.555171, 1.875000
58.120722, -27.349536, 2.000000
58.120722, -27.349536, 2.125000
58.120722, -27.349536, 2.250000
58.120722, -27.349536, 2.375000
58.120722, -27.349536, 2.500000
58.120722, -27.349536, 2.625000
57.683724, -27.143900, 2.750000
57.683724, -27.143900, 2.875000
58.120722, -27.349536, 3.000000
57.683724, -27.143900, 3.125000
57.246726, -26.938265, 3.250000
57.683724, -27.143900, 3.375000
57.683724, -27.143900, 3.500000
57.246726, -26.938265, 3.625000
57.246726, -26.938265, 3.750000
57.246726, -26.938265, 3.875000
57.683724, -27.143900, 4.000000
57.246726, -26.938265, 4.125000
57.246726, -26.938265, 4.250000
57.246726, -26.938265, 4.375000
57.246726, -26.938265, 4.500000
57.246726, -26.938265, 4.625000
57.246726, -26.938265, 4.750000
57.246726, -26.938265, 4.875000
56.809728, -26.732629, 5.000000
57.246726, -26.938265, 5.125000
57.246726, -26.938265, 5.250000
57.246726, -26.938265, 5.375000
57.246726, -26.938265, 5.500000
56.809728, -26.732629, 5.625000
56.809728, -26.732629, 5.750000
56.809728, -26.732629, 5.875000
56.809728, -26.732629, 6.000000
56.809728, -26.732629, 6.125000
56.809728, -26.732629, 6.250000
56.809728, -26.732629, 6.375000
56.809728, -26.732629, 6.500000
56.372730, -26.526993, 6.625000
56.372730, -26.526993, 6.750000
56.372730, -26.526993, 6.875000
56.372730, -26.526993, 7.000000
56.372730, -26.526993, 7.125000
56.372730, -26.526993, 7.250000
55.935732, -26.321358, 7.375000
56.372730, -26.526993, 7.500000
56.372730, -26.526993, 7.625000
56.372730, -26.526993, 7.750000
55.935732, -26.321358, 7.875000
55.935732, -26.321358, 8.000000
55.935732, -26.321358, 8.125000
55.935732, -26.321358, 8.250000
56.372730, -26.526993, 8.375000
55.935732, -26.321358, 8.500000
55.935732, -26.321358, 8.625000
55.935732, -26.321358, 8.750000
55.935732, -26.321358, 8.875000
55.935732, -26.321358, 9.000000
55.498734, -26.115722, 9.125000
55.935732, -26.321358, 9.250000
55.498734, -26.115722, 9.375000
55.498734, -26.115722, 9.500000
55.498734, -26.115722, 9.625000
55.498734, -26.115722, 9.750000
55.498734, -26.115722, 9.875000
55.498734, -26.115722, 10.000000
55.498734, -26.115722, 10.125000
55.498734, -26.115722, 10.250000
55.061737, -25.910086, 10.375000
55.498734, -26.115722, 10.500000
55.498734, -26.115722, 10.625000
55.061737, -25.910086, 10.750000
55.498734, -26.115722, 10.875000
55.498734, -26.115722, 11.000000
55.498734, -26.115722, 11.125000
55.498734, -26.115722, 11.250000
55.061737, -25.910086, 11.375000
55.498734, -26.115722, 11.500000
55.061737, -25.910086, 11.625000
55.061737, -25.910086, 11.750000
55.061737, -25.910086, 11.875000
55.061737, -25.910086, 12.000000
55.061737, -25.910086, 12.125000
55.061737, -25.910086, 12.250000
55.061737, -25.910086, 12.375000
55.061737, -25.910086, 12.500000
54.624739, -25.704451, 12.625000
54.624739, -25.704451, 12.750000
54.187741, -25.498815, 12.875000
54.624739, -25.704451, 13.000000
54.624739, -25.704451, 13.125000
54.624739, -25.704451, 13.250000
54.624739, -25.704451, 13.375000
54.187741, -25.498815, 13.500000
54.187741, -25.498815, 13.625000
54.187741, -25.498815, 13.750000
54.187741, -25.498815, 13.875000
54.187741, -25.498815, 14.000000
54.187741, -25.498815, 14.125000
54.187741, -25.498815, 14.250000
54.187741, -25.498815, 14.375000
54.187741, -25.498815, 14.500000
54.187741, -25.498815, 14.625000
54.187741, -25.498815, 14.750000
54.187741, -25.498815, 14.875000
54.187741, -25.498815, 15.000000
53.750743, -25.293180, 15.125000
53.750743, -25.293180, 15.250000
53.750743, -25.293180, 15.375000
53.750743, -25.293180, 15.500000
53.750743, -25.293180, 15.625000
53.750743, -25.293180, 15.750000
53.750743, -25.293180, 15.875000
53.313745, -25.087544, 16.000000
53.750743, -25.293180, 16.125000
53.750743, -25.293180, 16.250000
53.313745, -25.087544, 16.375000
52.876747, -24.881908, 16.500000
53.313745, -25.087544, 16.625000
53.313745, -25.087544, 16.750000
53.313745, -25.087544, 16.875000
53.313745, -25.087544, 17.000000
52.876747, -24.881908, 17.125000
52.439749, -24.676273, 17.250000
53.313745, -25.087544, 17.375000
52.876747, -24.881908, 17.500000
53.313745, -25.087544, 17.625000
52.876747, -24.881908, 17.750000
52.439749, -24.676273, 17.875000
52.876747, -24.881908, 18.000000
52.439749, -24.676273, 18.125000
52.439749, -24.676273, 18.375000
52.439749, -24.676273, 18.500000
52.439749, -24.676273, 18.625000
52.876747, -24.881908, 18.750000
52.876747, -24.881908, 18.875000
52.439749, -24.676273, 19.000000
52.439749, -24.676273, 19.125000
52.439749, -24.676273, 19.250000
52.002751, -24.470637, 19.375000
52.002751, -24.470637, 19.500000
52.002751, -24.470637, 19.625000
52.439749, -24.676273, 19.750000
52.002751, -24.470637, 19.875000
52.439749, -24.676273, 20.000000
52.439749, -24.676273, 20.125000
52.002751, -24.470637, 20.250000
52.002751, -24.470637, 20.375000
52.002751, -24.470637, 20.500000
52.002751, -24.470637, 20.625000
52.002751, -24.470637, 20.750000
52.002751, -24.470637, 20.875000
52.002751, -24.470637, 21.000000
52.002751, -24.470637, 21.125000
51.565753, -24.265002, 21.250000
51.565753, -24.265002, 21.375000
52.002751, -24.470637, 21.500000
52.002751, -24.470637, 21.625000
52.002751, -24.470637, 21.750000
51.565753, -24.265002, 21.875000
52.002751, -24.470637, 22.000000
51.565753, -24.265002, 22.125000
-11.361946, 5.346526, 43.625000
-11.798944, 5.552161, 43.750000
-11.798944, 5.552161, 43.875000
-11.798944, 5.552161, 44.000000
-11.798944, 5.552161, 44.125000
-11.798944, 5.552161, 44.250000
-12.235941, 5.757797, 44.375000
-12.235941, 5.757797, 44.500000
-12.235941, 5.757797, 44.625000
-11.798944, 5.552161, 44.750000
-12.235941, 5.757797, 44.875000
-12.235941, 5.757797, 45.000000
-12.235941, 5.757797, 45.125000
-12.672939, 5.963433, 45.250000
-12.672939, 5.963433, 45.375000
-12.672939, 5.963433, 45.500000
-12.672939, 5.963433, 45.625000
-12.672939, 5.963433, 45.750000
-12.672939, 5.963433, 45.875000
-13.109937, 6.169068, 46.000000
-13.546935, 6.374704, 46.125000
-13.109937, 6.169068, 46.250000
-13.109937, 6.169068, 46.375000
-13.546935, 6.374704, 46.500000
-13.546935, 6.374704, 46.625000
-13.546935, 6.374704, 46.750000
-13.546935, 6.374704, 46.875000
-13.546935, 6.374704, 47.000000
-13.983933, 6.580339, 47.125000
-13.983933, 6.580339, 47.250000
-13.983933, 6.580339, 47.375000
-13.983933, 6.580339, 47.500000
-13.983933, 6.580339, 47.625000
-13.983933, 6.580339, 47.750000
-14.420931, 6.785975, 47.875000
-14.420931, 6.785975, 48.000000
-14.420931, 6.785975, 48.125000
-14.420931, 6.785975, 48.250000
-14.857929, 6.991611, 48.375000
-14.857929, 6.991611, 48.500000
-14.857929, 6.991611, 48.625000
-14.857929, 6.991611, 48.750000
-14.857929, 6.991611, 48.875000
-14.857929, 6.991611, 49.000000
-15.294927, 7.197246, 49.125000
-15.294927, 7.197246, 49.250000
-15.294927, 7.197246, 49.375000
-15.294927, 7.197246, 49.500000
-15.294927, 7.197246, 49.625000
-15.294927, 7.197246, 49.750000
-15.731925, 7.402882, 49.875000
-16.168923, 7.608517, 50.000000
-15.731925, 7.402882, 50.125000
-15.731925, 7.402882, 50.250000
-15.731925, 7.402882, 50.375000
-15.731925, 7.402882, 50.500000
-16.168923, 7.608517, 50.625000
-16.168923, 7.608517, 50.750000
-16.168923, 7.608517, 50.875000
-16.168923, 7.608517, 51.000000
-16.605921, 7.814153, 51.125000
-16.605921, 7.814153, 51.250000
-16.605921, 7.814153, 51.375000
-17.042918, 8.019789, 51.500000
-16.605921, 7.814153, 51.625000
-16.605921, 7.814153, 51.750000
-16.605921, 7.814153, 51.875000
-17.042918, 8.019789, 52.000000
-17.042918, 8.019789, 52.125000
-17.042918, 8.019789, 52.250000
-17.042918, 8.019789, 52.375000
-17.479916, 8.225424, 52.500000
-17.479916, 8.225424, 52.625000
-17.479916, 8.225424, 52.750000
-17.479916, 8.225424, 52.875000
-17.479916, 8.225424, 53.000000
-17.479916, 8.225424, 53.125000
-17.916914, 8.431060, 53.250000
-17.916914, 8.431060, 53.375000
-17.916914, 8.431060, 53.500000
-17.916914, 8.431060, 53.625000
-18.353912, 8.636695, 53.750000
-18.353912, 8.636695, 53.875000
-18.790910, 8.842331, 54.000000
-18.790910, 8.842331, 54.125000
-18.353912, 8.636695, 54.250000
-18.353912, 8.636695, 54.375000
-18.790910, 8.842331, 54.500000
-18.790910, 8.842331, 54.625000
-18.790910, 8.842331, 54.750000
-18.790910, 8.842331, 54.875000
-18.790910, 8.842331, 55.000000
-19.227908, 9.047967, 55.125000
-19.227908, 9.047967, 55.250000
-19.227908, 9.047967, 55.375000
-19.664906, 9.253602, 55.500000
-19.664906, 9.253602, 55.625000
-19.664906, 9.253602, 55.750000
-19.664906, 9.253602, 55.875000
-19.664906, 9.253602, 56.000000
-19.664906, 9.253602, 56.125000
-20.101904, 9.459238, 56.250000
-20.101904, 9.459238, 56.375000
-20.101904, 9.459238, 56.500000
-20.101904, 9.459238, 56.625000
-20.538902, 9.664874, 56.750000
-20.975900, 9.870509, 56.875000
-20.538902, 9.664874, 57.000000
-20.538902, 9.664874, 57.125000
-20.538902, 9.664874, 57.250000
-20.975900, 9.870509, 57.375000
-20.975900, 9.870509, 57.500000
-20.975900, 9.870509, 57.625000
-21.412898, 10.076145, 57.750000
-20.975900, 9.870509, 57.875000
-21.412898, 10.076145, 58.000000
-21.412898, 10.076145, 58.125000
-21.412898, 10.076145, 58.250000
-21.849895, 10.281780, 58.375000
-21.849895, 10.281780, 58.500000
-21.849895, 10.281780, 58.625000
-21.849895, 10.281780, 58.750000
-22.286893, 10.487416, 58.875000
-22.286893, 10.487416, 59.000000
-22.286893, 10.487416, 59.125000
-22.286893, 10.487416, 59.250000
-22.286893, 10.487416, 59.375000
-22.723891, 10.693052, 59.500000
-22.723891, 10.693052, 59.625000
-22.723891, 10.693052, 59.750000
-22.723891, 10.693052, 59.875000
-23.160889, 10.898687, 60.000000
-23.160889, 10.898687, 60.125000
-23.597887, 11.104323, 60.250000
-23.160889, 10.898687, 60.375000
-23.160889, 10.898687, 60.500000
-23.597887, 11.104323, 60.625000
-24.034885, 11.309958, 60.750000
-23.597887, 11.104323, 60.875000
-23.597887, 11.104323, 61.000000
-23.597887, 11.104323, 61.125000
-24.034885, 11.309958, 61.250000
-24.034885, 11.309958, 61.375000
-24.034885, 11.309958, 61.500000
-24.034885, 11.309958, 61.625000
-24.034885, 11.309958, 61.750000
-24.471883, 11.515594, 61.875000
-24.471883, 11.515594, 62.000000
-24.471883, 11.515594, 62.125000
-24.908881, 11.721230, 62.250000
-24.908881, 11.721230, 62.375000
-24.908881, 11.721230, 62.500000
-24.908881, 11.721230, 62.625000
-24.908881, 11.721230, 62.750000
-24.908881, 11.721230, 62.875000
-24.908881, 11.721230, 63.000000
-25.345879, 11.926865, 63.125000
-25.345879, 11.926865, 63.250000
-25.345879, 11.926865, 63.375000
-25.345879, 11.926865, 63.500000
-25.782877, 12.132501, 63.625000
-25.782877, 12.132501, 63.750000
-25.782877, 12.132501, 63.875000
-25.782877, 12.132501, 64.000000
-26.219875, 12.338136, 64.125000
-26.219875, 12.338136, 64.250000
-26.219875, 12.338136, 64.375000
-26.656872, 12.543772, 64.500000
-26.656872, 12.543772, 64.625000
-26.656872, 12.543772, 64.750000
-26.656872, 12.543772, 64.875000
-26.656872, 12.543772, 65.000000
-27.093870, 12.749408, 65.125000
-27.093870, 12.749408, 65.250000
-27.093870, 12.749408, 65.375000
-27.530868, 12.955043, 65.500000
-27.530868, 12.955043, 65.625000
-27.530868, 12.955043, 65.750000
-27.530868, 12.955043, 65.875000
-27.967866, 13.160679, 66.000000
-27.967866, 13.160679, 66.125000
-27.967866, 13.160679, 66.250000
-27.967866, 13.160679, 66.375000
-27.967866, 13.160679, 66.500000
-27.967866, 13.160679, 66.625000
-28.404864, 13.366314, 66.750000
-28.404864, 13.366314, 66.875000
-28.404864, 13.366314, 67.000000
-28.404864, 13.366314, 67.125000
-28.404864, 13.366314, 67.250000
-28.404864, 13.366314, 67.375000
-28.841862, 13.571950, 67.500000
-28.841862, 13.571950, 67.625000
-29.278860, 13.777586, 67.750000
-28.841862, 13.571950, 67.875000
-28.841862, 13.571950, 68.000000
-29.278860, 13.777586, 68.125000
-29.278860, 13.777586, 68.250000
-29.278860, 13.777586, 68.375000
-29.278860, 13.777586, 68.500000
-29.715858, 13.983221, 68.625000
-29.715858, 13.983221, 68.750000
-29.715858, 13.983221, 68.875000
-30.152856, 14.188857, 69.000000
-29.715858, 13.983221, 69.125000
-30.152856, 14.188857, 69.250000
-30.152856, 14.188857, 69.375000
-30.152856, 14.188857, 69.500000
-30.152856, 14.188857, 69.625000
-30.589854, 14.394492, 69.750000
-30.589854, 14.394492, 69.875000
-30.589854, 14.394492, 70.000000
-30.589854, 14.394492, 70.125000
-31.026852, 14.600128, 70.250000
-31.026852, 14.600128, 70.375000
-31.026852, 14.600128, 70.500000
-31.026852, 14.600128, 70.625000
-31.026852, 14.600128, 70.750000
-31.463849, 14.805764, 70.875000
-31.463849, 14.805764, 71.000000
-31.463849, 14.805764, 71.125000
-31.900847, 15.011399, 71.250000
-31.463849, 14.805764, 71.375000
-31.900847, 15.011399, 71.500000
-31.900847, 15.011399, 71.625000
-31.900847, 15.011399, 71.750000
-31.900847, 15.011399, 71.875000
-32.337845, 15.217035, 72.000000
-32.337845, 15.217035, 72.125000
-32.337845, 15.217035, 72.250000
-32.337845, 15.217035, 72.375000
-32.337845, 15.217035, 72.500000
-32.774843, 15.422671, 72.625000
-32.774843, 15.422671, 72.750000
-32.774843, 15.422671, 72.875000
-32.774843, 15.422671, 73.000000
-33.211841, 15.628306, 73.125000
-33.648839, 15.833942, 73.250000
-33.648839, 15.833942, 73.375000
-33.648839, 15.833942, 73.500000
-33.648839, 15.833942, 73.625000
-33.648839, 15.833942, 73.750000
-33.648839, 15.833942, 73.875000
-33.648839, 15.833942, 74.000000
-34.085837, 16.039577, 74.125000
-34.085837, 16.039577, 74.250000
-34.085837, 16.039577, 74.375000
-34.085837, 16.039577, 74.500000
-34.085837, 16.039577, 74.625000
-34.085837, 16.039577, 74.750000
-34.522835, 16.245213, 74.875000
-34.522835, 16.245213, 75.000000
-34.959833, 16.450849, 75.125000
-34.959833, 16.450849, 75.250000
-34.959833, 16.450849, 75.375000
-34.959833, 16.450849, 75.500000
-34.959833, 16.450849, 75.625000
-35.396831, 16.656484, 75.750000
-35.396831, 16.656484, 75.875000
-35.396831, 16.656484, 76.000000
-35.396831, 16.656484, 76.125000
-35.396831, 16.656484, 76.250000
-35.833829, 16.862120, 76.375000
-35.833829, 16.862120, 76.500000
-35.833829, 16.862120, 76.625000
-36.270826, 17.067755, 76.750000
-36.270826, 17.067755, 76.875000
-36.270826, 17.067755, 77.000000
-36.270826, 17.067755, 77.125000
-36.270826, 17.067755, 77.250000
-36.270826, 17.067755, 77.375000
-36.707824, 17.273391, 77.500000
-36.707824, 17.273391, 77.625000
-36.707824, 17.273391, 77.750000
-37.144822, 17.479027, 77.875000
-37.144822, 17.479027, 78.000000
-37.144822, 17.479027, 78.125000
-37.144822, 17.479027, 78.250000
-37.144822, 17.479027, 78.375000
-37.144822, 17.479027, 78.500000
-37.581820, 17.684662, 78.625000
-37.581820, 17.684662, 78.750000
-37.581820, 17.684662, 78.875000
-37.581820, 17.684662, 79.000000
-38.018818, 17.890298, 79.125000
-38.018818, 17.890298, 79.250000
-38.018818, 17.890298, 79.375000
-38.018818, 17.890298, 79.500000
-38.018818, 17.890298, 79.625000
-38.018818, 17.890298, 79.750000
-38.455816, 18.095933, 79.875000
-38.455816, 18.095933, 80.000000
-38.892814, 18.301569, 80.125000
-38.892814, 18.301569, 80.250000
-38.892814, 18.301569, 80.375000
-38.892814, 18.301569, 80.500000
-38.892814, 18.301569, 80.625000
-38.892814, 18.301569, 80.750000
-39.329812, 18.507205, 80.875000
-39.766810, 18.712840, 81.000000
-39.329812, 18.507205, 81.125000
-39.766810, 18.712840, 81.250000
-39.766810, 18.712840, 81.375000
-39.766810, 18.712840, 81.500000
-39.766810, 18.712840, 81.625000
-39.766810, 18.712840, 81.750000
-39.766810, 18.712840, 81.875000
-39.766810, 18.712840, 82.000000
-40.203808, 18.918476, 82.125000
-40.203808, 18.918476, 82.250000
-40.203808, 18.918476, 82.375000
-40.203808, 18.918476, 82.500000
-40.203808, 18.918476, 82.625000
-41.077803, 19.329747, 82.750000
-57.683724, 27.143900, 102.875000
-57.683724, 27.143900, 103.000000
-57.683724, 27.143900, 103.125000
-55.498734, 26.115722, 103.250000
-55.061737, 25.910086, 103.375000
-55.935732, 26.321358, 103.500000
-54.624739, 25.704451, 103.625000
-55.061737, 25.910086, 103.750000
-55.061737, 25.910086, 103.875000
-55.061737, 25.910086, 104.000000
-59.431716, 27.966443, 104.125000
-57.683724, 27.143900, 104.250000
-57.246726, 26.938265, 104.375000
-57.683724, 27.143900, 104.500000
-62.927699, 29.611527, 105.250000
59.837595, -25.894040, 0.000000
59.837595, -25.894040, 0.125000
59.837595, -25.894040, 0.250000
59.837595, -25.894040, 0.375000
59.394354, -25.702232, 0.500000
59.394354, -25.702232, 0.625000
59.394354, -25.702232, 0.750000
59.394354, -25.702232, 0.875000
59.394354, -25.702232, 1.000000
59.394354, -25.702232, 1.125000
59.394354, -25.702232, 1.250000
59.394354, -25.702232, 1.375000
59.394354, -25.702232, 1.500000
59.394354, -25.702232, 1.625000
59.394354, -25.702232, 1.750000
59.394354, -25.702232, 1.875000
58.951113, -25.510424, 2.000000
58.951113, -25.510424, 2.125000
58.951113, -25.510424, 2.250000
58.951113, -25.510424, 2.375000
58.951113, -25.510424, 2.500000
58.951113, -25.510424, 2.625000
58.507871, -25.318617, 2.750000
58.507871, -25.318617, 2.875000
58.507871, -25.318617, 3.000000
58.951113, -25.510424, 3.125000
58.507871, -25.318617, 3.250000
58.507871, -25.318617, 3.375000
58.064630, -25.126809, 3.500000
58.064630, -25.126809, 3.625000
58.064630, -25.126809, 3.750000
58.064630, -25.126809, 3.875000
58.507871, -25.318617, 4.000000
58.064630, -25.126809, 4.125000
58.064630, -25.126809, 4.250000
58.064630, -25.126809, 4.375000
58.064630, -25.126809, 4.500000
58.064630, -25.126809, 4.625000
58.507871, -25.318617, 4.750000
58.507871, -25.318617, 4.875000
58.064630, -25.126809, 5.000000
58.064630, -25.126809, 5.125000
58.064630, -25.126809, 5.250000
58.064630, -25.126809, 5.375000
57.621388, -24.935001, 5.500000
57.621388, -24.935001, 5.625000
57.621388, -24.935001, 5.750000
57.621388, -24.935001, 5.875000
57.621388, -24.935001, 6.000000
57.621388, -24.935001, 6.125000
57.621388, -24.935001, 6.250000
57.621388, -24.935001, 6.375000
57.621388, -24.935001, 6.500000
57.621388, -24.935001, 6.625000
57.178147, -24.743194, 6.750000
57.178147, -24.743194, 6.875000
57.178147, -24.743194, 7.000000
57.178147, -24.743194, 7.125000
57.178147, -24.743194, 7.250000
56.734905, -24.551386, 7.375000
57.178147, -24.743194, 7.500000
57.178147, -24.743194, 7.625000
57.178147, -24.743194, 7.750000
56.734905, -24.551386, 7.875000
56.734905, -24.551386, 8.000000
56.734905, -24.551386, 8.125000
56.734905, -24.551386, 8.250000
57.178147, -24.743194, 8.375000
57.178147, -24.743194, 8.500000
56.734905, -24.551386, 8.625000
56.734905, -24.551386, 8.750000
56.734905, -24.551386, 8.875000
56.734905, -24.551386, 9.000000
56.734905, -24.551386, 9.125000
56.291664, -24.359578, 9.250000
56.291664, -24.359578, 9.375000
56.291664, -24.359578, 9.500000
56.291664, -24.359578, 9.625000
56.291664, -24.359578, 9.750000
56.291664, -24.359578, 9.875000
56.291664, -24.359578, 10.000000
56.291664, -24.359578, 10.125000
56.291664, -24.359578, 10.250000
56.291664, -24.359578, 10.375000
56.291664, -24.359578, 10.500000
55.848422, -24.167770, 10.625000
56.291664, -24.359578, 10.750000
56.291664, -24.359578, 10.875000
56.291664, -24.359578, 11.000000
56.291664, -24.359578, 11.125000
56.291664, -24.359578, 11.250000
56.291664, -24.359578, 11.375000
56.291664, -24.359578, 11.500000
55.848422, -24.167770, 11.625000
55.848422, -24.167770, 11.750000
55.848422, -24.167770, 11.875000
56.291664, -24.359578, 12.000000
55.848422, -24.167770, 12.125000
55.848422, -24.167770, 12.250000
55.848422, -24.167770, 12.375000
55.848422, -24.167770, 12.500000
55.405181, -23.975963, 12.625000
55.405181, -23.975963, 12.750000
55.405181, -23.975963, 12.875000
54.961939, -23.784155, 13.000000
55.405181, -23.975963, 13.125000
55.405181, -23.975963, 13.250000
