-3.806227, 6.435978, 46.875000
-3.806227, 6.435978, 47.000000
-3.883905, 6.567325, 47.125000
-3.883905, 6.567325, 47.250000
-3.883905, 6.567325, 47.375000
-3.961583, 6.698671, 47.500000
-4.039261, 6.830018, 47.625000
-3.961583, 6.698671, 47.750000
-4.039261, 6.830018, 47.875000
-4.039261, 6.830018, 48.000000
-4.039261, 6.830018, 48.125000
-4.116939, 6.961364, 48.250000
-4.116939, 6.961364, 48.375000
-4.116939, 6.961364, 48.500000
-4.194618, 7.092711, 48.625000
-4.272296, 7.224057, 48.750000
-4.272296, 7.224057, 48.875000
-4.272296, 7.224057, 49.000000
-4.349974, 7.355404, 49.125000
-4.349974, 7.355404, 49.250000
-4.349974, 7.355404, 49.375000
-4.427652, 7.486750, 49.500000
-4.427652, 7.486750, 49.625000
-4.427652, 7.486750, 49.750000
-4.505330, 7.618097, 49.875000
-4.505330, 7.618097, 50.000000
-4.505330, 7.618097, 50.125000
-4.583008, 7.749443, 50.250000
-4.583008, 7.749443, 50.375000
-4.660686, 7.880790, 50.500000
-4.660686, 7.880790, 50.625000
-4.660686, 7.880790, 50.750000
-4.738364, 8.012136, 50.875000
-4.738364, 8.012136, 51.000000
-4.816042, 8.143483, 51.125000
-4.816042, 8.143483, 51.250000
-4.816042, 8.143483, 51.375000
-4.893720, 8.274829, 51.500000
-4.893720, 8.274829, 51.625000
-4.971399, 8.406176, 51.750000
-4.971399, 8.406176, 51.875000
-4.971399, 8.406176, 52.000000
-5.049077, 8.537522, 52.125000
-5.126755, 8.668869, 52.250000
-5.049077, 8.537522, 52.375000
-5.204433, 8.800215, 52.500000
-5.126755, 8.668869, 52.625000
-5.204433, 8.800215, 52.750000
-5.204433, 8.800215, 52.875000
-5.204433, 8.800215, 53.000000
-5.282111, 8.931562, 53.125000
-5.359789, 9.062908, 53.250000
-5.282111, 8.931562, 53.375000
-5.359789, 9.062908, 53.500000
-5.359789, 9.062908, 53.625000
-5.359789, 9.062908, 53.750000
-5.515145, 9.325601, 53.875000
-5.437467, 9.194255, 54.000000
-5.515145, 9.325601, 54.125000
-5.515145, 9.325601, 54.250000
-5.515145, 9.325601, 54.375000
-5.592823, 9.456948, 54.500000
-5.592823, 9.456948, 54.625000
-5.670502, 9.588294, 54.750000
-5.670502, 9.588294, 54.875000
-5.670502, 9.588294, 55.000000
-5.748180, 9.719641, 55.125000
-5.748180, 9.719641, 55.250000
-5.825858, 9.850987, 55.375000
-5.825858, 9.850987, 55.500000
-5.825858, 9.850987, 55.625000
-5.903536, 9.982334, 55.750000
-5.903536, 9.982334, 55.875000
-5.981214, 10.113680, 56.000000
-5.981214, 10.113680, 56.125000
-5.981214, 10.113680, 56.250000
-6.058892, 10.245027, 56.375000
-6.058892, 10.245027, 56.500000
-6.058892, 10.245027, 56.625000
-6.136570, 10.376373, 56.750000
-6.136570, 10.376373, 56.875000
-6.136570, 10.376373, 57.000000
-6.214248, 10.507720, 57.125000
-6.214248, 10.507720, 57.250000
-6.291926, 10.639066, 57.375000
-6.291926, 10.639066, 57.500000
-6.369604, 10.770413, 57.625000
-6.369604, 10.770413, 57.750000
-6.447283, 10.901759, 57.875000
-6.447283, 10.901759, 58.000000
-6.447283, 10.901759, 58.125000
-6.602639, 11.164452, 58.250000
-6.524961, 11.033106, 58.375000
-6.602639, 11.164452, 58.500000
-6.602639, 11.164452, 58.625000
-6.602639, 11.164452, 58.750000
-6.680317, 11.295799, 58.875000
-6.757995, 11.427145, 59.000000
-6.757995, 11.427145, 59.125000
-6.757995, 11.427145, 59.250000
-6.757995, 11.427145, 59.375000
-6.835673, 11.558492, 59.500000
-6.913351, 11.689838, 59.625000
-6.913351, 11.689838, 59.750000
-6.913351, 11.689838, 59.875000
-6.913351, 11.689838, 60.000000
-6.991029, 11.821185, 60.125000
-6.991029, 11.821185, 60.250000
-7.068707, 11.952531, 60.375000
-7.068707, 11.952531, 60.500000
-7.068707, 11.952531, 60.625000
-7.224064, 12.215224, 60.750000
-7.146385, 12.083878, 60.875000
-7.224064, 12.215224, 61.000000
-7.224064, 12.215224, 61.125000
-7.224064, 12.215224, 61.250000
-7.224064, 12.215224, 61.375000
-7.301742, 12.346571, 61.500000
-7.301742, 12.346571, 61.625000
-7.379420, 12.477917, 61.750000
-7.379420, 12.477917, 61.875000
-7.379420, 12.477917, 62.000000
-7.457098, 12.609264, 62.125000
-7.457098, 12.609264, 62.250000
-7.534776, 12.740610, 62.375000
-7.534776, 12.740610, 62.500000
-7.534776, 12.740610, 62.625000
-7.612454, 12.871957, 62.750000
-7.612454, 12.871957, 62.875000
-7.690132, 13.003303, 63.000000
-7.690132, 13.003303, 63.125000
-7.690132, 13.003303, 63.250000
-7.767810, 13.134650, 63.375000
-7.767810, 13.134650, 63.500000
-7.767810, 13.134650, 63.625000
-7.845488, 13.265996, 63.750000
-7.845488, 13.265996, 63.875000
-7.923167, 13.397343, 64.000000
-7.923167, 13.397343, 64.125000
-8.000845, 13.528689, 64.250000
-8.000845, 13.528689, 64.375000
-8.000845, 13.528689, 64.500000
-8.078523, 13.660036, 64.625000
-8.078523, 13.660036, 64.750000
-8.156201, 13.791382, 64.875000
-8.156201, 13.791382, 65.000000
-8.156201, 13.791382, 65.125000
-8.233879, 13.922729, 65.250000
-8.233879, 13.922729, 65.375000
-8.233879, 13.922729, 65.500000
-8.311557, 14.054075, 65.625000
-8.311557, 14.054075, 65.750000
-8.311557, 14.054075, 65.875000
-8.389235, 14.185422, 66.000000
-8.389235, 14.185422, 66.125000
-8.466913, 14.316768, 66.250000
-8.466913, 14.316768, 66.375000
-8.544591, 14.448115, 66.500000
-8.544591, 14.448115, 66.625000
-8.544591, 14.448115, 66.750000
-8.622269, 14.579461, 66.875000
-8.622269, 14.579461, 67.000000
-8.622269, 14.579461, 67.125000
-8.699948, 14.710808, 67.250000
-8.699948, 14.710808, 67.375000
-8.777626, 14.842154, 67.500000
-8.777626, 14.842154, 67.625000
-8.855304, 14.973501, 67.750000
-8.855304, 14.973501, 67.875000
-8.855304, 14.973501, 68.000000
-8.932982, 15.104847, 68.125000
-8.932982, 15.104847, 68.250000
-9.010660, 15.236194, 68.375000
-9.010660, 15.236194, 68.500000
-9.010660, 15.236194, 68.625000
-9.088338, 15.367540, 68.750000
-9.088338, 15.367540, 68.875000
-9.166016, 15.498887, 69.000000
-9.166016, 15.498887, 69.125000
-9.243694, 15.630233, 69.250000
-9.243694, 15.630233, 69.375000
-9.243694, 15.630233, 69.500000
-9.321372, 15.761580, 69.625000
-9.321372, 15.761580, 69.750000
-9.399050, 15.892926, 69.875000
-9.399050, 15.892926, 70.000000
-9.399050, 15.892926, 70.125000
-9.476729, 16.024273, 70.250000
-9.476729, 16.024273, 70.375000
-9.554407, 16.155619, 70.500000
-9.554407, 16.155619, 70.625000
-9.554407, 16.155619, 70.750000
-9.632085, 16.286966, 70.875000
-9.632085, 16.286966, 71.000000
-9.709763, 16.418312, 71.125000
-9.709763, 16.418312, 71.250000
-9.709763, 16.418312, 71.375000
-9.787441, 16.549659, 71.500000
-9.787441, 16.549659, 71.625000
-9.865119, 16.681005, 71.750000
-9.865119, 16.681005, 71.875000
-9.865119, 16.681005, 72.000000
-9.942797, 16.812352, 72.125000
-9.942797, 16.812352, 72.250000
-10.020475, 16.943698, 72.375000
-10.020475, 16.943698, 72.500000
-10.020475, 16.943698, 72.625000
-10.098153, 17.075045, 72.750000
-10.098153, 17.075045, 72.875000
-10.175832, 17.206391, 73.000000
-10.175832, 17.206391, 73.125000
-10.253510, 17.337738, 73.250000
-10.253510, 17.337738, 73.375000
-10.331188, 17.469084, 73.500000
-10.331188, 17.469084, 73.625000
-10.331188, 17.469084, 73.750000
-10.408866, 17.600431, 73.875000
-10.408866, 17.600431, 74.000000
-10.486544, 17.731777, 74.125000
-10.486544, 17.731777, 74.250000
-10.564222, 17.863124, 74.375000
-10.564222, 17.863124, 74.500000
-10.564222, 17.863124, 74.625000
-10.641900, 17.994470, 74.750000
-10.641900, 17.994470, 74.875000
-10.719578, 18.125817, 75.000000
-10.719578, 18.125817, 75.125000
-10.719578, 18.125817, 75.250000
-10.797256, 18.257163, 75.375000
-10.797256, 18.257163, 75.500000
-10.874934, 18.388510, 75.625000
-10.874934, 18.388510, 75.750000
-10.874934, 18.388510, 75.875000
-10.952613, 18.519856, 76.000000
-10.952613, 18.519856, 76.125000
-11.030291, 18.651203, 76.250000
-11.030291, 18.651203, 76.375000
-11.030291, 18.651203, 76.500000
-11.107969, 18.782549, 76.625000
-11.107969, 18.782549, 76.750000
-11.185647, 18.913896, 76.875000
-11.185647, 18.913896, 77.000000
-11.185647, 18.913896, 77.125000
-11.263325, 19.045242, 77.250000
-11.263325, 19.045242, 77.375000
-11.263325, 19.045242, 77.500000
-11.341003, 19.176589, 77.625000
-11.418681, 19.307935, 77.750000
-11.418681, 19.307935, 77.875000
-11.418681, 19.307935, 78.000000
-11.496359, 19.439282, 78.125000
-11.496359, 19.439282, 78.250000
-11.496359, 19.439282, 78.375000
-11.574037, 19.570628, 78.500000
-11.574037, 19.570628, 78.625000
-11.574037, 19.570628, 78.750000
-11.574037, 19.570628, 78.875000
-11.574037, 19.570628, 79.000000
-11.574037, 19.570628, 79.125000
-11.651715, 19.701975, 79.250000
-11.574037, 19.570628, 79.375000
-11.651715, 19.701975, 79.500000
-3.270619, 5.153670, 43.875000
-3.270619, 5.153670, 44.000000
-3.352384, 5.282512, 44.125000
-3.270619, 5.153670, 44.250000
-3.352384, 5.282512, 44.375000
-3.270619, 5.153670, 44.500000
-3.352384, 5.282512, 44.625000
-3.434150, 5.411354, 44.750000
-3.434150, 5.411354, 44.875000
-3.434150, 5.411354, 45.000000
-3.515915, 5.540196, 45.125000
-3.515915, 5.540196, 45.250000
-3.515915, 5.540196, 45.375000
-3.515915, 5.540196, 45.500000
-3.597681, 5.669037, 45.625000
-3.597681, 5.669037, 45.750000
-3.679446, 5.797879, 45.875000
-3.761211, 5.926721, 46.000000
-3.761211, 5.926721, 46.125000
-3.761211, 5.926721, 46.250000
-3.842977, 6.055563, 46.375000
-3.842977, 6.055563, 46.500000
-3.842977, 6.055563, 46.625000
-3.924742, 6.184404, 46.750000
-3.924742, 6.184404, 46.875000
-4.006508, 6.313246, 47.000000
-4.006508, 6.313246, 47.125000
-4.006508, 6.313246, 47.250000
-4.006508, 6.313246, 47.375000
-4.088273, 6.442088, 47.500000
-4.088273, 6.442088, 47.625000
-4.170039, 6.570930, 47.750000
-4.170039, 6.570930, 47.875000
-4.170039, 6.570930, 48.000000
-4.251804, 6.699771, 48.125000
-4.251804, 6.699771, 48.250000
-4.333570, 6.828613, 48.375000
-4.333570, 6.828613, 48.500000
-4.333570, 6.828613, 48.625000
-4.415335, 6.957455, 48.750000
-4.415335, 6.957455, 48.875000
-4.415335, 6.957455, 49.000000
-4.497101, 7.086297, 49.125000
-4.578866, 7.215139, 49.250000
-4.578866, 7.215139, 49.375000
-4.578866, 7.215139, 49.500000
-4.660632, 7.343980, 49.625000
-4.660632, 7.343980, 49.750000
-4.660632, 7.343980, 49.875000
-4.742397, 7.472822, 50.000000
-4.742397, 7.472822, 50.125000
-4.742397, 7.472822, 50.250000
-4.824163, 7.601664, 50.375000
-4.824163, 7.601664, 50.500000
-4.905928, 7.730506, 50.625000
-4.905928, 7.730506, 50.750000
-4.905928, 7.730506, 50.875000
-4.987693, 7.859347, 51.000000
-4.987693, 7.859347, 51.125000
-4.987693, 7.859347, 51.250000
-5.069459, 7.988189, 51.375000
-5.069459, 7.988189, 51.500000
-5.151224, 8.117031, 51.625000
-5.151224, 8.117031, 51.750000
-5.151224, 8.117031, 51.875000
-5.151224, 8.117031, 52.000000
-5.232990, 8.245873, 52.125000
-5.232990, 8.245873, 52.250000
-5.314755, 8.374714, 52.375000
-5.314755, 8.374714, 52.500000
-5.314755, 8.374714, 52.625000
-5.396521, 8.503556, 52.750000
-5.396521, 8.503556, 52.875000
-5.478286, 8.632398, 53.000000
-5.478286, 8.632398, 53.125000
-5.478286, 8.632398, 53.250000
-5.641817, 8.890081, 53.375000
-5.560052, 8.761240, 53.500000
-5.641817, 8.890081, 53.625000
-5.641817, 8.890081, 53.750000
-5.641817, 8.890081, 53.875000
-5.723583, 9.018923, 54.000000
-5.723583, 9.018923, 54.125000
-5.723583, 9.018923, 54.250000
-5.805348, 9.147765, 54.375000
-5.805348, 9.147765, 54.500000
-5.887114, 9.276607, 54.625000
-5.887114, 9.276607, 54.750000
-5.968879, 9.405448, 54.875000
-5.968879, 9.405448, 55.000000
-5.968879, 9.405448, 55.125000
-6.050645, 9.534290, 55.250000
-6.050645, 9.534290, 55.375000
-6.132410, 9.663132, 55.500000
-6.132410, 9.663132, 55.625000
-6.214175, 9.791974, 55.750000
-6.214175, 9.791974, 55.875000
-6.214175, 9.791974, 56.000000
-6.295941, 9.920815, 56.125000
-6.295941, 9.920815, 56.250000
-6.377706, 10.049657, 56.375000
-6.377706, 10.049657, 56.500000
-6.377706, 10.049657, 56.625000
-6.459472, 10.178499, 56.750000
-6.459472, 10.178499, 56.875000
-6.459472, 10.178499, 57.000000
-6.459472, 10.178499, 57.125000
-6.541237, 10.307341, 57.250000
-6.541237, 10.307341, 57.375000
-6.704768, 10.565024, 57.500000
-6.623003, 10.436183, 57.625000
-6.704768, 10.565024, 57.750000
-6.704768, 10.565024, 57.875000
-6.704768, 10.565024, 58.000000
-6.786534, 10.693866, 58.125000
-6.786534, 10.693866, 58.250000
-6.950065, 10.951550, 58.375000
-6.868299, 10.822708, 58.500000
-6.950065, 10.951550, 58.625000
-6.950065, 10.951550, 58.750000
-6.950065, 10.951550, 58.875000
-7.031830, 11.080391, 59.000000
-7.113596, 11.209233, 59.125000
-7.113596, 11.209233, 59.250000
-7.113596, 11.209233, 59.375000
-7.113596, 11.209233, 59.500000
-7.195361, 11.338075, 59.625000
-7.195361, 11.338075, 59.750000
-7.277127, 11.466917, 59.875000
-7.277127, 11.466917, 60.000000
-7.277127, 11.466917, 60.125000
-7.440657, 11.724600, 60.250000
-7.358892, 11.595758, 60.375000
-7.358892, 11.595758, 60.500000
-7.440657, 11.724600, 60.625000
-7.440657, 11.724600, 60.750000
-7.522423, 11.853442, 60.875000
-7.522423, 11.853442, 61.000000
-7.522423, 11.853442, 61.125000
-7.604188, 11.982284, 61.250000
-7.604188, 11.982284, 61.375000
-7.685954, 12.111125, 61.500000
-7.685954, 12.111125, 61.625000
-7.685954, 12.111125, 61.750000
-7.767719, 12.239967, 61.875000
-7.767719, 12.239967, 62.000000
-7.767719, 12.239967, 62.125000
-7.849485, 12.368809, 62.250000
-7.849485, 12.368809, 62.375000
-7.931250, 12.497651, 62.500000
-7.931250, 12.497651, 62.625000
-8.013016, 12.626492, 62.750000
-8.013016, 12.626492, 62.875000
-8.013016, 12.626492, 63.000000
-8.094781, 12.755334, 63.125000
-8.094781, 12.755334, 63.250000
-8.176547, 12.884176, 63.375000
-8.176547, 12.884176, 63.500000
-8.176547, 12.884176, 63.625000
-8.258312, 13.013018, 63.750000
-8.258312, 13.013018, 63.875000
-8.340078, 13.141859, 64.000000
-8.340078, 13.141859, 64.125000
-8.340078, 13.141859, 64.250000
-8.340078, 13.141859, 64.375000
-8.421843, 13.270701, 64.500000
-8.421843, 13.270701, 64.625000
-8.503609, 13.399543, 64.750000
-8.503609, 13.399543, 64.875000
-8.585374, 13.528385, 65.000000
-8.585374, 13.528385, 65.125000
-8.585374, 13.528385, 65.250000
-8.667139, 13.657227, 65.375000
-8.748905, 13.786068, 65.500000
-8.748905, 13.786068, 65.625000
-8.748905, 13.786068, 65.750000
-8.748905, 13.786068, 65.875000
-8.830670, 13.914910, 66.000000
-8.830670, 13.914910, 66.125000
-8.830670, 13.914910, 66.250000
-8.912436, 14.043752, 66.375000
-8.912436, 14.043752, 66.500000
-8.994201, 14.172594, 66.625000
-8.994201, 14.172594, 66.750000
-9.075967, 14.301435, 66.875000
-9.075967, 14.301435, 67.000000
-9.157732, 14.430277, 67.125000
-9.157732, 14.430277, 67.250000
-9.157732, 14.430277, 67.375000
-9.239498, 14.559119, 67.500000
-9.239498, 14.559119, 67.625000
-9.321263, 14.687961, 67.750000
-9.321263, 14.687961, 67.875000
-9.321263, 14.687961, 68.000000
-9.403029, 14.816802, 68.125000
-9.403029, 14.816802, 68.250000
-9.484794, 14.945644, 68.375000
-9.484794, 14.945644, 68.500000
-9.484794, 14.945644, 68.625000
-9.566560, 15.074486, 68.750000
-9.566560, 15.074486, 68.875000
-9.648325, 15.203328, 69.000000
-9.648325, 15.203328, 69.125000
-9.730091, 15.332169, 69.250000
-9.730091, 15.332169, 69.375000
-9.730091, 15.332169, 69.500000
-9.811856, 15.461011, 69.625000
-9.811856, 15.461011, 69.750000
-9.893621, 15.589853, 69.875000
-9.893621, 15.589853, 70.000000
-9.975387, 15.718695, 70.125000
-9.975387, 15.718695, 70.250000
-9.975387, 15.718695, 70.375000
-9.975387, 15.718695, 70.500000
-10.057152, 15.847536, 70.625000
-10.138918, 15.976378, 70.750000
-10.138918, 15.976378, 70.875000
-10.138918, 15.976378, 71.000000
-10.220683, 16.105220, 71.125000
-10.220683, 16.105220, 71.250000
-10.220683, 16.105220, 71.375000
-10.302449, 16.234062, 71.500000
-10.302449, 16.234062, 71.625000
-10.302449, 16.234062, 71.750000
-10.384214, 16.362903, 71.875000
-10.384214, 16.362903, 72.000000
-10.465980, 16.491745, 72.125000
-10.465980, 16.491745, 72.250000
-10.547745, 16.620587, 72.375000
-10.547745, 16.620587, 72.500000
-10.547745, 16.620587, 72.625000
-10.629511, 16.749429, 72.750000
-10.629511, 16.749429, 72.875000
-10.711276, 16.878270, 73.000000
-10.711276, 16.878270, 73.125000
-10.711276, 16.878270, 73.250000
-10.793042, 17.007112, 73.375000
-10.793042, 17.007112, 73.500000
-10.874807, 17.135954, 73.625000
-10.874807, 17.135954, 73.750000
-10.874807, 17.135954, 73.875000
-10.956573, 17.264796, 74.000000
-11.038338, 17.393638, 74.125000
-11.038338, 17.393638, 74.250000
-11.120103, 17.522479, 74.375000
-11.120103, 17.522479, 74.500000
-11.120103, 17.522479, 74.625000
-11.120103, 17.522479, 74.750000
-11.201869, 17.651321, 74.875000
-11.283634, 17.780163, 75.000000
-11.283634, 17.780163, 75.125000
-11.365400, 17.909005, 75.250000
-11.365400, 17.909005, 75.375000
-11.365400, 17.909005, 75.500000
-11.365400, 17.909005, 75.625000
-11.447165, 18.037846, 75.750000
-11.447165, 18.037846, 75.875000
-11.528931, 18.166688, 76.000000
-11.528931, 18.166688, 76.125000
-11.610696, 18.295530, 76.250000
-11.610696, 18.295530, 76.375000
-11.610696, 18.295530, 76.500000
-11.692462, 18.424372, 76.625000
-11.692462, 18.424372, 76.750000
-11.774227, 18.553213, 76.875000
-11.774227, 18.553213, 77.000000
-11.774227, 18.553213, 77.125000
-11.855993, 18.682055, 77.250000
-11.855993, 18.682055, 77.375000
-11.855993, 18.682055, 77.500000
-11.937758, 18.810897, 77.625000
-11.937758, 18.810897, 77.750000
-12.019524, 18.939739, 77.875000
-12.019524, 18.939739, 78.000000
-12.101289, 19.068580, 78.125000
-12.101289, 19.068580, 78.250000
-12.101289, 19.068580, 78.375000
-12.183055, 19.197422, 78.500000
-12.101289, 19.068580, 78.625000
-12.101289, 19.068580, 78.750000
-12.183055, 19.197422, 78.875000
-12.183055, 19.197422, 79.000000
-12.183055, 19.197422, 79.125000
-12.264820, 19.326264, 79.250000
-12.264820, 19.326264, 79.375000
-12.264820, 19.326264, 79.500000
-3.259341, 4.795975, 43.750000
-3.259341, 4.795975, 43.875000
-3.259341, 4.795975, 44.000000
-3.345113, 4.922185, 44.125000
-3.345113, 4.922185, 44.250000
-3.430886, 5.048395, 44.375000
-3.430886, 5.048395, 44.500000
-3.430886, 5.048395, 44.625000
-3.516658, 5.174605, 44.750000
-3.516658, 5.174605, 44.875000
-3.516658, 5.174605, 45.000000
-3.516658, 5.174605, 45.125000
-3.602430, 5.300814, 45.250000
-3.602430, 5.300814, 45.375000
-3.688202, 5.427024, 45.500000
-3.688202, 5.427024, 45.625000
-3.688202, 5.427024, 45.750000
-3.773974, 5.553234, 45.875000
-3.859746, 5.679444, 46.000000
-3.859746, 5.679444, 46.125000
-3.859746, 5.679444, 46.250000
-3.859746, 5.679444, 46.375000
-3.945518, 5.805654, 46.500000
-3.945518, 5.805654, 46.625000
-4.031290, 5.931864, 46.750000
-4.031290, 5.931864, 46.875000
-4.031290, 5.931864, 47.000000
-4.117063, 6.058074, 47.125000
-4.117063, 6.058074, 47.250000
-4.202835, 6.184284, 47.375000
-4.202835, 6.184284, 47.500000
-4.202835, 6.184284, 47.625000
-4.202835, 6.184284, 47.750000
-4.288607, 6.310493, 47.875000
-4.288607, 6.310493, 48.000000
-4.288607, 6.310493, 48.125000
-4.374379, 6.436703, 48.250000
-4.374379, 6.436703, 48.375000
-4.460151, 6.562913, 48.500000
-4.460151, 6.562913, 48.625000
-4.545923, 6.689123, 48.750000
-4.545923, 6.689123, 48.875000
-4.631695, 6.815333, 49.000000
-4.717468, 6.941543, 49.125000
-4.631695, 6.815333, 49.250000
-4.631695, 6.815333, 49.375000
-4.717468, 6.941543, 49.500000
-4.717468, 6.941543, 49.625000
-4.803240, 7.067753, 49.750000
-4.803240, 7.067753, 49.875000
-4.889012, 7.193963, 50.000000
-4.889012, 7.193963, 50.125000
-4.974784, 7.320172, 50.250000
-4.974784, 7.320172, 50.375000
-4.974784, 7.320172, 50.500000
-5.060556, 7.446382, 50.625000
-5.060556, 7.446382, 50.750000
-5.146328, 7.572592, 50.875000
-5.060556, 7.446382, 51.000000
-5.232100, 7.698802, 51.125000
-5.146328, 7.572592, 51.250000
-5.232100, 7.698802, 51.375000
-5.232100, 7.698802, 51.500000
-5.232100, 7.698802, 51.625000
-5.317873, 7.825012, 51.750000
-5.317873, 7.825012, 51.875000
-5.403645, 7.951222, 52.000000
-5.403645, 7.951222, 52.125000
-5.403645, 7.951222, 52.250000
-5.489417, 8.077432, 52.375000
-5.489417, 8.077432, 52.500000
-5.489417, 8.077432, 52.625000
-5.575189, 8.203641, 52.750000
-5.575189, 8.203641, 52.875000
-5.660961, 8.329851, 53.000000
-5.660961, 8.329851, 53.125000
-5.746733, 8.456061, 53.250000
-5.746733, 8.456061, 53.375000
-5.746733, 8.456061, 53.500000
-5.832505, 8.582271, 53.625000
-5.832505, 8.582271, 53.750000
-5.832505, 8.582271, 53.875000
-5.918278, 8.708481, 54.000000
-5.918278, 8.708481, 54.125000
-6.004050, 8.834691, 54.250000
-6.004050, 8.834691, 54.375000
-6.089822, 8.960901, 54.500000
-6.089822, 8.960901, 54.625000
-6.089822, 8.960901, 54.750000
-6.175594, 9.087111, 54.875000
-6.175594, 9.087111, 55.000000
-6.261366, 9.213320, 55.125000
-6.261366, 9.213320, 55.250000
-6.347138, 9.339530, 55.375000
-6.347138, 9.339530, 55.500000
-6.347138, 9.339530, 55.625000
-6.432910, 9.465740, 55.750000
-6.432910, 9.465740, 55.875000
-6.518682, 9.591950, 56.000000
-6.518682, 9.591950, 56.125000
-6.518682, 9.591950, 56.250000
-6.604455, 9.718160, 56.375000
-6.604455, 9.718160, 56.500000
-6.690227, 9.844370, 56.625000
-6.690227, 9.844370, 56.750000
-6.690227, 9.844370, 56.875000
-6.775999, 9.970580, 57.000000
-6.775999, 9.970580, 57.125000
-6.861771, 10.096789, 57.250000
-6.861771, 10.096789, 57.375000
-6.861771, 10.096789, 57.500000
-6.861771, 10.096789, 57.625000
-6.947543, 10.222999, 57.750000
-6.947543, 10.222999, 57.875000
-7.033315, 10.349209, 58.000000
-7.033315, 10.349209, 58.125000
-7.119087, 10.475419, 58.250000
-7.119087, 10.475419, 58.375000
-7.119087, 10.475419, 58.500000
-7.204860, 10.601629, 58.625000
-7.204860, 10.601629, 58.750000
-7.290632, 10.727839, 58.875000
-7.290632, 10.727839, 59.000000
-7.376404, 10.854049, 59.125000
-7.376404, 10.854049, 59.250000
-7.376404, 10.854049, 59.375000
-7.462176, 10.980259, 59.500000
-7.462176, 10.980259, 59.625000
-7.462176, 10.980259, 59.750000
-7.547948, 11.106468, 59.875000
-7.547948, 11.106468, 60.000000
-7.633720, 11.232678, 60.125000
-7.633720, 11.232678, 60.250000
-7.719492, 11.358888, 60.375000
-7.719492, 11.358888, 60.500000
-7.719492, 11.358888, 60.625000
-7.805265, 11.485098, 60.750000
-7.805265, 11.485098, 60.875000
-7.891037, 11.611308, 61.000000
-7.891037, 11.611308, 61.125000
-7.891037, 11.611308, 61.250000
-7.976809, 11.737518, 61.375000
-7.976809, 11.737518, 61.500000
-8.062581, 11.863728, 61.625000
-8.062581, 11.863728, 61.750000
-8.062581, 11.863728, 61.875000
-8.148353, 11.989938, 62.000000
-8.148353, 11.989938, 62.125000
-8.234125, 12.116147, 62.250000
-8.234125, 12.116147, 62.375000
-8.234125, 12.116147, 62.500000
-8.319897, 12.242357, 62.625000
-8.319897, 12.242357, 62.750000
-8.405670, 12.368567, 62.875000
-8.405670, 12.368567, 63.000000
-8.405670, 12.368567, 63.125000
-8.491442, 12.494777, 63.250000
-8.491442, 12.494777, 63.375000
-8.577214, 12.620987, 63.500000
-8.577214, 12.620987, 63.625000
-8.577214, 12.620987, 63.750000
-8.662986, 12.747197, 63.875000
-8.662986, 12.747197, 64.000000
-8.662986, 12.747197, 64.125000
-8.748758, 12.873407, 64.250000
-8.748758, 12.873407, 64.375000
-8.834530, 12.999616, 64.500000
-8.834530, 12.999616, 64.625000
-8.834530, 12.999616, 64.750000
-8.920302, 13.125826, 64.875000
-8.920302, 13.125826, 65.000000
-9.006074, 13.252036, 65.125000
-9.006074, 13.252036, 65.250000
-9.091847, 13.378246, 65.375000
-9.091847, 13.378246, 65.500000
-9.091847, 13.378246, 65.625000
-9.177619, 13.504456, 65.750000
-9.177619, 13.504456, 65.875000
-9.177619, 13.504456, 66.000000
-9.263391, 13.630666, 66.125000
-9.263391, 13.630666, 66.250000
-9.349163, 13.756876, 66.375000
-9.349163, 13.756876, 66.500000
-9.434935, 13.883086, 66.625000
-9.434935, 13.883086, 66.750000
-9.434935, 13.883086, 66.875000
-9.520707, 14.009295, 67.000000
-9.520707, 14.009295, 67.125000
-9.606479, 14.135505, 67.250000
-9.606479, 14.135505, 67.375000
-9.606479, 14.135505, 67.500000
-9.692252, 14.261715, 67.625000
-9.692252, 14.261715, 67.750000
-9.778024, 14.387925, 67.875000
-9.778024, 14.387925, 68.000000
-9.778024, 14.387925, 68.125000
-9.863796, 14.514135, 68.250000
-9.863796, 14.514135, 68.375000
-9.949568, 14.640345, 68.500000
-9.949568, 14.640345, 68.625000
-9.949568, 14.640345, 68.750000
-10.035340, 14.766555, 68.875000
-10.035340, 14.766555, 69.000000
-10.121112, 14.892764, 69.125000
-10.121112, 14.892764, 69.250000
-10.121112, 14.892764, 69.375000
-10.206884, 15.018974, 69.500000
-10.206884, 15.018974, 69.625000
-10.292657, 15.145184, 69.750000
-10.292657, 15.145184, 69.875000
-10.292657, 15.145184, 70.000000
-10.378429, 15.271394, 70.125000
-10.378429, 15.271394, 70.250000
-10.464201, 15.397604, 70.375000
-10.464201, 15.397604, 70.500000
-10.464201, 15.397604, 70.625000
-10.549973, 15.523814, 70.750000
-10.549973, 15.523814, 70.875000
-10.549973, 15.523814, 71.000000
-10.635745, 15.650024, 71.125000
-10.635745, 15.650024, 71.250000
-10.721517, 15.776234, 71.375000
-10.721517, 15.776234, 71.500000
-10.807289, 15.902443, 71.625000
-10.807289, 15.902443, 71.750000
-10.807289, 15.902443, 71.875000
-10.893062, 16.028653, 72.000000
-10.893062, 16.028653, 72.125000
-10.978834, 16.154863, 72.250000
-10.978834, 16.154863, 72.375000
-10.978834, 16.154863, 72.500000
-11.064606, 16.281073, 72.625000
-11.064606, 16.281073, 72.750000
-11.150378, 16.407283, 72.875000
-11.236150, 16.533493, 73.000000
-11.236150, 16.533493, 73.125000
-11.236150, 16.533493, 73.250000
-11.236150, 16.533493, 73.375000
-11.321922, 16.659703, 73.500000
-11.321922, 16.659703, 73.625000
-11.407694, 16.785913, 73.750000
-11.407694, 16.785913, 73.875000
-11.493466, 16.912122, 74.000000
-11.579239, 17.038332, 74.125000
-11.493466, 16.912122, 74.250000
-11.579239, 17.038332, 74.375000
-11.579239, 17.038332, 74.500000
-11.665011, 17.164542, 74.625000
-11.665011, 17.164542, 74.750000
-11.750783, 17.290752, 74.875000
-11.750783, 17.290752, 75.000000
-11.836555, 17.416962, 75.125000
-11.922327, 17.543172, 75.250000
-11.836555, 17.416962, 75.375000
-11.922327, 17.543172, 75.500000
-11.922327, 17.543172, 75.625000
-11.922327, 17.543172, 75.750000
-12.008099, 17.669382, 75.875000
-12.093871, 17.795591, 76.000000
-12.093871, 17.795591, 76.125000
-12.093871, 17.795591, 76.250000
-12.179644, 17.921801, 76.375000
-12.179644, 17.921801, 76.500000
-12.265416, 18.048011, 76.625000
-12.265416, 18.048011, 76.750000
-12.351188, 18.174221, 76.875000
-12.351188, 18.174221, 77.000000
-12.351188, 18.174221, 77.125000
-12.436960, 18.300431, 77.250000
-12.436960, 18.300431, 77.375000
-12.522732, 18.426641, 77.500000
-12.522732, 18.426641, 77.625000
-12.522732, 18.426641, 77.750000
-12.608504, 18.552851, 77.875000
-12.608504, 18.552851, 78.000000
-12.694276, 18.679061, 78.125000
-12.694276, 18.679061, 78.250000
-12.694276, 18.679061, 78.375000
-12.694276, 18.679061, 78.500000
-12.694276, 18.679061, 78.625000
-12.694276, 18.679061, 78.750000
-12.780049, 18.805270, 78.875000
-12.780049, 18.805270, 79.000000
-12.780049, 18.805270, 79.125000
-12.780049, 18.805270, 79.250000
-12.780049, 18.805270, 79.375000
-12.865821, 18.931480, 79.500000
-3.408378, 4.691230, 43.625000
-3.498072, 4.814684, 43.750000
-3.498072, 4.814684, 43.875000
-3.498072, 4.814684, 44.000000
-3.498072, 4.814684, 44.125000
-3.587766, 4.938137, 44.250000
-3.587766, 4.938137, 44.375000
-3.677461, 5.061590, 44.500000
-3.677461, 5.061590, 44.625000
-3.677461, 5.061590, 44.750000
-3.767155, 5.185044, 44.875000
-3.767155, 5.185044, 45.000000
-3.767155, 5.185044, 45.125000
-3.767155, 5.185044, 45.250000
-3.856849, 5.308497, 45.375000
-3.856849, 5.308497, 45.500000
-3.946543, 5.431951, 45.625000
-3.946543, 5.431951, 45.750000
-3.946543, 5.431951, 45.875000
-4.036237, 5.555404, 46.000000
-4.036237, 5.555404, 46.125000
-4.125931, 5.678857, 46.250000
-4.125931, 5.678857, 46.375000
-4.215626, 5.802311, 46.500000
-4.215626, 5.802311, 46.625000
-4.215626, 5.802311, 46.750000
-4.305320, 5.925764, 46.875000
-4.305320, 5.925764, 47.000000
-4.305320, 5.925764, 47.125000
-4.395014, 6.049218, 47.250000
-4.395014, 6.049218, 47.375000
-4.484708, 6.172671, 47.500000
-4.484708, 6.172671, 47.625000
-4.484708, 6.172671, 47.750000
-4.574402, 6.296125, 47.875000
-4.574402, 6.296125, 48.000000
-4.574402, 6.296125, 48.125000
-4.753791, 6.543031, 48.250000
-4.664096, 6.419578, 48.375000
-4.664096, 6.419578, 48.500000
-4.753791, 6.543031, 48.625000
-4.753791, 6.543031, 48.750000
-4.843485, 6.666485, 48.875000
-4.843485, 6.666485, 49.000000
-4.933179, 6.789938, 49.125000
-4.933179, 6.789938, 49.250000
-5.022873, 6.913392, 49.375000
-5.022873, 6.913392, 49.500000
-5.112567, 7.036845, 49.625000
-5.112567, 7.036845, 49.750000
-5.112567, 7.036845, 49.875000
-5.202261, 7.160299, 50.000000
-5.202261, 7.160299, 50.125000
-5.202261, 7.160299, 50.250000
-5.202261, 7.160299, 50.375000
-5.291956, 7.283752, 50.500000
-5.291956, 7.283752, 50.625000
-5.291956, 7.283752, 50.750000
-5.381650, 7.407205, 50.875000
-5.381650, 7.407205, 51.000000
-5.471344, 7.530659, 51.125000
-5.471344, 7.530659, 51.250000
-5.471344, 7.530659, 51.375000
-5.561038, 7.654112, 51.500000
-5.561038, 7.654112, 51.625000
-5.650732, 7.777566, 51.750000
-5.650732, 7.777566, 51.875000
-5.740426, 7.901019, 52.000000
-5.740426, 7.901019, 52.125000
-5.830121, 8.024473, 52.250000
-5.830121, 8.024473, 52.375000
-5.830121, 8.024473, 52.500000
-5.830121, 8.024473, 52.625000
-5.919815, 8.147926, 52.750000
-5.919815, 8.147926, 52.875000
-5.919815, 8.147926, 53.000000
-6.099203, 8.394833, 53.125000
-6.099203, 8.394833, 53.250000
-6.099203, 8.394833, 53.375000
-6.099203, 8.394833, 53.500000
-6.099203, 8.394833, 53.625000
-6.188897, 8.518286, 53.750000
-6.188897, 8.518286, 53.875000
-6.278591, 8.641740, 54.000000
-6.278591, 8.641740, 54.125000
-6.278591, 8.641740, 54.250000
-6.457980, 8.888646, 54.375000
-6.368286, 8.765193, 54.500000
-6.368286, 8.765193, 54.625000
-6.457980, 8.888646, 54.750000
-6.457980, 8.888646, 54.875000
-6.637368, 9.135553, 55.000000
-6.547674, 9.012100, 55.125000
-6.637368, 9.135553, 55.250000
-6.637368, 9.135553, 55.375000
-6.637368, 9.135553, 55.500000
-6.727062, 9.259007, 55.625000
-6.727062, 9.259007, 55.750000
-6.816756, 9.382460, 55.875000
-6.816756, 9.382460, 56.000000
-6.816756, 9.382460, 56.125000
-6.906451, 9.505914, 56.250000
-6.906451, 9.505914, 56.375000
-7.085839, 9.752820, 56.500000
-6.996145, 9.629367, 56.625000
-6.996145, 9.629367, 56.750000
-7.085839, 9.752820, 56.875000
-7.085839, 9.752820, 57.000000
-7.175533, 9.876274, 57.125000
-7.175533, 9.876274, 57.250000
-7.175533, 9.876274, 57.375000
-7.265227, 9.999727, 57.500000
-7.265227, 9.999727, 57.625000
-7.354921, 10.123181, 57.750000
-7.354921, 10.123181, 57.875000
-7.444615, 10.246634, 58.000000
-7.444615, 10.246634, 58.125000
-7.534310, 10.370088, 58.250000
-7.534310, 10.370088, 58.375000
-7.534310, 10.370088, 58.500000
-7.624004, 10.493541, 58.625000
-7.624004, 10.493541, 58.750000
-7.713698, 10.616994, 58.875000
-7.713698, 10.616994, 59.000000
-7.803392, 10.740448, 59.125000
-7.803392, 10.740448, 59.250000
-7.803392, 10.740448, 59.375000
-7.803392, 10.740448, 59.500000
-7.893086, 10.863901, 59.625000
-7.893086, 10.863901, 59.750000
-7.893086, 10.863901, 59.875000
-7.982780, 10.987355, 60.000000
-7.982780, 10.987355, 60.125000
-8.072475, 11.110808, 60.250000
-8.072475, 11.110808, 60.375000
-8.162169, 11.234262, 60.500000
-8.162169, 11.234262, 60.625000
-8.162169, 11.234262, 60.750000
-8.251863, 11.357715, 60.875000
-8.341557, 11.481168, 61.000000
-8.341557, 11.481168, 61.125000
-8.431251, 11.604622, 61.250000
-8.341557, 11.481168, 61.375000
-8.341557, 11.481168, 61.500000
-8.431251, 11.604622, 61.625000
-8.431251, 11.604622, 61.750000
-8.610640, 11.851529, 61.875000
-8.520945, 11.728075, 62.000000
-8.520945, 11.728075, 62.125000
-8.610640, 11.851529, 62.250000
-8.610640, 11.851529, 62.375000
-8.790028, 12.098436, 62.500000
-8.700334, 11.974982, 62.625000
-8.790028, 12.098436, 62.750000
-8.790028, 12.098436, 62.875000
-8.790028, 12.098436, 63.000000
-8.879722, 12.221889, 63.125000
-8.879722, 12.221889, 63.250000
-8.969416, 12.345342, 63.375000
-8.969416, 12.345342, 63.500000
-8.969416, 12.345342, 63.625000
-9.059110, 12.468796, 63.750000
-9.059110, 12.468796, 63.875000
-9.059110, 12.468796, 64.000000
-9.148805, 12.592249, 64.125000
-9.148805, 12.592249, 64.250000
-9.238499, 12.715703, 64.375000
-9.238499, 12.715703, 64.500000
-9.417887, 12.962609, 64.625000
-9.328193, 12.839156, 64.750000
-9.417887, 12.962609, 64.875000
-9.417887, 12.962609, 65.000000
-9.417887, 12.962609, 65.125000
-9.507581, 13.086063, 65.250000
-9.507581, 13.086063, 65.375000
-9.507581, 13.086063, 65.500000
-9.597275, 13.209516, 65.625000
-9.597275, 13.209516, 65.750000
-9.686970, 13.332970, 65.875000
-9.686970, 13.332970, 66.000000
-9.686970, 13.332970, 66.125000
-9.776664, 13.456423, 66.250000
-9.776664, 13.456423, 66.375000
-9.866358, 13.579877, 66.500000
-9.866358, 13.579877, 66.625000
-9.866358, 13.579877, 66.750000
-10.045746, 13.826783, 66.875000
-9.956052, 13.703330, 67.000000
-10.135440, 13.950237, 67.125000
-10.045746, 13.826783, 67.250000
-10.045746, 13.826783, 67.375000
-10.225135, 14.073690, 67.500000
-10.135440, 13.950237, 67.625000
-10.225135, 14.073690, 67.750000
-10.225135, 14.073690, 67.875000
-10.225135, 14.073690, 68.000000
-10.314829, 14.197144, 68.125000
-10.404523, 14.320597, 68.250000
-10.404523, 14.320597, 68.375000
-10.404523, 14.320597, 68.500000
-10.494217, 14.444051, 68.625000
-10.494217, 14.444051, 68.750000
-10.494217, 14.444051, 68.875000
-10.583911, 14.567504, 69.000000
-10.583911, 14.567504, 69.125000
-10.673605, 14.690957, 69.250000
-10.673605, 14.690957, 69.375000
-10.673605, 14.690957, 69.500000
-10.763299, 14.814411, 69.625000
-10.852994, 14.937864, 69.750000
-10.852994, 14.937864, 69.875000
-10.942688, 15.061318, 70.000000
-10.942688, 15.061318, 70.125000
-10.942688, 15.061318, 70.250000
-11.032382, 15.184771, 70.375000
-11.032382, 15.184771, 70.500000
-11.032382, 15.184771, 70.625000
-11.122076, 15.308225, 70.750000
-11.122076, 15.308225, 70.875000
-11.122076, 15.308225, 71.000000
-11.211770, 15.431678, 71.125000
-11.211770, 15.431678, 71.250000
-11.301464, 15.555131, 71.375000
-11.301464, 15.555131, 71.500000
-11.301464, 15.555131, 71.625000
-11.391159, 15.678585, 71.750000
-11.391159, 15.678585, 71.875000
-11.480853, 15.802038, 72.000000
-11.480853, 15.802038, 72.125000
-11.570547, 15.925492, 72.250000
-11.570547, 15.925492, 72.375000
-11.660241, 16.048945, 72.500000
-11.660241, 16.048945, 72.625000
-11.660241, 16.048945, 72.750000
-11.749935, 16.172398, 72.875000
-11.749935, 16.172398, 73.000000
-11.839629, 16.295852, 73.125000
-11.839629, 16.295852, 73.250000
-11.839629, 16.295852, 73.375000
-11.929324, 16.419305, 73.500000
-11.929324, 16.419305, 73.625000
-12.019018, 16.542759, 73.750000
-12.019018, 16.542759, 73.875000
-12.019018, 16.542759, 74.000000
-12.108712, 16.666212, 74.125000
-12.108712, 16.666212, 74.250000
-12.198406, 16.789666, 74.375000
-12.198406, 16.789666, 74.500000
-12.288100, 16.913119, 74.625000
-12.288100, 16.913119, 74.750000
-12.288100, 16.913119, 74.875000
-12.377794, 17.036572, 75.000000
-12.377794, 17.036572, 75.125000
-12.467489, 17.160026, 75.250000
-12.467489, 17.160026, 75.375000
-12.557183, 17.283479, 75.500000
-12.557183, 17.283479, 75.625000
-12.557183, 17.283479, 75.750000
-12.646877, 17.406933, 75.875000
-12.646877, 17.406933, 76.000000
-12.736571, 17.530386, 76.125000
-12.736571, 17.530386, 76.250000
-12.736571, 17.530386, 76.375000
-12.826265, 17.653840, 76.500000
-12.826265, 17.653840, 76.625000
-12.915959, 17.777293, 76.750000
-12.915959, 17.777293, 76.875000
-12.915959, 17.777293, 77.000000
-13.005654, 17.900746, 77.125000
-13.005654, 17.900746, 77.250000
-13.095348, 18.024200, 77.375000
-13.095348, 18.024200, 77.500000
-13.185042, 18.147653, 77.625000
-13.185042, 18.147653, 77.750000
-13.274736, 18.271107, 77.875000
-13.274736, 18.271107, 78.000000
-13.274736, 18.271107, 78.125000
-13.274736, 18.271107, 78.250000
-13.364430, 18.394560, 78.375000
-13.364430, 18.394560, 78.500000
-13.364430, 18.394560, 78.625000
-13.364430, 18.394560, 78.750000
-13.364430, 18.394560, 78.875000
-13.454124, 18.518014, 79.000000
-13.364430, 18.394560, 79.125000
-13.454124, 18.518014, 79.250000
-13.454124, 18.518014, 79.375000
-13.543819, 18.641467, 79.500000
-3.554051, 4.581856, 43.750000
-3.741107, 4.823006, 43.875000
-3.647579, 4.702431, 44.000000
-3.741107, 4.823006, 44.125000
-3.834634, 4.943581, 44.250000
-3.834634, 4.943581, 44.375000
-3.928162, 5.064156, 44.500000
-3.834634, 4.943581, 44.625000
-3.834634, 4.943581, 44.750000
-3.928162, 5.064156, 44.875000
-4.021690, 5.184731, 45.000000
-4.115217, 5.305306, 45.125000
-4.115217, 5.305306, 45.250000
-4.115217, 5.305306, 45.375000
-4.115217, 5.305306, 45.500000
-4.115217, 5.305306, 45.625000
-4.115217, 5.305306, 45.750000
-4.208745, 5.425882, 45.875000
-4.208745, 5.425882, 46.000000
-4.302273, 5.546457, 46.125000
-4.302273, 5.546457, 46.250000
-4.302273, 5.546457, 46.375000
-4.395800, 5.667032, 46.500000
-4.395800, 5.667032, 46.625000
-4.489328, 5.787607, 46.750000
-4.489328, 5.787607, 46.875000
-4.582856, 5.908182, 47.000000
-4.582856, 5.908182, 47.125000
-4.676383, 6.028757, 47.250000
-4.676383, 6.028757, 47.375000
-4.676383, 6.028757, 47.500000
-4.676383, 6.028757, 47.625000
-4.769911, 6.149332, 47.750000
-4.769911, 6.149332, 47.875000
-4.769911, 6.149332, 48.000000
-4.863439, 6.269908, 48.125000
-4.863439, 6.269908, 48.250000
-4.956966, 6.390483, 48.375000
-4.956966, 6.390483, 48.500000
-4.956966, 6.390483, 48.625000
-5.050494, 6.511058, 48.750000
-5.050494, 6.511058, 48.875000
-5.144022, 6.631633, 49.000000
-5.144022, 6.631633, 49.125000
-5.237549, 6.752208, 49.250000
-5.237549, 6.752208, 49.375000
-5.237549, 6.752208, 49.500000
-5.331077, 6.872783, 49.625000
-5.331077, 6.872783, 49.750000
-5.331077, 6.872783, 49.875000
-5.424605, 6.993358, 50.000000
-5.518133, 7.113934, 50.125000
-5.518133, 7.113934, 50.250000
-5.424605, 6.993358, 50.375000
-5.518133, 7.113934, 50.500000
-5.611660, 7.234509, 50.625000
-5.611660, 7.234509, 50.750000
-5.611660, 7.234509, 50.875000
-5.705188, 7.355084, 51.000000
-5.705188, 7.355084, 51.125000
-5.798716, 7.475659, 51.250000
-5.798716, 7.475659, 51.375000
-5.798716, 7.475659, 51.500000
-5.892243, 7.596234, 51.625000
-5.892243, 7.596234, 51.750000
-5.985771, 7.716809, 51.875000
-6.079299, 7.837384, 52.000000
-6.079299, 7.837384, 52.125000
-6.079299, 7.837384, 52.250000
-6.172826, 7.957960, 52.375000
-6.172826, 7.957960, 52.500000
-6.172826, 7.957960, 52.625000
-6.172826, 7.957960, 52.750000
-6.266354, 8.078535, 52.875000
-6.266354, 8.078535, 53.000000
-6.266354, 8.078535, 53.125000
-6.359882, 8.199110, 53.250000
-6.359882, 8.199110, 53.375000
-6.359882, 8.199110, 53.500000
-6.453409, 8.319685, 53.625000
-6.453409, 8.319685, 53.750000
-6.453409, 8.319685, 53.875000
-6.546937, 8.440260, 54.000000
-6.640465, 8.560835, 54.125000
-6.640465, 8.560835, 54.250000
-6.733992, 8.681410, 54.375000
-6.733992, 8.681410, 54.500000
-6.733992, 8.681410, 54.625000
-6.827520, 8.801986, 54.750000
-6.827520, 8.801986, 54.875000
-6.827520, 8.801986, 55.000000
-6.921048, 8.922561, 55.125000
-6.921048, 8.922561, 55.250000
-6.921048, 8.922561, 55.375000
-7.014575, 9.043136, 55.500000
-7.014575, 9.043136, 55.625000
-7.108103, 9.163711, 55.750000
-7.108103, 9.163711, 55.875000
-7.108103, 9.163711, 56.000000
-7.201631, 9.284286, 56.125000
-7.201631, 9.284286, 56.250000
-7.295158, 9.404861, 56.375000
-7.295158, 9.404861, 56.500000
-7.388686, 9.525436, 56.625000
-7.388686, 9.525436, 56.750000
-7.482214, 9.646012, 56.875000
-7.482214, 9.646012, 57.000000
-7.482214, 9.646012, 57.125000
-7.575741, 9.766587, 57.250000
-7.575741, 9.766587, 57.375000
-7.575741, 9.766587, 57.500000
-7.669269, 9.887162, 57.625000
-7.669269, 9.887162, 57.750000
-7.762797, 10.007737, 57.875000
-7.762797, 10.007737, 58.000000
-7.762797, 10.007737, 58.125000
-7.856324, 10.128312, 58.250000
-7.856324, 10.128312, 58.375000
-7.949852, 10.248887, 58.500000
-7.949852, 10.248887, 58.625000
-8.043380, 10.369462, 58.750000
-8.043380, 10.369462, 58.875000
-8.043380, 10.369462, 59.000000
-8.136907, 10.490038, 59.125000
-8.136907, 10.490038, 59.250000
-8.136907, 10.490038, 59.375000
-8.230435, 10.610613, 59.500000
-8.230435, 10.610613, 59.625000
-8.230435, 10.610613, 59.750000
-8.323963, 10.731188, 59.875000
-8.323963, 10.731188, 60.000000
-8.417490, 10.851763, 60.125000
-8.417490, 10.851763, 60.250000
-8.511018, 10.972338, 60.375000
-8.511018, 10.972338, 60.500000
-8.604546, 11.092913, 60.625000
-8.604546, 11.092913, 60.750000
-8.604546, 11.092913, 60.875000
-8.698073, 11.213488, 61.000000
-8.698073, 11.213488, 61.125000
-8.791601, 11.334064, 61.250000
-8.791601, 11.334064, 61.375000
-8.791601, 11.334064, 61.500000
-8.885129, 11.454639, 61.625000
-8.885129, 11.454639, 61.750000
-8.978656, 11.575214, 61.875000
-8.978656, 11.575214, 62.000000
-8.978656, 11.575214, 62.125000
-9.072184, 11.695789, 62.250000
-9.072184, 11.695789, 62.375000
-9.072184, 11.695789, 62.500000
-9.165712, 11.816364, 62.625000
-9.165712, 11.816364, 62.750000
-9.259239, 11.936939, 62.875000
-9.259239, 11.936939, 63.000000
-9.352767, 12.057515, 63.125000
-9.352767, 12.057515, 63.250000
-9.446295, 12.178090, 63.375000
-9.446295, 12.178090, 63.500000
-9.446295, 12.178090, 63.625000
-9.446295, 12.178090, 63.750000
-9.539822, 12.298665, 63.875000
-9.633350, 12.419240, 64.000000
-9.633350, 12.419240, 64.125000
-9.633350, 12.419240, 64.250000
-9.726878, 12.539815, 64.375000
-9.726878, 12.539815, 64.500000
-9.726878, 12.539815, 64.625000
-9.820405, 12.660390, 64.750000
-9.820405, 12.660390, 64.875000
-9.820405, 12.660390, 65.000000
-9.913933, 12.780965, 65.125000
-9.913933, 12.780965, 65.250000
-9.913933, 12.780965, 65.375000
-10.007461, 12.901541, 65.500000
-10.100988, 13.022116, 65.625000
-10.100988, 13.022116, 65.750000
-10.100988, 13.022116, 65.875000
-10.194516, 13.142691, 66.000000
-10.288044, 13.263266, 66.125000
-10.288044, 13.263266, 66.250000
-10.288044, 13.263266, 66.375000
-10.288044, 13.263266, 66.500000
-10.381571, 13.383841, 66.625000
-10.381571, 13.383841, 66.750000
-10.381571, 13.383841, 66.875000
-10.475099, 13.504416, 67.000000
-10.475099, 13.504416, 67.125000
-10.568627, 13.624991, 67.250000
-10.568627, 13.624991, 67.375000
-10.662154, 13.745567, 67.500000
-10.662154, 13.745567, 67.625000
-10.755682, 13.866142, 67.750000
-10.755682, 13.866142, 67.875000
-10.755682, 13.866142, 68.000000
-10.849210, 13.986717, 68.125000
-10.849210, 13.986717, 68.250000
-10.849210, 13.986717, 68.375000
-10.942737, 14.107292, 68.500000
-10.942737, 14.107292, 68.625000
-10.942737, 14.107292, 68.750000
-11.036265, 14.227867, 68.875000
-11.036265, 14.227867, 69.000000
-11.129793, 14.348442, 69.125000
-11.129793, 14.348442, 69.250000
-11.223320, 14.469017, 69.375000
-11.223320, 14.469017, 69.500000
-11.223320, 14.469017, 69.625000
-11.223320, 14.469017, 69.750000
-11.316848, 14.589593, 69.875000
-11.410376, 14.710168, 70.000000
-11.503903, 14.830743, 70.125000
-11.503903, 14.830743, 70.250000
-11.503903, 14.830743, 70.375000
-11.503903, 14.830743, 70.500000
-11.503903, 14.830743, 70.625000
-11.597431, 14.951318, 70.750000
-11.597431, 14.951318, 70.875000
-11.690959, 15.071893, 71.000000
-11.690959, 15.071893, 71.125000
-11.784486, 15.192468, 71.250000
-11.784486, 15.192468, 71.375000
-11.784486, 15.192468, 71.500000
-11.878014, 15.313043, 71.625000
-11.878014, 15.313043, 71.750000
-11.878014, 15.313043, 71.875000
-11.971542, 15.433619, 72.000000
-12.065069, 15.554194, 72.125000
-12.065069, 15.554194, 72.250000
-12.065069, 15.554194, 72.375000
-12.158597, 15.674769, 72.500000
-12.158597, 15.674769, 72.625000
-12.158597, 15.674769, 72.750000
-12.252125, 15.795344, 72.875000
-12.345652, 15.915919, 73.000000
-12.345652, 15.915919, 73.125000
-12.345652, 15.915919, 73.250000
-12.439180, 16.036494, 73.375000
-12.439180, 16.036494, 73.500000
-12.532708, 16.157069, 73.625000
-12.532708, 16.157069, 73.750000
-12.626235, 16.277645, 73.875000
-12.626235, 16.277645, 74.000000
-12.626235, 16.277645, 74.125000
-12.626235, 16.277645, 74.250000
-12.719763, 16.398220, 74.375000
-12.813291, 16.518795, 74.500000
-12.813291, 16.518795, 74.625000
-12.813291, 16.518795, 74.750000
-13.000346, 16.759945, 74.875000
-12.906818, 16.639370, 75.000000
-13.000346, 16.759945, 75.125000
-13.000346, 16.759945, 75.250000
-13.000346, 16.759945, 75.375000
-13.093874, 16.880520, 75.500000
-13.093874, 16.880520, 75.625000
-13.187401, 17.001095, 75.750000
-13.187401, 17.001095, 75.875000
-13.187401, 17.001095, 76.000000
-13.280929, 17.121671, 76.125000
-13.374457, 17.242246, 76.250000
-13.374457, 17.242246, 76.375000
-13.374457, 17.242246, 76.500000
-13.467984, 17.362821, 76.625000
-13.467984, 17.362821, 76.750000
-13.561512, 17.483396, 76.875000
-13.561512, 17.483396, 77.000000
-13.561512, 17.483396, 77.125000
-13.655040, 17.603971, 77.250000
-13.748567, 17.724546, 77.375000
-13.748567, 17.724546, 77.500000
-13.748567, 17.724546, 77.625000
-13.842095, 17.845121, 77.750000
-13.842095, 17.845121, 77.875000
-13.935623, 17.965697, 78.000000
-13.935623, 17.965697, 78.125000
-13.935623, 17.965697, 78.250000
-13.935623, 17.965697, 78.375000
-13.935623, 17.965697, 78.500000
-14.029150, 18.086272, 78.625000
-14.029150, 18.086272, 78.750000
-14.029150, 18.086272, 78.875000
-14.029150, 18.086272, 79.000000
-14.122678, 18.206847, 79.125000
-14.122678, 18.206847, 79.250000
-14.122678, 18.206847, 79.375000
-14.309733, 18.447997, 79.500000
-14.122678, 18.206847, 79.625000
-3.793486, 4.585537, 43.625000
-3.793486, 4.585537, 43.750000
-3.696217, 4.467959, 43.875000
-3.793486, 4.585537, 44.000000
-3.793486, 4.585537, 44.125000
-3.890755, 4.703115, 44.250000
-3.890755, 4.703115, 44.375000
-3.890755, 4.703115, 44.500000
-3.890755, 4.703115, 44.625000
-3.988024, 4.820693, 44.750000
-3.988024, 4.820693, 44.875000
-4.182562, 5.055849, 45.000000
-4.085293, 4.938271, 45.125000
-4.182562, 5.055849, 45.250000
-4.182562, 5.055849, 45.375000
-4.182562, 5.055849, 45.500000
-4.279831, 5.173426, 45.625000
-4.279831, 5.173426, 45.750000
-4.279831, 5.173426, 45.875000
-4.377099, 5.291004, 46.000000
-4.474368, 5.408582, 46.125000
-4.474368, 5.408582, 46.250000
-4.571637, 5.526160, 46.375000
-4.571637, 5.526160, 46.500000
-4.571637, 5.526160, 46.625000
-4.571637, 5.526160, 46.750000
-4.668906, 5.643738, 46.875000
-4.766175, 5.761316, 47.000000
-4.766175, 5.761316, 47.125000
-4.766175, 5.761316, 47.250000
-4.766175, 5.761316, 47.375000
-4.863444, 5.878894, 47.500000
-4.960713, 5.996472, 47.625000
-4.960713, 5.996472, 47.750000
-4.960713, 5.996472, 47.875000
-4.960713, 5.996472, 48.000000
-4.960713, 5.996472, 48.125000
-5.057982, 6.114049, 48.250000
-5.057982, 6.114049, 48.375000
-5.155250, 6.231627, 48.500000
-5.155250, 6.231627, 48.625000
-5.252519, 6.349205, 48.750000
-5.252519, 6.349205, 48.875000
-5.349788, 6.466783, 49.000000
-5.349788, 6.466783, 49.125000
-5.447057, 6.584361, 49.250000
-5.447057, 6.584361, 49.375000
-5.544326, 6.701939, 49.500000
-5.447057, 6.584361, 49.625000
-5.641595, 6.819517, 49.750000
-5.544326, 6.701939, 49.875000
-5.641595, 6.819517, 50.000000
-5.641595, 6.819517, 50.125000
-5.641595, 6.819517, 50.250000
-5.738864, 6.937095, 50.375000
-5.738864, 6.937095, 50.500000
-5.836133, 7.054672, 50.625000
-5.836133, 7.054672, 50.750000
-5.836133, 7.054672, 50.875000
-5.836133, 7.054672, 51.000000
-5.933401, 7.172250, 51.125000
-5.933401, 7.172250, 51.250000
-6.030670, 7.289828, 51.375000
-6.030670, 7.289828, 51.500000
-6.030670, 7.289828, 51.625000
-6.030670, 7.289828, 51.750000
-6.127939, 7.407406, 51.875000
-6.225208, 7.524984, 52.000000
-6.322477, 7.642562, 52.125000
-6.225208, 7.524984, 52.250000
-6.225208, 7.524984, 52.375000
-6.322477, 7.642562, 52.500000
-6.322477, 7.642562, 52.625000
-6.419746, 7.760140, 52.750000
-6.419746, 7.760140, 52.875000
-6.517015, 7.877718, 53.000000
-6.517015, 7.877718, 53.125000
-6.517015, 7.877718, 53.250000
-6.614284, 7.995295, 53.375000
-6.614284, 7.995295, 53.500000
-6.614284, 7.995295, 53.625000
-6.711552, 8.112873, 53.750000
-6.711552, 8.112873, 53.875000
-6.711552, 8.112873, 54.000000
-6.808821, 8.230451, 54.125000
-6.808821, 8.230451, 54.250000
-6.906090, 8.348029, 54.375000
-7.003359, 8.465607, 54.500000
-7.003359, 8.465607, 54.625000
-7.003359, 8.465607, 54.750000
-7.100628, 8.583185, 54.875000
-7.100628, 8.583185, 55.000000
-7.197897, 8.700763, 55.125000
-7.197897, 8.700763, 55.250000
