12.352645, -26.250708, 69.375000
12.414101, -26.381308, 69.500000
12.475557, -26.511909, 69.625000
12.537013, -26.642509, 69.750000
12.598469, -26.773110, 69.875000
12.598469, -26.773110, 70.000000
12.659925, -26.903710, 70.125000
12.721381, -27.034311, 70.250000
12.782837, -27.164911, 70.375000
12.844293, -27.295512, 70.500000
12.905749, -27.426112, 70.625000
12.967205, -27.556713, 70.750000
12.967205, -27.556713, 70.875000
13.028661, -27.687314, 71.000000
13.028661, -27.687314, 71.125000
13.090117, -27.817914, 71.250000
13.151573, -27.948515, 71.375000
13.213029, -28.079115, 71.500000
13.213029, -28.079115, 71.625000
13.274485, -28.209716, 71.750000
13.335941, -28.340316, 71.875000
13.397396, -28.470917, 72.000000
13.397396, -28.470917, 72.125000
13.458852, -28.601517, 72.250000
13.458852, -28.601517, 72.375000
13.520308, -28.732118, 72.500000
13.581764, -28.862718, 72.625000
13.643220, -28.993319, 72.750000
13.704676, -29.123919, 72.875000
13.766132, -29.254520, 73.000000
13.766132, -29.254520, 73.125000
13.827588, -29.385121, 73.250000
13.827588, -29.385121, 73.375000
13.889044, -29.515721, 73.500000
13.950500, -29.646322, 73.625000
14.011956, -29.776922, 73.750000
14.073412, -29.907523, 73.875000
14.134868, -30.038123, 74.000000
14.134868, -30.038123, 74.125000
14.196324, -30.168724, 74.250000
14.196324, -30.168724, 74.375000
14.257780, -30.299324, 74.500000
14.319236, -30.429925, 74.625000
14.380692, -30.560525, 74.750000
14.442148, -30.691126, 74.875000
14.503604, -30.821726, 75.000000
14.503604, -30.821726, 75.125000
14.565059, -30.952327, 75.250000
14.626515, -31.082927, 75.375000
14.687971, -31.213528, 75.500000
14.749427, -31.344129, 75.625000
14.749427, -31.344129, 75.750000
14.872339, -31.605330, 75.875000
14.872339, -31.605330, 76.000000
14.872339, -31.605330, 76.125000
14.933795, -31.735930, 76.250000
14.995251, -31.866531, 76.375000
15.056707, -31.997131, 76.500000
15.118163, -32.127732, 76.625000
15.118163, -32.127732, 76.750000
15.179619, -32.258332, 76.875000
15.241075, -32.388933, 77.000000
15.302531, -32.519533, 77.125000
15.363987, -32.650134, 77.250000
15.363987, -32.650134, 77.375000
15.425443, -32.780734, 77.500000
15.425443, -32.780734, 77.625000
15.486899, -32.911335, 77.750000
15.548355, -33.041936, 77.875000
15.609811, -33.172536, 78.000000
15.609811, -33.172536, 78.125000
15.671267, -33.303137, 78.250000
15.794178, -33.564338, 78.375000
15.794178, -33.564338, 78.500000
15.855634, -33.694938, 78.625000
15.855634, -33.694938, 78.750000
15.917090, -33.825539, 78.875000
15.978546, -33.956139, 79.000000
16.040002, -34.086740, 79.125000
16.040002, -34.086740, 79.250000
16.101458, -34.217340, 79.375000
16.101458, -34.217340, 79.500000
16.162914, -34.347941, 79.625000
16.224370, -34.478541, 79.750000
16.162914, -34.347941, 79.875000
16.224370, -34.478541, 80.000000
16.224370, -34.478541, 80.125000
16.224370, -34.478541, 80.250000
16.285826, -34.609142, 80.375000
16.285826, -34.609142, 80.500000
16.285826, -34.609142, 80.625000
3.341922, -6.558891, 43.375000
3.276394, -6.430286, 43.500000
3.341922, -6.558891, 43.625000
3.538506, -6.944709, 43.750000
3.472978, -6.816103, 43.875000
3.472978, -6.816103, 44.000000
3.604034, -7.073314, 44.125000
3.669562, -7.201920, 44.250000
3.604034, -7.073314, 44.375000
3.669562, -7.201920, 44.500000
3.735089, -7.330526, 44.625000
3.800617, -7.459131, 44.750000
3.800617, -7.459131, 44.875000
3.866145, -7.587737, 45.000000
3.866145, -7.587737, 45.125000
3.997201, -7.844949, 45.250000
3.997201, -7.844949, 45.375000
4.062729, -7.973554, 45.500000
4.062729, -7.973554, 45.625000
4.193785, -8.230766, 45.750000
4.259312, -8.359371, 45.875000
4.259312, -8.359371, 46.000000
4.259312, -8.359371, 46.125000
4.324840, -8.487977, 46.250000
4.390368, -8.616583, 46.375000
4.390368, -8.616583, 46.500000
4.390368, -8.616583, 46.625000
4.521424, -8.873794, 46.750000
4.521424, -8.873794, 46.875000
4.586952, -9.002400, 47.000000
4.586952, -9.002400, 47.125000
4.652480, -9.131006, 47.250000
4.718008, -9.259611, 47.375000
4.783536, -9.388217, 47.500000
4.849063, -9.516823, 47.625000
4.849063, -9.516823, 47.750000
4.849063, -9.516823, 47.875000
4.980119, -9.774034, 48.000000
5.045647, -9.902640, 48.125000
5.045647, -9.902640, 48.250000
5.045647, -9.902640, 48.375000
5.111175, -10.031246, 48.500000
5.176703, -10.159851, 48.625000
5.242231, -10.288457, 48.750000
5.242231, -10.288457, 48.875000
5.307759, -10.417063, 49.000000
5.373287, -10.545669, 49.125000
5.438814, -10.674274, 49.250000
5.438814, -10.674274, 49.375000
5.504342, -10.802880, 49.500000
5.504342, -10.802880, 49.625000
5.569870, -10.931486, 49.750000
5.569870, -10.931486, 49.875000
5.635398, -11.060091, 50.000000
5.635398, -11.060091, 50.125000
5.700926, -11.188697, 50.250000
5.766454, -11.317303, 50.375000
5.831982, -11.445909, 50.500000
5.831982, -11.445909, 50.625000
5.897510, -11.574514, 50.750000
5.897510, -11.574514, 50.875000
5.963037, -11.703120, 51.000000
6.028565, -11.831726, 51.125000
6.094093, -11.960331, 51.250000
6.159621, -12.088937, 51.375000
6.159621, -12.088937, 51.500000
6.290677, -12.346149, 51.625000
6.290677, -12.346149, 51.750000
6.290677, -12.346149, 51.875000
6.421733, -12.603360, 52.000000
6.356205, -12.474754, 52.125000
6.487261, -12.731966, 52.250000
6.487261, -12.731966, 52.375000
6.552788, -12.860571, 52.500000
6.618316, -12.989177, 52.625000
6.618316, -12.989177, 52.750000
6.749372, -13.246389, 52.875000
6.749372, -13.246389, 53.000000
6.814900, -13.374994, 53.125000
6.880428, -13.503600, 53.250000
6.880428, -13.503600, 53.375000
6.945956, -13.632206, 53.500000
6.945956, -13.632206, 53.625000
7.011484, -13.760811, 53.750000
7.077012, -13.889417, 53.875000
7.142539, -14.018023, 54.000000
7.208067, -14.146629, 54.125000
7.208067, -14.146629, 54.250000
7.273595, -14.275234, 54.375000
7.273595, -14.275234, 54.500000
7.404651, -14.532446, 54.625000
7.404651, -14.532446, 54.750000
7.470179, -14.661051, 54.875000
7.535707, -14.789657, 55.000000
7.601235, -14.918263, 55.125000
7.601235, -14.918263, 55.250000
7.666762, -15.046869, 55.375000
7.732290, -15.175474, 55.500000
7.797818, -15.304080, 55.625000
7.863346, -15.432686, 55.750000
7.863346, -15.432686, 55.875000
7.928874, -15.561291, 56.000000
7.994402, -15.689897, 56.125000
7.994402, -15.689897, 56.250000
8.059930, -15.818503, 56.375000
8.190986, -16.075714, 56.500000
8.190986, -16.075714, 56.625000
8.190986, -16.075714, 56.750000
8.256513, -16.204320, 56.875000
8.322041, -16.332926, 57.000000
8.387569, -16.461531, 57.125000
8.453097, -16.590137, 57.250000
8.518625, -16.718743, 57.375000
8.518625, -16.718743, 57.500000
8.584153, -16.847349, 57.625000
8.649681, -16.975954, 57.750000
8.715209, -17.104560, 57.875000
8.715209, -17.104560, 58.000000
8.780736, -17.233166, 58.125000
8.846264, -17.361771, 58.250000
8.846264, -17.361771, 58.375000
8.977320, -17.618983, 58.500000
8.977320, -17.618983, 58.625000
9.108376, -17.876194, 58.750000
9.108376, -17.876194, 58.875000
9.173904, -18.004800, 59.000000
9.173904, -18.004800, 59.125000
9.239432, -18.133406, 59.250000
9.304960, -18.262011, 59.375000
9.304960, -18.262011, 59.500000
9.370487, -18.390617, 59.625000
9.436015, -18.519223, 59.750000
9.501543, -18.647829, 59.875000
9.567071, -18.776434, 60.000000
9.501543, -18.647829, 60.125000
9.632599, -18.905040, 60.250000
9.632599, -18.905040, 60.375000
9.698127, -19.033646, 60.500000
9.698127, -19.033646, 60.625000
9.829183, -19.290857, 60.750000
9.894711, -19.419463, 60.875000
9.894711, -19.419463, 61.000000
9.960238, -19.548069, 61.125000
9.960238, -19.548069, 61.250000
10.091294, -19.805280, 61.375000
10.091294, -19.805280, 61.500000
10.156822, -19.933886, 61.625000
10.222350, -20.062491, 61.750000
10.287878, -20.191097, 61.875000
10.353406, -20.319703, 62.000000
10.353406, -20.319703, 62.125000
10.418934, -20.448309, 62.250000
10.484461, -20.576914, 62.375000
10.549989, -20.705520, 62.500000
10.615517, -20.834126, 62.625000
10.615517, -20.834126, 62.750000
10.681045, -20.962731, 62.875000
10.681045, -20.962731, 63.000000
10.812101, -21.219943, 63.125000
10.812101, -21.219943, 63.250000
10.877629, -21.348549, 63.375000
10.943157, -21.477154, 63.500000
11.008685, -21.605760, 63.625000
11.074212, -21.734366, 63.750000
11.074212, -21.734366, 63.875000
11.205268, -21.991577, 64.000000
11.205268, -21.991577, 64.125000
11.270796, -22.120183, 64.250000
11.270796, -22.120183, 64.375000
11.270796, -22.120183, 64.500000
11.401852, -22.377394, 64.625000
11.467380, -22.506000, 64.750000
11.467380, -22.506000, 64.875000
11.532908, -22.634606, 65.000000
11.598436, -22.763211, 65.125000
11.663963, -22.891817, 65.250000
11.729491, -23.020423, 65.375000
11.729491, -23.020423, 65.500000
11.795019, -23.149029, 65.625000
11.860547, -23.277634, 65.750000
11.860547, -23.277634, 65.875000
11.991603, -23.534846, 66.000000
11.991603, -23.534846, 66.125000
11.991603, -23.534846, 66.250000
12.057131, -23.663451, 66.375000
12.122659, -23.792057, 66.500000
12.122659, -23.792057, 66.625000
12.188186, -23.920663, 66.750000
12.253714, -24.049269, 66.875000
12.253714, -24.049269, 67.000000
12.319242, -24.177874, 67.125000
12.384770, -24.306480, 67.250000
12.450298, -24.435086, 67.375000
12.515826, -24.563691, 67.500000
12.515826, -24.563691, 67.625000
12.581354, -24.692297, 67.750000
12.646882, -24.820903, 67.875000
12.646882, -24.820903, 68.000000
12.712410, -24.949509, 68.125000
12.777937, -25.078114, 68.250000
12.843465, -25.206720, 68.375000
12.908993, -25.335326, 68.500000
12.974521, -25.463931, 68.625000
12.974521, -25.463931, 68.750000
13.105577, -25.721143, 68.875000
13.105577, -25.721143, 69.000000
13.171105, -25.849749, 69.125000
13.236633, -25.978354, 69.250000
13.236633, -25.978354, 69.375000
13.367688, -26.235566, 69.500000
13.367688, -26.235566, 69.625000
13.433216, -26.364171, 69.750000
13.433216, -26.364171, 69.875000
13.498744, -26.492777, 70.000000
13.564272, -26.621383, 70.125000
13.629800, -26.749989, 70.250000
13.695328, -26.878594, 70.375000
13.760856, -27.007200, 70.500000
13.760856, -27.007200, 70.625000
13.826384, -27.135806, 70.750000
13.891911, -27.264411, 70.875000
13.957439, -27.393017, 71.000000
13.957439, -27.393017, 71.125000
14.022967, -27.521623, 71.250000
14.088495, -27.650229, 71.375000
14.088495, -27.650229, 71.500000
14.154023, -27.778834, 71.625000
14.219551, -27.907440, 71.750000
14.285079, -28.036046, 71.875000
14.285079, -28.036046, 72.000000
14.285079, -28.036046, 72.125000
14.416135, -28.293257, 72.250000
14.416135, -28.293257, 72.375000
14.481662, -28.421863, 72.500000
14.481662, -28.421863, 72.625000
14.547190, -28.550469, 72.750000
14.612718, -28.679074, 72.875000
14.678246, -28.807680, 73.000000
14.678246, -28.807680, 73.125000
14.678246, -28.807680, 73.250000
14.743774, -28.936286, 73.375000
14.809302, -29.064891, 73.500000
14.874830, -29.193497, 73.625000
14.940358, -29.322103, 73.750000
15.005886, -29.450709, 73.875000
15.071413, -29.579314, 74.000000
15.136941, -29.707920, 74.125000
15.202469, -29.836526, 74.250000
15.202469, -29.836526, 74.375000
15.267997, -29.965131, 74.500000
15.267997, -29.965131, 74.625000
15.333525, -30.093737, 74.750000
15.464581, -30.350949, 74.875000
15.464581, -30.350949, 75.000000
15.530109, -30.479554, 75.125000
15.530109, -30.479554, 75.250000
15.595636, -30.608160, 75.375000
15.661164, -30.736766, 75.500000
15.661164, -30.736766, 75.625000
15.792220, -30.993977, 75.750000
15.857748, -31.122583, 75.875000
15.857748, -31.122583, 76.000000
15.923276, -31.251189, 76.125000
15.988804, -31.379794, 76.250000
15.988804, -31.379794, 76.375000
16.054332, -31.508400, 76.500000
16.119860, -31.637006, 76.625000
16.185387, -31.765611, 76.750000
16.250915, -31.894217, 76.875000
16.250915, -31.894217, 77.000000
16.250915, -31.894217, 77.125000
16.381971, -32.151429, 77.250000
16.381971, -32.151429, 77.375000
16.447499, -32.280034, 77.500000
16.447499, -32.280034, 77.625000
16.578555, -32.537246, 77.750000
16.578555, -32.537246, 77.875000
16.644083, -32.665851, 78.000000
16.644083, -32.665851, 78.125000
16.775138, -32.923063, 78.250000
16.775138, -32.923063, 78.375000
16.840666, -33.051669, 78.500000
16.906194, -33.180274, 78.625000
16.906194, -33.180274, 78.750000
16.971722, -33.308880, 78.875000
16.971722, -33.308880, 79.000000
17.102778, -33.566091, 79.125000
17.102778, -33.566091, 79.250000
17.233834, -33.823303, 79.375000
17.233834, -33.823303, 79.500000
17.233834, -33.823303, 79.625000
17.299361, -33.951909, 79.750000
17.364889, -34.080514, 79.875000
17.299361, -33.951909, 80.000000
17.364889, -34.080514, 80.125000
17.364889, -34.080514, 80.250000
17.299361, -33.951909, 80.375000
17.299361, -33.951909, 80.500000
17.364889, -34.080514, 80.625000
17.561473, -34.466331, 80.750000
3.615828, -6.577167, 43.500000
3.546293, -6.450683, 43.625000
3.685363, -6.703651, 43.750000
3.685363, -6.703651, 43.875000
3.685363, -6.703651, 44.000000
3.824433, -6.956619, 44.125000
3.893969, -7.083103, 44.250000
3.824433, -6.956619, 44.375000
3.893969, -7.083103, 44.500000
3.963504, -7.209587, 44.625000
4.033039, -7.336071, 44.750000
4.033039, -7.336071, 44.875000
4.033039, -7.336071, 45.000000
4.172109, -7.589038, 45.125000
4.241644, -7.715522, 45.250000
4.241644, -7.715522, 45.375000
4.311180, -7.842006, 45.500000
4.380715, -7.968490, 45.625000
4.450250, -8.094974, 45.750000
4.519785, -8.221458, 45.875000
4.589320, -8.347942, 46.000000
4.519785, -8.221458, 46.125000
4.658855, -8.474426, 46.250000
4.658855, -8.474426, 46.375000
4.728390, -8.600910, 46.500000
4.728390, -8.600910, 46.625000
4.797926, -8.727394, 46.750000
4.867461, -8.853878, 46.875000
4.936996, -8.980362, 47.000000
5.006531, -9.106846, 47.125000
5.006531, -9.106846, 47.250000
5.076066, -9.233330, 47.375000
5.145601, -9.359814, 47.500000
5.215137, -9.486298, 47.625000
5.284672, -9.612782, 47.750000
5.284672, -9.612782, 47.875000
5.354207, -9.739266, 48.000000
5.423742, -9.865750, 48.125000
5.423742, -9.865750, 48.250000
5.493277, -9.992234, 48.375000
5.562812, -10.118718, 48.500000
5.632347, -10.245202, 48.625000
5.632347, -10.245202, 48.750000
5.701883, -10.371686, 48.875000
5.771418, -10.498170, 49.000000
5.840953, -10.624654, 49.125000
5.910488, -10.751138, 49.250000
5.910488, -10.751138, 49.375000
5.910488, -10.751138, 49.500000
5.980023, -10.877622, 49.625000
6.049558, -11.004106, 49.750000
6.049558, -11.004106, 49.875000
6.188629, -11.257074, 50.000000
6.188629, -11.257074, 50.125000
6.258164, -11.383558, 50.250000
6.327699, -11.510042, 50.375000
6.327699, -11.510042, 50.500000
6.397234, -11.636526, 50.625000
6.466769, -11.763010, 50.750000
6.466769, -11.763010, 50.875000
6.536304, -11.889494, 51.000000
6.605840, -12.015978, 51.125000
6.675375, -12.142462, 51.250000
6.744910, -12.268946, 51.375000
6.814445, -12.395429, 51.500000
6.814445, -12.395429, 51.625000
6.883980, -12.521913, 51.750000
6.953515, -12.648397, 51.875000
7.023050, -12.774881, 52.000000
7.023050, -12.774881, 52.125000
7.092586, -12.901365, 52.250000
7.162121, -13.027849, 52.375000
7.231656, -13.154333, 52.500000
7.301191, -13.280817, 52.625000
7.370726, -13.407301, 52.750000
7.370726, -13.407301, 52.875000
7.440261, -13.533785, 53.000000
7.509797, -13.660269, 53.125000
7.579332, -13.786753, 53.250000
7.579332, -13.786753, 53.375000
7.648867, -13.913237, 53.500000
7.718402, -14.039721, 53.625000
7.787937, -14.166205, 53.750000
7.857472, -14.292689, 53.875000
7.927007, -14.419173, 54.000000
7.927007, -14.419173, 54.125000
8.066078, -14.672141, 54.250000
8.066078, -14.672141, 54.375000
8.135613, -14.798625, 54.500000
8.205148, -14.925109, 54.625000
8.274683, -15.051593, 54.750000
8.344218, -15.178077, 54.875000
8.344218, -15.178077, 55.000000
8.413754, -15.304561, 55.125000
8.413754, -15.304561, 55.250000
8.483289, -15.431045, 55.375000
8.622359, -15.684013, 55.500000
8.622359, -15.684013, 55.625000
8.691894, -15.810497, 55.750000
8.761429, -15.936981, 55.875000
8.830964, -16.063465, 56.000000
8.830964, -16.063465, 56.125000
8.970035, -16.316433, 56.250000
9.039570, -16.442917, 56.375000
9.039570, -16.442917, 56.500000
9.109105, -16.569401, 56.625000
9.178640, -16.695885, 56.750000
9.248175, -16.822369, 56.875000
9.317711, -16.948853, 57.000000
9.387246, -17.075337, 57.125000
9.456781, -17.201821, 57.250000
9.526316, -17.328304, 57.375000
9.595851, -17.454788, 57.500000
9.595851, -17.454788, 57.625000
9.665386, -17.581272, 57.750000
9.734921, -17.707756, 57.875000
9.804457, -17.834240, 58.000000
9.873992, -17.960724, 58.125000
9.943527, -18.087208, 58.250000
9.943527, -18.087208, 58.375000
10.082597, -18.340176, 58.500000
10.152132, -18.466660, 58.625000
10.152132, -18.466660, 58.750000
10.152132, -18.466660, 58.875000
10.221668, -18.593144, 59.000000
10.291203, -18.719628, 59.125000
10.360738, -18.846112, 59.250000
10.430273, -18.972596, 59.375000
10.430273, -18.972596, 59.500000
10.499808, -19.099080, 59.625000
10.569343, -19.225564, 59.750000
10.638878, -19.352048, 59.875000
10.638878, -19.352048, 60.000000
10.708414, -19.478532, 60.125000
10.777949, -19.605016, 60.250000
10.847484, -19.731500, 60.375000
10.917019, -19.857984, 60.500000
10.917019, -19.857984, 60.625000
10.986554, -19.984468, 60.750000
11.056089, -20.110952, 60.875000
11.125625, -20.237436, 61.000000
11.195160, -20.363920, 61.125000
11.264695, -20.490404, 61.250000
11.334230, -20.616888, 61.375000
11.334230, -20.616888, 61.500000
11.403765, -20.743372, 61.625000
11.473300, -20.869856, 61.750000
11.612371, -21.122824, 61.875000
11.612371, -21.122824, 62.000000
11.681906, -21.249308, 62.125000
11.681906, -21.249308, 62.250000
11.751441, -21.375792, 62.375000
11.820976, -21.502276, 62.500000
11.890511, -21.628760, 62.625000
11.960046, -21.755244, 62.750000
12.029582, -21.881728, 62.875000
12.099117, -22.008212, 63.000000
12.168652, -22.134696, 63.125000
12.238187, -22.261179, 63.250000
12.307722, -22.387663, 63.375000
12.377257, -22.514147, 63.500000
12.377257, -22.514147, 63.625000
12.446792, -22.640631, 63.750000
12.516328, -22.767115, 63.875000
12.585863, -22.893599, 64.000000
12.655398, -23.020083, 64.125000
12.724933, -23.146567, 64.250000
12.724933, -23.146567, 64.375000
12.794468, -23.273051, 64.500000
12.864003, -23.399535, 64.625000
12.933539, -23.526019, 64.750000
13.003074, -23.652503, 64.875000
13.003074, -23.652503, 65.000000
13.072609, -23.778987, 65.125000
13.142144, -23.905471, 65.250000
13.211679, -24.031955, 65.375000
13.281214, -24.158439, 65.500000
13.281214, -24.158439, 65.625000
13.350749, -24.284923, 65.750000
13.420285, -24.411407, 65.875000
13.489820, -24.537891, 66.000000
13.559355, -24.664375, 66.125000
13.559355, -24.664375, 66.250000
13.628890, -24.790859, 66.375000
13.698425, -24.917343, 66.500000
13.767960, -25.043827, 66.625000
13.837496, -25.170311, 66.750000
13.837496, -25.170311, 66.875000
13.907031, -25.296795, 67.000000
13.976566, -25.423279, 67.125000
14.046101, -25.549763, 67.250000
14.115636, -25.676247, 67.375000
14.185171, -25.802731, 67.500000
14.254706, -25.929215, 67.625000
14.324242, -26.055699, 67.750000
14.324242, -26.055699, 67.875000
14.393777, -26.182183, 68.000000
14.463312, -26.308667, 68.125000
14.532847, -26.435151, 68.250000
14.602382, -26.561635, 68.375000
14.671917, -26.688119, 68.500000
14.741453, -26.814603, 68.625000
14.741453, -26.814603, 68.750000
14.810988, -26.941087, 68.875000
14.880523, -27.067571, 69.000000
15.019593, -27.320538, 69.125000
15.019593, -27.320538, 69.250000
15.019593, -27.320538, 69.375000
15.158663, -27.573506, 69.500000
15.158663, -27.573506, 69.625000
15.228199, -27.699990, 69.750000
15.297734, -27.826474, 69.875000
15.367269, -27.952958, 70.000000
15.436804, -28.079442, 70.125000
15.436804, -28.079442, 70.250000
15.506339, -28.205926, 70.375000
15.645410, -28.458894, 70.500000
15.645410, -28.458894, 70.625000
15.714945, -28.585378, 70.750000
15.784480, -28.711862, 70.875000
15.784480, -28.711862, 71.000000
15.923550, -28.964830, 71.125000
15.993085, -29.091314, 71.250000
15.993085, -29.091314, 71.375000
15.993085, -29.091314, 71.500000
16.062620, -29.217798, 71.625000
16.201691, -29.470766, 71.750000
16.201691, -29.470766, 71.875000
16.271226, -29.597250, 72.000000
16.340761, -29.723734, 72.125000
16.340761, -29.723734, 72.250000
16.410296, -29.850218, 72.375000
16.549366, -30.103186, 72.500000
16.549366, -30.103186, 72.625000
16.618902, -30.229670, 72.750000
16.688437, -30.356154, 72.875000
16.757972, -30.482638, 73.000000
16.827507, -30.609122, 73.125000
16.827507, -30.609122, 73.250000
16.897042, -30.735606, 73.375000
16.966577, -30.862090, 73.500000
17.036113, -30.988574, 73.625000
17.105648, -31.115058, 73.750000
17.105648, -31.115058, 73.875000
17.175183, -31.241542, 74.000000
17.244718, -31.368026, 74.125000
17.314253, -31.494510, 74.250000
17.314253, -31.494510, 74.375000
17.383788, -31.620994, 74.500000
17.453323, -31.747478, 74.625000
17.592394, -32.000446, 74.750000
17.592394, -32.000446, 74.875000
17.661929, -32.126929, 75.000000
17.731464, -32.253413, 75.125000
17.800999, -32.379897, 75.250000
17.870534, -32.506381, 75.375000
17.940070, -32.632865, 75.500000
17.940070, -32.632865, 75.625000
18.009605, -32.759349, 75.750000
18.009605, -32.759349, 75.875000
18.079140, -32.885833, 76.000000
18.148675, -33.012317, 76.125000
18.218210, -33.138801, 76.250000
18.287745, -33.265285, 76.375000
18.357280, -33.391769, 76.500000
18.357280, -33.391769, 76.625000
18.426816, -33.518253, 76.750000
18.496351, -33.644737, 76.875000
18.565886, -33.771221, 77.000000
18.635421, -33.897705, 77.125000
18.635421, -33.897705, 77.250000
18.774491, -34.150673, 77.375000
18.774491, -34.150673, 77.500000
18.844027, -34.277157, 77.625000
18.913562, -34.403641, 77.750000
18.913562, -34.403641, 77.875000
18.983097, -34.530125, 78.000000
19.052632, -34.656609, 78.125000
19.122167, -34.783093, 78.250000
19.191702, -34.909577, 78.375000
19.330773, -35.162545, 78.500000
19.330773, -35.162545, 78.625000
19.400308, -35.289029, 78.750000
19.469843, -35.415513, 78.875000
19.539378, -35.541997, 79.000000
19.608913, -35.668481, 79.125000
19.678448, -35.794965, 79.250000
19.817519, -36.047933, 79.375000
19.887054, -36.174417, 79.500000
19.887054, -36.174417, 79.625000
20.026124, -36.427385, 79.750000
20.026124, -36.427385, 79.875000
20.095659, -36.553869, 80.000000
20.095659, -36.553869, 80.125000
20.095659, -36.553869, 80.250000
20.165194, -36.680353, 80.375000
20.234730, -36.806837, 80.500000
20.373800, -37.059805, 80.625000
20.443335, -37.186288, 80.750000
20.443335, -37.186288, 80.875000
20.582405, -37.439256, 81.000000
3.747164, -6.336108, 43.375000
3.967585, -6.708820, 43.500000
3.967585, -6.708820, 43.625000
3.967585, -6.708820, 43.750000
3.967585, -6.708820, 43.875000
3.967585, -6.708820, 44.000000
4.188007, -7.081532, 44.125000
4.188007, -7.081532, 44.250000
4.188007, -7.081532, 44.375000
4.261480, -7.205770, 44.500000
4.408428, -7.454245, 44.625000
4.481902, -7.578482, 44.750000
4.481902, -7.578482, 44.875000
4.555376, -7.702719, 45.000000
4.628849, -7.826957, 45.125000
4.628849, -7.826957, 45.250000
4.702323, -7.951194, 45.375000
4.775797, -8.075432, 45.500000
4.849271, -8.199669, 45.625000
4.849271, -8.199669, 45.750000
4.922745, -8.323906, 45.875000
4.996218, -8.448144, 46.000000
4.996218, -8.448144, 46.125000
5.069692, -8.572381, 46.250000
5.143166, -8.696619, 46.375000
5.143166, -8.696619, 46.500000
5.216640, -8.820856, 46.625000
5.216640, -8.820856, 46.750000
5.290114, -8.945094, 46.875000
5.290114, -8.945094, 47.000000
5.363587, -9.069331, 47.125000
5.437061, -9.193568, 47.250000
5.510535, -9.317806, 47.375000
5.584009, -9.442043, 47.500000
5.730956, -9.690518, 47.625000
5.730956, -9.690518, 47.750000
5.730956, -9.690518, 47.875000
5.877904, -9.938993, 48.000000
5.804430, -9.814755, 48.125000
5.877904, -9.938993, 48.250000
6.024852, -10.187468, 48.375000
6.024852, -10.187468, 48.500000
6.098325, -10.311705, 48.625000
6.171799, -10.435942, 48.750000
6.171799, -10.435942, 48.875000
6.245273, -10.560180, 49.000000
6.245273, -10.560180, 49.125000
6.318747, -10.684417, 49.250000
6.392221, -10.808655, 49.375000
6.465694, -10.932892, 49.500000
6.539168, -11.057130, 49.625000
6.539168, -11.057130, 49.750000
6.612642, -11.181367, 49.875000
6.686116, -11.305604, 50.000000
6.686116, -11.305604, 50.125000
6.686116, -11.305604, 50.250000
6.759590, -11.429842, 50.375000
6.833063, -11.554079, 50.500000
6.906537, -11.678317, 50.625000
6.980011, -11.802554, 50.750000
6.980011, -11.802554, 50.875000
7.053485, -11.926791, 51.000000
7.126959, -12.051029, 51.125000
7.200432, -12.175266, 51.250000
7.273906, -12.299504, 51.375000
7.347380, -12.423741, 51.500000
7.347380, -12.423741, 51.625000
7.347380, -12.423741, 51.750000
7.420854, -12.547978, 51.875000
7.494328, -12.672216, 52.000000
7.567801, -12.796453, 52.125000
7.714749, -13.044928, 52.250000
7.714749, -13.044928, 52.375000
7.788223, -13.169165, 52.500000
7.788223, -13.169165, 52.625000
7.861697, -13.293403, 52.750000
7.935170, -13.417640, 52.875000
8.008644, -13.541878, 53.000000
8.008644, -13.541878, 53.125000
8.082118, -13.666115, 53.250000
8.155592, -13.790353, 53.375000
8.302539, -14.038827, 53.500000
8.376013, -14.163065, 53.625000
8.376013, -14.163065, 53.750000
8.449487, -14.287302, 53.875000
8.522961, -14.411540, 54.000000
8.522961, -14.411540, 54.125000
8.596435, -14.535777, 54.250000
8.596435, -14.535777, 54.375000
8.743382, -14.784252, 54.500000
8.743382, -14.784252, 54.625000
8.816856, -14.908489, 54.750000
8.890330, -15.032727, 54.875000
8.890330, -15.032727, 55.000000
8.890330, -15.032727, 55.125000
9.037277, -15.281201, 55.250000
9.110751, -15.405439, 55.375000
9.184225, -15.529676, 55.500000
9.257699, -15.653914, 55.625000
9.331173, -15.778151, 55.750000
9.404646, -15.902389, 55.875000
9.478120, -16.026626, 56.000000
9.478120, -16.026626, 56.125000
9.478120, -16.026626, 56.250000
9.698542, -16.399338, 56.375000
9.698542, -16.399338, 56.500000
9.772015, -16.523576, 56.625000
9.845489, -16.647813, 56.750000
9.845489, -16.647813, 56.875000
9.992437, -16.896288, 57.000000
9.992437, -16.896288, 57.125000
9.992437, -16.896288, 57.250000
10.065911, -17.020525, 57.375000
10.139384, -17.144763, 57.500000
10.212858, -17.269000, 57.625000
10.286332, -17.393237, 57.750000
10.359806, -17.517475, 57.875000
10.359806, -17.517475, 58.000000
10.506753, -17.765950, 58.125000
10.653701, -18.014424, 58.250000
10.653701, -18.014424, 58.375000
10.727175, -18.138662, 58.500000
10.727175, -18.138662, 58.625000
10.800649, -18.262899, 58.750000
10.947596, -18.511374, 58.875000
10.947596, -18.511374, 59.000000
11.021070, -18.635612, 59.125000
11.021070, -18.635612, 59.250000
11.168018, -18.884086, 59.375000
11.168018, -18.884086, 59.500000
11.168018, -18.884086, 59.625000
11.241491, -19.008324, 59.750000
11.388439, -19.256799, 59.875000
11.388439, -19.256799, 60.000000
11.461913, -19.381036, 60.125000
11.535387, -19.505273, 60.250000
11.535387, -19.505273, 60.375000
11.608860, -19.629511, 60.500000
11.682334, -19.753748, 60.625000
11.682334, -19.753748, 60.750000
11.755808, -19.877986, 60.875000
11.829282, -20.002223, 61.000000
11.902756, -20.126460, 61.125000
12.049703, -20.374935, 61.250000
12.049703, -20.374935, 61.375000
12.196651, -20.623410, 61.500000
12.123177, -20.499173, 61.625000
12.196651, -20.623410, 61.750000
12.343598, -20.871885, 61.875000
12.343598, -20.871885, 62.000000
12.343598, -20.871885, 62.125000
12.417072, -20.996122, 62.250000
12.637494, -21.368835, 62.375000
12.637494, -21.368835, 62.500000
12.710967, -21.493072, 62.625000
12.710967, -21.493072, 62.750000
12.784441, -21.617309, 62.875000
12.857915, -21.741547, 63.000000
12.931389, -21.865784, 63.125000
13.004863, -21.990022, 63.250000
13.078336, -22.114259, 63.375000
13.078336, -22.114259, 63.500000
13.151810, -22.238496, 63.625000
13.225284, -22.362734, 63.750000
13.298758, -22.486971, 63.875000
13.445705, -22.735446, 64.000000
13.445705, -22.735446, 64.125000
13.445705, -22.735446, 64.250000
13.519179, -22.859683, 64.375000
13.592653, -22.983921, 64.500000
13.666127, -23.108158, 64.625000
13.739601, -23.232396, 64.750000
13.813074, -23.356633, 64.875000
13.886548, -23.480871, 65.000000
13.886548, -23.480871, 65.125000
14.033496, -23.729345, 65.250000
14.033496, -23.729345, 65.375000
14.106970, -23.853583, 65.500000
14.180443, -23.977820, 65.625000
14.180443, -23.977820, 65.750000
14.253917, -24.102058, 65.875000
14.327391, -24.226295, 66.000000
14.327391, -24.226295, 66.125000
14.400865, -24.350532, 66.250000
14.474339, -24.474770, 66.375000
14.547812, -24.599007, 66.500000
14.621286, -24.723245, 66.625000
14.621286, -24.723245, 66.750000
14.694760, -24.847482, 66.875000
14.841708, -25.095957, 67.000000
14.841708, -25.095957, 67.125000
14.841708, -25.095957, 67.250000
14.915181, -25.220194, 67.375000
14.988655, -25.344432, 67.500000
15.135603, -25.592907, 67.625000
15.135603, -25.592907, 67.750000
15.282550, -25.841381, 67.875000
15.282550, -25.841381, 68.000000
15.282550, -25.841381, 68.125000
15.356024, -25.965619, 68.250000
15.429498, -26.089856, 68.375000
15.576446, -26.338331, 68.500000
15.576446, -26.338331, 68.625000
15.576446, -26.338331, 68.750000
15.649919, -26.462568, 68.875000
15.796867, -26.711043, 69.000000
15.870341, -26.835281, 69.125000
15.943815, -26.959518, 69.250000
16.017288, -27.083755, 69.375000
16.017288, -27.083755, 69.500000
16.090762, -27.207993, 69.625000
16.164236, -27.332230, 69.750000
16.164236, -27.332230, 69.875000
16.311184, -27.580705, 70.000000
16.384657, -27.704942, 70.125000
16.384657, -27.704942, 70.250000
16.458131, -27.829180, 70.375000
16.458131, -27.829180, 70.500000
16.531605, -27.953417, 70.625000
16.605079, -28.077655, 70.750000
16.678553, -28.201892, 70.875000
16.678553, -28.201892, 71.000000
16.752026, -28.326130, 71.125000
16.825500, -28.450367, 71.250000
16.898974, -28.574604, 71.375000
16.898974, -28.574604, 71.500000
16.972448, -28.698842, 71.625000
17.119395, -28.947317, 71.750000
17.192869, -29.071554, 71.875000
17.192869, -29.071554, 72.000000
17.339817, -29.320029, 72.125000
17.413291, -29.444266, 72.250000
17.486764, -29.568504, 72.375000
17.486764, -29.568504, 72.500000
17.560238, -29.692741, 72.625000
17.560238, -29.692741, 72.750000
17.633712, -29.816978, 72.875000
17.707186, -29.941216, 73.000000
17.854133, -30.189691, 73.125000
17.780660, -30.065453, 73.250000
17.854133, -30.189691, 73.375000
17.927607, -30.313928, 73.500000
18.001081, -30.438166, 73.625000
18.074555, -30.562403, 73.750000
18.074555, -30.562403, 73.875000
18.148029, -30.686640, 74.000000
18.221502, -30.810878, 74.125000
18.294976, -30.935115, 74.250000
18.441924, -31.183590, 74.375000
18.368450, -31.059353, 74.500000
18.515397, -31.307827, 74.625000
18.588871, -31.432065, 74.750000
18.662345, -31.556302, 74.875000
18.735819, -31.680540, 75.000000
18.735819, -31.680540, 75.125000
18.809293, -31.804777, 75.250000
18.809293, -31.804777, 75.375000
18.956240, -32.053252, 75.500000
19.029714, -32.177489, 75.625000
19.029714, -32.177489, 75.750000
19.103188, -32.301727, 75.875000
19.176662, -32.425964, 76.000000
19.176662, -32.425964, 76.125000
19.250135, -32.550201, 76.250000
19.323609, -32.674439, 76.375000
19.397083, -32.798676, 76.500000
19.397083, -32.798676, 76.625000
19.470557, -32.922914, 76.750000
19.544031, -33.047151, 76.875000
19.617504, -33.171389, 77.000000
19.690978, -33.295626, 77.125000
19.690978, -33.295626, 77.250000
19.764452, -33.419863, 77.375000
19.911400, -33.668338, 77.500000
19.911400, -33.668338, 77.625000
19.984873, -33.792576, 77.750000
19.984873, -33.792576, 77.875000
20.131821, -34.041050, 78.000000
20.205295, -34.165288, 78.125000
20.278769, -34.289525, 78.250000
20.352242, -34.413763, 78.375000
20.425716, -34.538000, 78.500000
20.499190, -34.662237, 78.625000
20.572664, -34.786475, 78.750000
20.719611, -35.034950, 78.875000
20.646138, -34.910712, 79.000000
20.719611, -35.034950, 79.125000
20.866559, -35.283425, 79.250000
20.940033, -35.407662, 79.375000
21.013507, -35.531899, 79.500000
21.013507, -35.531899, 79.625000
21.086980, -35.656137, 79.750000
21.160454, -35.780374, 79.875000
21.233928, -35.904612, 80.000000
21.233928, -35.904612, 80.125000
21.307402, -36.028849, 80.250000
21.380876, -36.153086, 80.375000
21.307402, -36.028849, 80.500000
21.454349, -36.277324, 80.625000
21.527823, -36.401561, 80.750000
21.527823, -36.401561, 80.875000
21.674771, -36.650036, 81.000000
21.674771, -36.650036, 81.125000
4.099017, -6.459017, 43.500000
4.021677, -6.337148, 43.625000
4.099017, -6.459017, 43.750000
4.176357, -6.580885, 43.875000
4.253696, -6.702753, 44.000000
4.331036, -6.824621, 44.125000
4.331036, -6.824621, 44.250000
4.408376, -6.946490, 44.375000
4.485716, -7.068358, 44.500000
4.563056, -7.190226, 44.625000
4.563056, -7.190226, 44.750000
4.563056, -7.190226, 44.875000
4.717736, -7.433963, 45.000000
4.795076, -7.555831, 45.125000
4.795076, -7.555831, 45.250000
4.872416, -7.677699, 45.375000
4.949756, -7.799567, 45.500000
5.027096, -7.921436, 45.625000
5.104436, -8.043304, 45.750000
5.181776, -8.165172, 45.875000
5.181776, -8.165172, 46.000000
5.259116, -8.287040, 46.125000
5.336456, -8.408908, 46.250000
5.336456, -8.408908, 46.375000
5.491135, -8.652645, 46.500000
5.491135, -8.652645, 46.625000
5.491135, -8.652645, 46.750000
5.568475, -8.774513, 46.875000
5.723155, -9.018250, 47.000000
5.723155, -9.018250, 47.125000
5.800495, -9.140118, 47.250000
5.800495, -9.140118, 47.375000
5.955175, -9.383854, 47.500000
5.877835, -9.261986, 47.625000
6.032515, -9.505723, 47.750000
6.032515, -9.505723, 47.875000
6.264535, -9.871327, 48.000000
6.264535, -9.871327, 48.125000
6.341875, -9.993196, 48.250000
6.341875, -9.993196, 48.375000
6.419215, -10.115064, 48.500000
6.496555, -10.236932, 48.625000
6.573895, -10.358800, 48.750000
6.573895, -10.358800, 48.875000
6.651235, -10.480669, 49.000000
6.651235, -10.480669, 49.125000
6.728574, -10.602537, 49.250000
6.805914, -10.724405, 49.375000
6.883254, -10.846273, 49.500000
6.883254, -10.846273, 49.625000
6.960594, -10.968141, 49.750000
7.115274, -11.211878, 49.875000
7.037934, -11.090010, 50.000000
7.115274, -11.211878, 50.125000
7.192614, -11.333746, 50.250000
7.269954, -11.455614, 50.375000
7.347294, -11.577483, 50.500000
7.347294, -11.577483, 50.625000
7.424634, -11.699351, 50.750000
7.501974, -11.821219, 50.875000
7.579314, -11.943087, 51.000000
7.656654, -12.064956, 51.125000
7.656654, -12.064956, 51.250000
7.733994, -12.186824, 51.375000
7.811334, -12.308692, 51.500000
7.888673, -12.430560, 51.625000
7.888673, -12.430560, 51.750000
7.966013, -12.552429, 51.875000
8.043353, -12.674297, 52.000000
8.120693, -12.796165, 52.125000
8.120693, -12.796165, 52.250000
8.198033, -12.918033, 52.375000
8.352713, -13.161770, 52.500000
8.352713, -13.161770, 52.625000
8.430053, -13.283638, 52.750000
8.584733, -13.527375, 52.875000
8.584733, -13.527375, 53.000000
8.662073, -13.649243, 53.125000
8.739413, -13.771111, 53.250000
8.816753, -13.892979, 53.375000
8.816753, -13.892979, 53.500000
8.971433, -14.136716, 53.625000
8.971433, -14.136716, 53.750000
9.048773, -14.258584, 53.875000
9.126112, -14.380452, 54.000000
9.203452, -14.502320, 54.125000
9.203452, -14.502320, 54.250000
9.280792, -14.624189, 54.375000
9.358132, -14.746057, 54.500000
9.435472, -14.867925, 54.625000
9.512812, -14.989793, 54.750000
9.512812, -14.989793, 54.875000
9.590152, -15.111662, 55.000000
9.667492, -15.233530, 55.125000
9.744832, -15.355398, 55.250000
9.822172, -15.477266, 55.375000
9.899512, -15.599135, 55.500000
9.976852, -15.721003, 55.625000
9.976852, -15.721003, 55.750000
10.131532, -15.964739, 55.875000
10.208872, -16.086608, 56.000000
10.286211, -16.208476, 56.125000
10.363551, -16.330344, 56.250000
10.363551, -16.330344, 56.375000
10.518231, -16.574080, 56.500000
10.595571, -16.695949, 56.625000
10.595571, -16.695949, 56.750000
10.672911, -16.817817, 56.875000
10.750251, -16.939685, 57.000000
10.827591, -17.061553, 57.125000
10.904931, -17.183422, 57.250000
10.982271, -17.305290, 57.375000
11.136951, -17.549026, 57.500000
11.059611, -17.427158, 57.625000
11.136951, -17.549026, 57.750000
11.214291, -17.670895, 57.875000
11.291631, -17.792763, 58.000000
11.368971, -17.914631, 58.125000
11.446311, -18.036499, 58.250000
11.523650, -18.158368, 58.375000
11.600990, -18.280236, 58.500000
11.678330, -18.402104, 58.625000
11.755670, -18.523972, 58.750000
11.833010, -18.645841, 58.875000
11.833010, -18.645841, 59.000000
11.910350, -18.767709, 59.125000
11.910350, -18.767709, 59.250000
11.987690, -18.889577, 59.375000
12.065030, -19.011445, 59.500000
12.219710, -19.255182, 59.625000
12.219710, -19.255182, 59.750000
12.219710, -19.255182, 59.875000
12.297050, -19.377050, 60.000000
12.374390, -19.498918, 60.125000
12.451730, -19.620786, 60.250000
12.529070, -19.742655, 60.375000
12.606410, -19.864523, 60.500000
12.683750, -19.986391, 60.625000
12.683750, -19.986391, 60.750000
12.761089, -20.108259, 60.875000
12.838429, -20.230128, 61.000000
12.915769, -20.351996, 61.125000
12.993109, -20.473864, 61.250000
13.070449, -20.595732, 61.375000
13.147789, -20.717601, 61.500000
13.147789, -20.717601, 61.625000
13.225129, -20.839469, 61.750000
13.302469, -20.961337, 61.875000
13.457149, -21.205074, 62.000000
13.457149, -21.205074, 62.125000
13.534489, -21.326942, 62.250000
13.611829, -21.448810, 62.375000
13.689169, -21.570678, 62.500000
13.766509, -21.692547, 62.625000
13.843849, -21.814415, 62.750000
13.921188, -21.936283, 62.875000
13.921188, -21.936283, 63.000000
13.998528, -22.058151, 63.125000
14.075868, -22.180019, 63.250000
14.153208, -22.301888, 63.375000
14.230548, -22.423756, 63.500000
14.307888, -22.545624, 63.625000
14.307888, -22.545624, 63.750000
14.385228, -22.667492, 63.875000
14.462568, -22.789361, 64.000000
14.539908, -22.911229, 64.125000
14.539908, -22.911229, 64.250000
14.617248, -23.033097, 64.375000
14.694588, -23.154965, 64.500000
14.849268, -23.398702, 64.625000
14.849268, -23.398702, 64.750000
15.003948, -23.642438, 64.875000
15.003948, -23.642438, 65.000000
15.003948, -23.642438, 65.125000
15.081288, -23.764307, 65.250000
15.158627, -23.886175, 65.375000
15.235967, -24.008043, 65.500000
15.313307, -24.129911, 65.625000
15.390647, -24.251780, 65.750000
15.390647, -24.251780, 65.875000
15.467987, -24.373648, 66.000000
15.545327, -24.495516, 66.125000
15.622667, -24.617384, 66.250000
15.700007, -24.739252, 66.375000
15.700007, -24.739252, 66.500000
15.777347, -24.861121, 66.625000
15.854687, -24.982989, 66.750000
15.932027, -25.104857, 66.875000
15.932027, -25.104857, 67.000000
16.009367, -25.226725, 67.125000
16.086707, -25.348594, 67.250000
16.164047, -25.470462, 67.375000
16.241387, -25.592330, 67.500000
16.318727, -25.714198, 67.625000
16.396066, -25.836067, 67.750000
16.550746, -26.079803, 67.875000
16.550746, -26.079803, 68.000000
16.628086, -26.201671, 68.125000
16.628086, -26.201671, 68.250000
16.782766, -26.445408, 68.375000
16.782766, -26.445408, 68.500000
16.860106, -26.567276, 68.625000
16.937446, -26.689144, 68.750000
17.014786, -26.811013, 68.875000
17.014786, -26.811013, 69.000000
17.092126, -26.932881, 69.125000
17.169466, -27.054749, 69.250000
17.169466, -27.054749, 69.375000
17.324146, -27.298485, 69.500000
17.324146, -27.298485, 69.625000
17.401486, -27.420354, 69.750000
17.478826, -27.542222, 69.875000
17.556165, -27.664090, 70.000000
17.556165, -27.664090, 70.125000
17.710845, -27.907827, 70.250000
17.788185, -28.029695, 70.375000
17.788185, -28.029695, 70.500000
17.865525, -28.151563, 70.625000
17.942865, -28.273431, 70.750000
17.942865, -28.273431, 70.875000
18.097545, -28.517168, 71.000000
18.097545, -28.517168, 71.125000
18.174885, -28.639036, 71.250000
18.252225, -28.760904, 71.375000
18.329565, -28.882773, 71.500000
18.329565, -28.882773, 71.625000
18.406905, -29.004641, 71.750000
18.561585, -29.248377, 71.875000
18.484245, -29.126509, 72.000000
18.561585, -29.248377, 72.125000
18.638925, -29.370246, 72.250000
18.716265, -29.492114, 72.375000
18.793604, -29.613982, 72.500000
18.870944, -29.735850, 72.625000
18.870944, -29.735850, 72.750000
18.948284, -29.857718, 72.875000
18.948284, -29.857718, 73.000000
19.102964, -30.101455, 73.125000
19.180304, -30.223323, 73.250000
19.180304, -30.223323, 73.375000
19.257644, -30.345191, 73.500000
19.334984, -30.467060, 73.625000
19.412324, -30.588928, 73.750000
19.489664, -30.710796, 73.875000
19.644344, -30.954533, 74.000000
19.644344, -30.954533, 74.125000
19.721684, -31.076401, 74.250000
19.721684, -31.076401, 74.375000
19.799024, -31.198269, 74.500000
19.876364, -31.320137, 74.625000
19.953704, -31.442006, 74.750000
19.953704, -31.442006, 74.875000
20.031043, -31.563874, 75.000000
20.108383, -31.685742, 75.125000
20.185723, -31.807610, 75.250000
20.263063, -31.929479, 75.375000
20.263063, -31.929479, 75.500000
20.417743, -32.173215, 75.625000
20.495083, -32.295083, 75.750000
20.495083, -32.295083, 75.875000
20.572423, -32.416952, 76.000000
20.572423, -32.416952, 76.125000
20.649763, -32.538820, 76.250000
20.727103, -32.660688, 76.375000
20.804443, -32.782556, 76.500000
20.804443, -32.782556, 76.625000
20.881783, -32.904424, 76.750000
20.959123, -33.026293, 76.875000
21.036463, -33.148161, 77.000000
21.113803, -33.270029, 77.125000
21.191142, -33.391897, 77.250000
21.268482, -33.513766, 77.375000
21.268482, -33.513766, 77.500000
21.345822, -33.635634, 77.625000
21.500502, -33.879370, 77.750000
21.500502, -33.879370, 77.875000
21.577842, -34.001239, 78.000000
21.655182, -34.123107, 78.125000
21.732522, -34.244975, 78.250000
21.809862, -34.366843, 78.375000
21.887202, -34.488712, 78.500000
21.964542, -34.610580, 78.625000
22.041882, -34.732448, 78.750000
22.041882, -34.732448, 78.875000
22.119222, -34.854316, 79.000000
22.273902, -35.098053, 79.125000
22.351242, -35.219921, 79.250000
22.428581, -35.341789, 79.375000
22.505921, -35.463657, 79.500000
22.660601, -35.707394, 79.625000
22.660601, -35.707394, 79.750000
22.737941, -35.829262, 79.875000
22.737941, -35.829262, 80.000000
22.892621, -36.072999, 80.125000
22.892621, -36.072999, 80.250000
22.969961, -36.194867, 80.375000
23.047301, -36.316735, 80.500000
23.124641, -36.438603, 80.625000
4.381006, -6.446455, 43.500000
4.543266, -6.685213, 43.625000
4.543266, -6.685213, 43.750000
4.543266, -6.685213, 43.875000
4.543266, -6.685213, 44.000000
4.705525, -6.923970, 44.125000
4.786655, -7.043349, 44.250000
5.030044, -7.401485, 44.375000
4.867785, -7.162728, 44.500000
4.948915, -7.282107, 44.625000
4.948915, -7.282107, 44.750000
5.192304, -7.640243, 44.875000
5.192304, -7.640243, 45.000000
5.192304, -7.640243, 45.125000
5.354563, -7.879001, 45.250000
5.435693, -7.998379, 45.375000
5.435693, -7.998379, 45.500000
5.597953, -8.237137, 45.625000
5.516823, -8.117758, 45.750000
5.597953, -8.237137, 45.875000
5.679082, -8.356516, 46.000000
5.679082, -8.356516, 46.125000
5.760212, -8.475895, 46.250000
5.841342, -8.595273, 46.375000
5.841342, -8.595273, 46.500000
5.922472, -8.714652, 46.625000
6.003601, -8.834031, 46.750000
6.003601, -8.834031, 46.875000
6.165861, -9.072789, 47.000000
6.246991, -9.192167, 47.125000
6.328120, -9.311546, 47.250000
6.409250, -9.430925, 47.375000
6.490380, -9.550304, 47.500000
6.490380, -9.550304, 47.625000
6.571510, -9.669683, 47.750000
6.652639, -9.789061, 47.875000
6.733769, -9.908440, 48.000000
6.733769, -9.908440, 48.125000
6.814899, -10.027819, 48.250000
6.814899, -10.027819, 48.375000
6.896029, -10.147198, 48.500000
6.977158, -10.266577, 48.625000
6.977158, -10.266577, 48.750000
7.058288, -10.385955, 48.875000
7.139418, -10.505334, 49.000000
7.139418, -10.505334, 49.125000
7.301677, -10.744092, 49.250000
7.301677, -10.744092, 49.375000
7.301677, -10.744092, 49.500000
7.382807, -10.863471, 49.625000
7.463937, -10.982849, 49.750000
7.545067, -11.102228, 49.875000
7.545067, -11.102228, 50.000000
7.626196, -11.221607, 50.125000
7.788456, -11.460365, 50.250000
7.788456, -11.460365, 50.375000
7.869585, -11.579743, 50.500000
7.950715, -11.699122, 50.625000
7.950715, -11.699122, 50.750000
8.031845, -11.818501, 50.875000
8.112975, -11.937880, 51.000000
8.194104, -12.057259, 51.125000
8.275234, -12.176637, 51.250000
8.356364, -12.296016, 51.375000
8.437494, -12.415395, 51.500000
8.437494, -12.415395, 51.625000
8.599753, -12.654153, 51.750000
8.599753, -12.654153, 51.875000
8.680883, -12.773531, 52.000000
8.680883, -12.773531, 52.125000
8.680883, -12.773531, 52.250000
8.762013, -12.892910, 52.375000
8.924272, -13.131668, 52.500000
8.924272, -13.131668, 52.625000
9.005402, -13.251047, 52.750000
9.005402, -13.251047, 52.875000
9.167661, -13.489804, 53.000000
9.248791, -13.609183, 53.125000
9.329921, -13.728562, 53.250000
9.411051, -13.847941, 53.375000
9.411051, -13.847941, 53.500000
9.492180, -13.967319, 53.625000
9.573310, -14.086698, 53.750000
9.573310, -14.086698, 53.875000
9.654440, -14.206077, 54.000000
9.816699, -14.444835, 54.125000
9.816699, -14.444835, 54.250000
9.897829, -14.564213, 54.375000
9.978959, -14.683592, 54.500000
10.060089, -14.802971, 54.625000
10.060089, -14.802971, 54.750000
10.141218, -14.922350, 54.875000
10.222348, -15.041729, 55.000000
10.303478, -15.161107, 55.125000
10.303478, -15.161107, 55.250000
10.465737, -15.399865, 55.375000
10.465737, -15.399865, 55.500000
10.627997, -15.638623, 55.625000
10.627997, -15.638623, 55.750000
10.709127, -15.758001, 55.875000
10.790256, -15.877380, 56.000000
10.871386, -15.996759, 56.125000
10.952516, -16.116138, 56.250000
11.114775, -16.354895, 56.375000
11.114775, -16.354895, 56.500000
11.195905, -16.474274, 56.625000
11.277035, -16.593653, 56.750000
11.277035, -16.593653, 56.875000
11.358165, -16.713032, 57.000000
11.439294, -16.832411, 57.125000
11.520424, -16.951789, 57.250000
11.601554, -17.071168, 57.375000
11.601554, -17.071168, 57.500000
11.763813, -17.309926, 57.625000
11.844943, -17.429305, 57.750000
11.926073, -17.548683, 57.875000
12.007203, -17.668062, 58.000000
12.007203, -17.668062, 58.125000
12.169462, -17.906820, 58.250000
12.250592, -18.026199, 58.375000
12.250592, -18.026199, 58.500000
12.331722, -18.145577, 58.625000
12.412851, -18.264956, 58.750000
12.412851, -18.264956, 58.875000
12.493981, -18.384335, 59.000000
12.575111, -18.503714, 59.125000
12.656241, -18.623092, 59.250000
12.656241, -18.623092, 59.375000
12.818500, -18.861850, 59.500000
12.818500, -18.861850, 59.625000
12.818500, -18.861850, 59.750000
12.899630, -18.981229, 59.875000
12.899630, -18.981229, 60.000000
13.061889, -19.219986, 60.125000
13.143019, -19.339365, 60.250000
13.143019, -19.339365, 60.375000
13.305279, -19.578123, 60.500000
13.386408, -19.697502, 60.625000
13.467538, -19.816880, 60.750000
13.467538, -19.816880, 60.875000
13.629798, -20.055638, 61.000000
13.710927, -20.175017, 61.125000
13.710927, -20.175017, 61.250000
13.792057, -20.294396, 61.375000
13.792057, -20.294396, 61.500000
13.873187, -20.413774, 61.625000
13.954317, -20.533153, 61.750000
14.116576, -20.771911, 61.875000
14.116576, -20.771911, 62.000000
14.197706, -20.891290, 62.125000
14.359965, -21.130047, 62.250000
14.278836, -21.010668, 62.375000
14.441095, -21.249426, 62.500000
14.522225, -21.368805, 62.625000
14.603355, -21.488184, 62.750000
14.603355, -21.488184, 62.875000
14.684484, -21.607562, 63.000000
14.765614, -21.726941, 63.125000
14.765614, -21.726941, 63.250000
14.846744, -21.846320, 63.375000
14.927874, -21.965699, 63.500000
15.009003, -22.085078, 63.625000
15.090133, -22.204456, 63.750000
15.171263, -22.323835, 63.875000
15.252393, -22.443214, 64.000000
15.252393, -22.443214, 64.125000
15.252393, -22.443214, 64.250000
15.414652, -22.681972, 64.375000
15.414652, -22.681972, 64.500000
15.576911, -22.920729, 64.625000
15.658041, -23.040108, 64.750000
15.576911, -22.920729, 64.875000
15.739171, -23.159487, 65.000000
15.820301, -23.278866, 65.125000
15.820301, -23.278866, 65.250000
15.901430, -23.398244, 65.375000
15.901430, -23.398244, 65.500000
16.063690, -23.637002, 65.625000
16.144820, -23.756381, 65.750000
16.144820, -23.756381, 65.875000
16.307079, -23.995138, 66.000000
16.388209, -24.114517, 66.125000
16.388209, -24.114517, 66.250000
16.388209, -24.114517, 66.375000
