19.579511, -9.976259, 67.875000
19.752781, -10.064545, 68.000000
19.926051, -10.152830, 68.125000
19.752781, -10.064545, 68.250000
19.926051, -10.152830, 68.375000
19.926051, -10.152830, 68.500000
19.926051, -10.152830, 68.625000
20.099321, -10.241116, 68.750000
20.099321, -10.241116, 68.875000
20.272591, -10.329401, 69.000000
20.272591, -10.329401, 69.125000
20.445861, -10.417687, 69.250000
20.445861, -10.417687, 69.375000
20.445861, -10.417687, 69.500000
20.445861, -10.417687, 69.625000
20.619131, -10.505972, 69.750000
20.792401, -10.594258, 69.875000
20.792401, -10.594258, 70.000000
20.792401, -10.594258, 70.125000
20.965671, -10.682543, 70.250000
20.965671, -10.682543, 70.375000
20.965671, -10.682543, 70.500000
21.138941, -10.770829, 70.625000
21.138941, -10.770829, 70.750000
21.138941, -10.770829, 70.875000
21.138941, -10.770829, 71.000000
21.312211, -10.859114, 71.125000
21.312211, -10.859114, 71.250000
21.485481, -10.947399, 71.375000
21.485481, -10.947399, 71.500000
21.658751, -11.035685, 71.625000
21.658751, -11.035685, 71.750000
21.658751, -11.035685, 71.875000
21.832021, -11.123970, 72.000000
21.832021, -11.123970, 72.125000
21.832021, -11.123970, 72.250000
22.005291, -11.212256, 72.375000
22.178561, -11.300541, 72.500000
22.178561, -11.300541, 72.625000
22.178561, -11.300541, 72.750000
22.178561, -11.300541, 72.875000
22.178561, -11.300541, 73.000000
22.351831, -11.388827, 73.125000
22.525101, -11.477112, 73.250000
22.525101, -11.477112, 73.375000
22.698371, -11.565398, 73.500000
22.698371, -11.565398, 73.625000
22.871641, -11.653683, 73.750000
22.871641, -11.653683, 73.875000
22.871641, -11.653683, 74.000000
22.871641, -11.653683, 74.125000
23.044911, -11.741969, 74.250000
23.044911, -11.741969, 74.375000
23.218181, -11.830254, 74.500000
23.218181, -11.830254, 74.625000
23.218181, -11.830254, 74.750000
23.391451, -11.918540, 74.875000
23.564721, -12.006825, 75.000000
23.564721, -12.006825, 75.125000
23.564721, -12.006825, 75.250000
23.737991, -12.095111, 75.375000
23.737991, -12.095111, 75.500000
23.737991, -12.095111, 75.625000
23.911261, -12.183396, 75.750000
23.737991, -12.095111, 75.875000
23.911261, -12.183396, 76.000000
23.911261, -12.183396, 76.125000
24.084531, -12.271682, 76.250000
24.084531, -12.271682, 76.375000
24.257801, -12.359967, 76.500000
24.257801, -12.359967, 76.625000
24.431071, -12.448253, 76.750000
24.431071, -12.448253, 76.875000
24.431071, -12.448253, 77.000000
24.604341, -12.536538, 77.125000
24.604341, -12.536538, 77.250000
24.777611, -12.624824, 77.375000
24.777611, -12.624824, 77.500000
24.950881, -12.713109, 77.625000
24.950881, -12.713109, 77.750000
24.950881, -12.713109, 77.875000
24.950881, -12.713109, 78.000000
25.124151, -12.801395, 78.125000
25.124151, -12.801395, 78.250000
25.297421, -12.889680, 78.375000
25.297421, -12.889680, 78.500000
25.470691, -12.977966, 78.625000
25.470691, -12.977966, 78.750000
25.643961, -13.066251, 78.875000
25.643961, -13.066251, 79.000000
25.643961, -13.066251, 79.125000
25.817231, -13.154536, 79.250000
25.817231, -13.154536, 79.375000
25.990501, -13.242822, 79.500000
25.990501, -13.242822, 79.625000
25.990501, -13.242822, 79.750000
25.990501, -13.242822, 79.875000
25.817231, -13.154536, 80.000000
25.990501, -13.242822, 80.125000
25.817231, -13.154536, 80.250000
25.817231, -13.154536, 80.375000
42.277882, -21.541657, 99.625000
41.411532, -21.100230, 99.750000
41.238262, -21.011944, 99.875000
41.238262, -21.011944, 100.000000
41.238262, -21.011944, 100.125000
41.238262, -21.011944, 100.250000
41.238262, -21.011944, 100.375000
41.238262, -21.011944, 100.500000
41.238262, -21.011944, 100.625000
41.411532, -21.100230, 100.750000
41.758072, -21.276801, 100.875000
7.742136, -3.643172, 45.750000
8.094051, -3.808771, 46.000000
8.445966, -3.974370, 46.125000
8.270008, -3.891571, 46.250000
8.797881, -4.139969, 46.375000
8.797881, -4.139969, 46.500000
8.621924, -4.057169, 46.625000
8.797881, -4.139969, 46.750000
8.797881, -4.139969, 46.875000
8.621924, -4.057169, 47.000000
7.918093, -3.725972, 47.125000
8.094051, -3.808771, 47.250000
8.621924, -4.057169, 47.375000
8.797881, -4.139969, 47.500000
9.149797, -4.305567, 47.625000
9.149797, -4.305567, 47.750000
9.149797, -4.305567, 47.875000
9.325754, -4.388367, 48.000000
9.149797, -4.305567, 48.125000
9.325754, -4.388367, 48.250000
9.325754, -4.388367, 48.375000
9.325754, -4.388367, 48.500000
9.501712, -4.471166, 48.625000
9.501712, -4.471166, 48.750000
9.677669, -4.553966, 48.875000
9.677669, -4.553966, 49.000000
9.677669, -4.553966, 49.125000
9.853627, -4.636765, 49.250000
9.853627, -4.636765, 49.375000
9.853627, -4.636765, 49.500000
10.029585, -4.719564, 49.625000
10.205542, -4.802364, 49.750000
10.205542, -4.802364, 49.875000
10.205542, -4.802364, 50.000000
10.381500, -4.885163, 50.125000
10.557458, -4.967962, 50.250000
10.381500, -4.885163, 50.375000
10.557458, -4.967962, 50.500000
10.557458, -4.967962, 50.625000
10.733415, -5.050762, 50.750000
10.733415, -5.050762, 50.875000
10.733415, -5.050762, 51.000000
10.733415, -5.050762, 51.125000
10.909373, -5.133561, 51.250000
11.085330, -5.216361, 51.375000
11.085330, -5.216361, 51.500000
11.085330, -5.216361, 51.625000
11.437246, -5.381959, 51.750000
11.261288, -5.299160, 51.875000
11.261288, -5.299160, 52.000000
11.261288, -5.299160, 52.125000
11.437246, -5.381959, 52.250000
11.437246, -5.381959, 52.375000
11.613203, -5.464759, 52.500000
11.789161, -5.547558, 52.625000
11.613203, -5.464759, 52.750000
11.789161, -5.547558, 52.875000
11.965119, -5.630357, 53.000000
11.965119, -5.630357, 53.125000
11.965119, -5.630357, 53.250000
12.141076, -5.713157, 53.375000
12.141076, -5.713157, 53.500000
12.317034, -5.795956, 53.625000
12.317034, -5.795956, 53.750000
12.317034, -5.795956, 53.875000
12.492991, -5.878756, 54.000000
12.492991, -5.878756, 54.125000
12.492991, -5.878756, 54.250000
12.668949, -5.961555, 54.375000
12.668949, -5.961555, 54.500000
12.668949, -5.961555, 54.625000
12.844907, -6.044354, 54.750000
12.844907, -6.044354, 54.875000
12.844907, -6.044354, 55.000000
13.020864, -6.127154, 55.125000
13.196822, -6.209953, 55.250000
13.196822, -6.209953, 55.375000
13.372780, -6.292752, 55.500000
13.372780, -6.292752, 55.625000
13.372780, -6.292752, 55.750000
13.372780, -6.292752, 55.875000
13.372780, -6.292752, 56.000000
13.548737, -6.375552, 56.125000
13.548737, -6.375552, 56.250000
13.724695, -6.458351, 56.375000
13.724695, -6.458351, 56.500000
13.900652, -6.541151, 56.625000
13.724695, -6.458351, 56.750000
13.900652, -6.541151, 56.875000
14.076610, -6.623950, 57.000000
14.076610, -6.623950, 57.125000
14.076610, -6.623950, 57.250000
14.252568, -6.706749, 57.375000
14.252568, -6.706749, 57.500000
14.252568, -6.706749, 57.625000
14.428525, -6.789549, 57.750000
14.428525, -6.789549, 57.875000
14.604483, -6.872348, 58.000000
14.604483, -6.872348, 58.125000
14.604483, -6.872348, 58.250000
14.956398, -7.037947, 58.375000
14.780441, -6.955147, 58.500000
14.780441, -6.955147, 58.625000
14.956398, -7.037947, 58.750000
15.132356, -7.120746, 58.875000
15.132356, -7.120746, 59.000000
15.132356, -7.120746, 59.125000
15.308313, -7.203546, 59.250000
15.484271, -7.286345, 59.375000
15.308313, -7.203546, 59.500000
15.484271, -7.286345, 59.625000
15.484271, -7.286345, 59.750000
15.484271, -7.286345, 59.875000
15.484271, -7.286345, 60.000000
15.660229, -7.369144, 60.125000
15.836186, -7.451944, 60.250000
15.836186, -7.451944, 60.375000
15.836186, -7.451944, 60.500000
16.012144, -7.534743, 60.625000
16.188102, -7.617542, 60.750000
16.188102, -7.617542, 60.875000
16.188102, -7.617542, 61.000000
16.188102, -7.617542, 61.125000
16.364059, -7.700342, 61.250000
16.364059, -7.700342, 61.375000
16.364059, -7.700342, 61.500000
16.540017, -7.783141, 61.625000
16.540017, -7.783141, 61.750000
16.715974, -7.865940, 61.875000
16.715974, -7.865940, 62.000000
16.891932, -7.948740, 62.125000
16.891932, -7.948740, 62.250000
16.891932, -7.948740, 62.375000
16.891932, -7.948740, 62.500000
17.067890, -8.031539, 62.625000
17.067890, -8.031539, 62.750000
17.243847, -8.114339, 62.875000
17.243847, -8.114339, 63.000000
17.243847, -8.114339, 63.125000
17.243847, -8.114339, 63.250000
17.419805, -8.197138, 63.375000
17.419805, -8.197138, 63.500000
17.419805, -8.197138, 63.625000
17.595763, -8.279937, 63.750000
17.771720, -8.362737, 63.875000
17.771720, -8.362737, 64.000000
17.771720, -8.362737, 64.125000
17.947678, -8.445536, 64.250000
18.123635, -8.528335, 64.375000
17.947678, -8.445536, 64.500000
18.123635, -8.528335, 64.625000
18.299593, -8.611135, 64.750000
18.123635, -8.528335, 64.875000
18.299593, -8.611135, 65.000000
18.475551, -8.693934, 65.125000
18.475551, -8.693934, 65.250000
18.475551, -8.693934, 65.375000
18.651508, -8.776734, 65.500000
18.651508, -8.776734, 65.625000
18.651508, -8.776734, 65.750000
18.651508, -8.776734, 65.875000
18.651508, -8.776734, 66.000000
18.827466, -8.859533, 66.125000
19.003424, -8.942332, 66.250000
19.179381, -9.025132, 66.375000
19.179381, -9.025132, 66.500000
19.179381, -9.025132, 66.625000
19.179381, -9.025132, 66.750000
19.355339, -9.107931, 66.875000
19.355339, -9.107931, 67.000000
19.355339, -9.107931, 67.125000
19.531296, -9.190730, 67.250000
19.531296, -9.190730, 67.375000
19.531296, -9.190730, 67.500000
19.707254, -9.273530, 67.625000
19.707254, -9.273530, 67.750000
19.883212, -9.356329, 67.875000
20.059169, -9.439129, 68.000000
20.059169, -9.439129, 68.125000
20.059169, -9.439129, 68.250000
20.059169, -9.439129, 68.375000
20.059169, -9.439129, 68.500000
20.235127, -9.521928, 68.625000
20.411085, -9.604727, 68.750000
20.587042, -9.687527, 68.875000
20.587042, -9.687527, 69.000000
20.411085, -9.604727, 69.125000
20.587042, -9.687527, 69.250000
20.763000, -9.770326, 69.375000
20.763000, -9.770326, 69.500000
20.763000, -9.770326, 69.625000
20.763000, -9.770326, 69.750000
20.938957, -9.853125, 69.875000
20.938957, -9.853125, 70.000000
21.114915, -9.935925, 70.125000
21.114915, -9.935925, 70.250000
21.114915, -9.935925, 70.375000
21.290873, -10.018724, 70.500000
21.290873, -10.018724, 70.625000
21.290873, -10.018724, 70.750000
21.290873, -10.018724, 70.875000
21.466830, -10.101524, 71.000000
21.466830, -10.101524, 71.125000
21.642788, -10.184323, 71.250000
21.818746, -10.267122, 71.375000
21.818746, -10.267122, 71.500000
21.818746, -10.267122, 71.625000
21.994703, -10.349922, 71.750000
21.994703, -10.349922, 71.875000
21.994703, -10.349922, 72.000000
22.170661, -10.432721, 72.125000
22.170661, -10.432721, 72.250000
22.346618, -10.515520, 72.375000
22.170661, -10.432721, 72.500000
22.346618, -10.515520, 72.625000
22.522576, -10.598320, 72.750000
22.522576, -10.598320, 72.875000
22.522576, -10.598320, 73.000000
22.698534, -10.681119, 73.125000
22.698534, -10.681119, 73.250000
22.874491, -10.763919, 73.375000
22.874491, -10.763919, 73.500000
23.050449, -10.846718, 73.625000
23.050449, -10.846718, 73.750000
23.050449, -10.846718, 73.875000
23.226407, -10.929517, 74.000000
23.226407, -10.929517, 74.125000
23.402364, -11.012317, 74.250000
23.402364, -11.012317, 74.375000
23.402364, -11.012317, 74.500000
23.402364, -11.012317, 74.625000
23.578322, -11.095116, 74.750000
23.754279, -11.177915, 74.875000
23.754279, -11.177915, 75.000000
23.930237, -11.260715, 75.125000
23.930237, -11.260715, 75.250000
23.930237, -11.260715, 75.375000
24.106195, -11.343514, 75.500000
24.106195, -11.343514, 75.625000
24.106195, -11.343514, 75.750000
24.282152, -11.426314, 75.875000
24.282152, -11.426314, 76.000000
24.282152, -11.426314, 76.125000
24.458110, -11.509113, 76.250000
24.634068, -11.591912, 76.375000
24.458110, -11.509113, 76.500000
24.634068, -11.591912, 76.625000
24.810025, -11.674712, 76.750000
24.810025, -11.674712, 76.875000
24.810025, -11.674712, 77.000000
24.810025, -11.674712, 77.125000
24.985983, -11.757511, 77.250000
24.985983, -11.757511, 77.375000
25.161940, -11.840310, 77.500000
25.337898, -11.923110, 77.625000
25.161940, -11.840310, 77.750000
25.337898, -11.923110, 77.875000
25.337898, -11.923110, 78.000000
25.513856, -12.005909, 78.125000
25.513856, -12.005909, 78.250000
25.689813, -12.088709, 78.375000
25.689813, -12.088709, 78.500000
25.689813, -12.088709, 78.625000
25.865771, -12.171508, 78.750000
25.865771, -12.171508, 78.875000
25.865771, -12.171508, 79.000000
26.041729, -12.254307, 79.125000
26.041729, -12.254307, 79.250000
26.393644, -12.419906, 79.375000
26.217686, -12.337107, 79.500000
26.217686, -12.337107, 79.625000
26.569601, -12.502705, 79.750000
26.217686, -12.337107, 79.875000
26.217686, -12.337107, 80.000000
26.569601, -12.502705, 80.125000
26.393644, -12.419906, 80.250000
26.745559, -12.585505, 80.375000
42.933661, -20.203047, 99.625000
42.053873, -19.789050, 99.750000
41.877915, -19.706251, 99.875000
41.877915, -19.706251, 100.000000
41.877915, -19.706251, 100.125000
41.877915, -19.706251, 100.250000
41.877915, -19.706251, 100.375000
41.877915, -19.706251, 100.500000
41.877915, -19.706251, 100.625000
41.877915, -19.706251, 100.750000
42.405788, -19.954649, 100.875000
8.209693, -3.552652, 45.625000
8.209693, -3.552652, 45.750000
8.209693, -3.552652, 45.875000
8.031222, -3.475420, 46.000000
8.209693, -3.552652, 46.125000
8.209693, -3.552652, 46.250000
8.388165, -3.629883, 46.375000
8.388165, -3.629883, 46.500000
8.566636, -3.707115, 46.625000
8.566636, -3.707115, 46.750000
8.566636, -3.707115, 46.875000
8.566636, -3.707115, 47.000000
8.566636, -3.707115, 47.125000
8.745108, -3.784346, 47.250000
8.745108, -3.784346, 47.375000
8.923580, -3.861578, 47.500000
8.923580, -3.861578, 47.625000
9.102051, -3.938809, 47.750000
9.102051, -3.938809, 47.875000
9.280523, -4.016041, 48.000000
9.102051, -3.938809, 48.125000
9.280523, -4.016041, 48.250000
9.458994, -4.093272, 48.375000
9.458994, -4.093272, 48.500000
9.458994, -4.093272, 48.625000
9.637466, -4.170504, 48.750000
9.637466, -4.170504, 48.875000
9.815938, -4.247735, 49.000000
9.815938, -4.247735, 49.125000
9.815938, -4.247735, 49.250000
9.994409, -4.324967, 49.375000
9.994409, -4.324967, 49.500000
9.994409, -4.324967, 49.625000
9.994409, -4.324967, 49.750000
10.351352, -4.479430, 49.875000
10.172881, -4.402199, 50.000000
10.172881, -4.402199, 50.125000
10.351352, -4.479430, 50.250000
10.351352, -4.479430, 50.375000
10.529824, -4.556662, 50.500000
10.529824, -4.556662, 50.625000
10.529824, -4.556662, 50.750000
10.708296, -4.633893, 50.875000
10.708296, -4.633893, 51.000000
10.886767, -4.711125, 51.125000
10.886767, -4.711125, 51.250000
10.886767, -4.711125, 51.375000
11.065239, -4.788356, 51.500000
11.065239, -4.788356, 51.625000
11.065239, -4.788356, 51.750000
11.243710, -4.865588, 51.875000
11.243710, -4.865588, 52.000000
11.243710, -4.865588, 52.125000
11.422182, -4.942819, 52.250000
11.600653, -5.020051, 52.375000
11.600653, -5.020051, 52.500000
11.600653, -5.020051, 52.625000
11.779125, -5.097283, 52.750000
11.779125, -5.097283, 52.875000
11.779125, -5.097283, 53.000000
11.957597, -5.174514, 53.125000
11.957597, -5.174514, 53.250000
11.957597, -5.174514, 53.375000
12.136068, -5.251746, 53.500000
12.314540, -5.328977, 53.625000
12.136068, -5.251746, 53.750000
12.314540, -5.328977, 53.875000
12.314540, -5.328977, 54.000000
12.314540, -5.328977, 54.125000
12.493011, -5.406209, 54.250000
12.493011, -5.406209, 54.375000
12.671483, -5.483440, 54.500000
12.671483, -5.483440, 54.625000
12.671483, -5.483440, 54.750000
12.671483, -5.483440, 54.875000
12.849955, -5.560672, 55.000000
12.849955, -5.560672, 55.125000
13.206898, -5.715135, 55.250000
13.028426, -5.637903, 55.375000
13.206898, -5.715135, 55.500000
13.206898, -5.715135, 55.625000
13.206898, -5.715135, 55.750000
13.385369, -5.792367, 55.875000
13.385369, -5.792367, 56.000000
13.563841, -5.869598, 56.125000
13.563841, -5.869598, 56.250000
13.563841, -5.869598, 56.375000
13.742313, -5.946830, 56.500000
13.742313, -5.946830, 56.625000
13.742313, -5.946830, 56.750000
13.920784, -6.024061, 56.875000
13.920784, -6.024061, 57.000000
14.099256, -6.101293, 57.125000
14.099256, -6.101293, 57.250000
14.099256, -6.101293, 57.375000
14.277727, -6.178524, 57.500000
14.277727, -6.178524, 57.625000
14.456199, -6.255756, 57.750000
14.456199, -6.255756, 57.875000
14.456199, -6.255756, 58.000000
14.634671, -6.332987, 58.125000
14.634671, -6.332987, 58.250000
14.813142, -6.410219, 58.375000
14.813142, -6.410219, 58.500000
14.813142, -6.410219, 58.625000
14.991614, -6.487451, 58.750000
14.991614, -6.487451, 58.875000
15.170085, -6.564682, 59.000000
15.170085, -6.564682, 59.125000
15.170085, -6.564682, 59.250000
15.170085, -6.564682, 59.375000
15.348557, -6.641914, 59.500000
15.348557, -6.641914, 59.625000
15.527029, -6.719145, 59.750000
15.527029, -6.719145, 59.875000
15.705500, -6.796377, 60.000000
15.705500, -6.796377, 60.125000
15.705500, -6.796377, 60.250000
15.883972, -6.873608, 60.375000
15.883972, -6.873608, 60.500000
15.883972, -6.873608, 60.625000
16.062443, -6.950840, 60.750000
16.062443, -6.950840, 60.875000
16.062443, -6.950840, 61.000000
16.240915, -7.028071, 61.125000
16.240915, -7.028071, 61.250000
16.240915, -7.028071, 61.375000
16.419386, -7.105303, 61.500000
16.419386, -7.105303, 61.625000
16.419386, -7.105303, 61.750000
16.597858, -7.182535, 61.875000
16.776330, -7.259766, 62.000000
16.597858, -7.182535, 62.125000
16.776330, -7.259766, 62.250000
16.776330, -7.259766, 62.375000
16.776330, -7.259766, 62.500000
16.954801, -7.336998, 62.625000
17.133273, -7.414229, 62.750000
17.133273, -7.414229, 62.875000
17.133273, -7.414229, 63.000000
17.133273, -7.414229, 63.125000
17.490216, -7.568692, 63.250000
17.311744, -7.491461, 63.375000
17.490216, -7.568692, 63.500000
17.490216, -7.568692, 63.625000
17.490216, -7.568692, 63.750000
17.490216, -7.568692, 63.875000
17.668688, -7.645924, 64.000000
17.668688, -7.645924, 64.125000
17.847159, -7.723155, 64.250000
18.025631, -7.800387, 64.375000
18.025631, -7.800387, 64.500000
18.025631, -7.800387, 64.625000
18.025631, -7.800387, 64.750000
18.025631, -7.800387, 64.875000
18.382574, -7.954850, 65.000000
18.382574, -7.954850, 65.125000
18.382574, -7.954850, 65.250000
18.382574, -7.954850, 65.375000
18.382574, -7.954850, 65.500000
18.561046, -8.032082, 65.625000
18.561046, -8.032082, 65.750000
18.739517, -8.109313, 65.875000
18.739517, -8.109313, 66.000000
18.917989, -8.186545, 66.125000
18.917989, -8.186545, 66.250000
19.096460, -8.263776, 66.375000
18.917989, -8.186545, 66.500000
19.096460, -8.263776, 66.625000
19.096460, -8.263776, 66.750000
19.274932, -8.341008, 66.875000
19.274932, -8.341008, 67.000000
19.274932, -8.341008, 67.125000
19.453404, -8.418239, 67.250000
19.453404, -8.418239, 67.375000
19.453404, -8.418239, 67.500000
19.631875, -8.495471, 67.625000
19.631875, -8.495471, 67.750000
19.631875, -8.495471, 67.875000
19.810347, -8.572703, 68.000000
19.810347, -8.572703, 68.125000
19.810347, -8.572703, 68.250000
19.988818, -8.649934, 68.375000
19.988818, -8.649934, 68.500000
20.167290, -8.727166, 68.625000
20.167290, -8.727166, 68.750000
20.345762, -8.804397, 68.875000
20.345762, -8.804397, 69.000000
20.345762, -8.804397, 69.125000
20.345762, -8.804397, 69.250000
20.524233, -8.881629, 69.375000
20.524233, -8.881629, 69.500000
20.524233, -8.881629, 69.625000
20.702705, -8.958860, 69.750000
20.702705, -8.958860, 69.875000
20.881176, -9.036092, 70.000000
20.881176, -9.036092, 70.125000
20.881176, -9.036092, 70.250000
21.059648, -9.113323, 70.375000
21.059648, -9.113323, 70.500000
21.059648, -9.113323, 70.625000
21.238119, -9.190555, 70.750000
21.238119, -9.190555, 70.875000
21.416591, -9.267787, 71.000000
21.416591, -9.267787, 71.125000
21.416591, -9.267787, 71.250000
21.595063, -9.345018, 71.375000
21.595063, -9.345018, 71.500000
21.595063, -9.345018, 71.625000
21.773534, -9.422250, 71.750000
21.952006, -9.499481, 71.875000
21.952006, -9.499481, 72.000000
21.952006, -9.499481, 72.125000
21.952006, -9.499481, 72.250000
22.130477, -9.576713, 72.375000
22.130477, -9.576713, 72.500000
22.130477, -9.576713, 72.625000
22.308949, -9.653944, 72.750000
22.308949, -9.653944, 72.875000
22.487421, -9.731176, 73.000000
22.487421, -9.731176, 73.125000
22.665892, -9.808407, 73.250000
22.665892, -9.808407, 73.375000
22.665892, -9.808407, 73.500000
22.844364, -9.885639, 73.625000
22.844364, -9.885639, 73.750000
22.844364, -9.885639, 73.875000
23.022835, -9.962871, 74.000000
23.022835, -9.962871, 74.125000
23.201307, -10.040102, 74.250000
23.201307, -10.040102, 74.375000
23.201307, -10.040102, 74.500000
23.379779, -10.117334, 74.625000
23.379779, -10.117334, 74.750000
23.558250, -10.194565, 74.875000
23.558250, -10.194565, 75.000000
23.558250, -10.194565, 75.125000
23.736722, -10.271797, 75.250000
23.736722, -10.271797, 75.375000
23.915193, -10.349028, 75.500000
23.915193, -10.349028, 75.625000
23.915193, -10.349028, 75.750000
24.093665, -10.426260, 75.875000
24.093665, -10.426260, 76.000000
24.093665, -10.426260, 76.125000
24.272137, -10.503491, 76.250000
24.272137, -10.503491, 76.375000
24.450608, -10.580723, 76.500000
24.450608, -10.580723, 76.625000
24.450608, -10.580723, 76.750000
24.629080, -10.657955, 76.875000
24.629080, -10.657955, 77.000000
24.629080, -10.657955, 77.125000
24.807551, -10.735186, 77.250000
24.807551, -10.735186, 77.375000
24.807551, -10.735186, 77.500000
24.986023, -10.812418, 77.625000
24.986023, -10.812418, 77.750000
25.164495, -10.889649, 77.875000
25.164495, -10.889649, 78.000000
25.342966, -10.966881, 78.125000
25.342966, -10.966881, 78.250000
25.342966, -10.966881, 78.375000
25.342966, -10.966881, 78.500000
25.521438, -11.044112, 78.625000
25.699909, -11.121344, 78.750000
25.699909, -11.121344, 78.875000
25.699909, -11.121344, 79.000000
25.878381, -11.198575, 79.125000
26.056852, -11.275807, 79.250000
26.056852, -11.275807, 79.375000
26.056852, -11.275807, 79.500000
26.056852, -11.275807, 79.625000
26.056852, -11.275807, 79.750000
26.056852, -11.275807, 79.875000
26.056852, -11.275807, 80.000000
26.056852, -11.275807, 80.125000
26.056852, -11.275807, 80.250000
26.235324, -11.353039, 80.375000
43.547069, -18.844499, 99.625000
42.654711, -18.458342, 99.750000
42.476239, -18.381110, 99.875000
42.476239, -18.381110, 100.000000
42.476239, -18.381110, 100.125000
42.476239, -18.381110, 100.250000
42.476239, -18.381110, 100.375000
42.476239, -18.381110, 100.500000
42.476239, -18.381110, 100.625000
42.476239, -18.381110, 100.750000
43.011654, -18.612805, 100.875000
7.955615, -3.149851, 45.250000
7.955615, -3.149851, 45.375000
8.136424, -3.221438, 45.500000
7.955615, -3.149851, 45.750000
7.955615, -3.149851, 45.875000
7.774805, -3.078263, 46.000000
7.774805, -3.078263, 46.125000
8.136424, -3.221438, 46.250000
8.136424, -3.221438, 46.375000
8.136424, -3.221438, 46.500000
8.498043, -3.364613, 46.625000
8.317234, -3.293026, 46.750000
8.498043, -3.364613, 46.875000
8.678853, -3.436201, 47.000000
8.859662, -3.507788, 47.125000
8.678853, -3.436201, 47.250000
8.678853, -3.436201, 47.375000
8.859662, -3.507788, 47.500000
8.859662, -3.507788, 47.625000
9.040471, -3.579376, 47.750000
9.040471, -3.579376, 47.875000
9.221281, -3.650963, 48.000000
9.221281, -3.650963, 48.125000
9.221281, -3.650963, 48.250000
9.402090, -3.722551, 48.375000
9.402090, -3.722551, 48.500000
9.582900, -3.794138, 48.625000
9.763709, -3.865726, 48.750000
9.763709, -3.865726, 48.875000
9.763709, -3.865726, 49.000000
9.763709, -3.865726, 49.125000
9.763709, -3.865726, 49.250000
9.944519, -3.937313, 49.375000
9.944519, -3.937313, 49.500000
10.125328, -4.008901, 49.625000
10.306137, -4.080488, 49.750000
10.125328, -4.008901, 49.875000
10.125328, -4.008901, 50.000000
10.306137, -4.080488, 50.125000
10.306137, -4.080488, 50.250000
10.486947, -4.152076, 50.375000
10.486947, -4.152076, 50.500000
10.667756, -4.223664, 50.625000
10.848566, -4.295251, 50.750000
10.667756, -4.223664, 50.875000
10.848566, -4.295251, 51.000000
10.848566, -4.295251, 51.125000
10.848566, -4.295251, 51.250000
11.029375, -4.366839, 51.375000
11.029375, -4.366839, 51.500000
11.210185, -4.438426, 51.625000
11.210185, -4.438426, 51.750000
11.390994, -4.510014, 51.875000
11.210185, -4.438426, 52.000000
11.390994, -4.510014, 52.125000
11.571803, -4.581601, 52.250000
11.571803, -4.581601, 52.375000
11.752613, -4.653189, 52.500000
11.933422, -4.724776, 52.625000
11.752613, -4.653189, 52.750000
11.752613, -4.653189, 52.875000
11.752613, -4.653189, 53.000000
11.933422, -4.724776, 53.125000
11.933422, -4.724776, 53.250000
12.114232, -4.796364, 53.375000
12.114232, -4.796364, 53.500000
12.295041, -4.867951, 53.625000
12.295041, -4.867951, 53.750000
12.475851, -4.939539, 53.875000
12.295041, -4.867951, 54.000000
12.475851, -4.939539, 54.125000
12.475851, -4.939539, 54.250000
12.475851, -4.939539, 54.375000
12.837469, -5.082714, 54.500000
12.656660, -5.011126, 54.625000
12.837469, -5.082714, 54.750000
13.018279, -5.154301, 54.875000
13.018279, -5.154301, 55.000000
13.018279, -5.154301, 55.125000
13.018279, -5.154301, 55.250000
13.018279, -5.154301, 55.375000
13.199088, -5.225889, 55.500000
13.199088, -5.225889, 55.625000
13.379898, -5.297476, 55.750000
13.379898, -5.297476, 55.875000
13.560707, -5.369064, 56.000000
13.560707, -5.369064, 56.125000
13.560707, -5.369064, 56.250000
13.560707, -5.369064, 56.375000
13.741517, -5.440651, 56.500000
13.922326, -5.512239, 56.625000
13.922326, -5.512239, 56.750000
13.922326, -5.512239, 56.875000
13.922326, -5.512239, 57.000000
14.103135, -5.583826, 57.125000
14.103135, -5.583826, 57.250000
14.464754, -5.727001, 57.375000
14.464754, -5.727001, 57.500000
14.283945, -5.655414, 57.625000
14.464754, -5.727001, 57.750000
14.464754, -5.727001, 57.875000
14.645564, -5.798589, 58.000000
14.826373, -5.870176, 58.125000
14.826373, -5.870176, 58.250000
14.826373, -5.870176, 58.375000
14.826373, -5.870176, 58.500000
15.007183, -5.941764, 58.625000
15.007183, -5.941764, 58.750000
15.007183, -5.941764, 58.875000
15.187992, -6.013351, 59.000000
15.187992, -6.013351, 59.125000
15.187992, -6.013351, 59.250000
15.368801, -6.084939, 59.375000
15.368801, -6.084939, 59.500000
15.549611, -6.156526, 59.625000
15.549611, -6.156526, 59.750000
15.549611, -6.156526, 59.875000
15.730420, -6.228114, 60.000000
15.730420, -6.228114, 60.125000
15.911230, -6.299702, 60.250000
15.911230, -6.299702, 60.375000
15.911230, -6.299702, 60.500000
16.092039, -6.371289, 60.625000
16.092039, -6.371289, 60.750000
16.092039, -6.371289, 60.875000
16.453658, -6.514464, 61.000000
16.272849, -6.442877, 61.125000
16.272849, -6.442877, 61.250000
16.453658, -6.514464, 61.375000
16.453658, -6.514464, 61.500000
16.634467, -6.586052, 61.625000
16.634467, -6.586052, 61.750000
16.634467, -6.586052, 61.875000
16.634467, -6.586052, 62.000000
16.815277, -6.657639, 62.125000
16.996086, -6.729227, 62.250000
16.996086, -6.729227, 62.375000
16.996086, -6.729227, 62.500000
16.996086, -6.729227, 62.625000
17.176896, -6.800814, 62.750000
17.357705, -6.872402, 62.875000
17.357705, -6.872402, 63.000000
17.357705, -6.872402, 63.125000
17.357705, -6.872402, 63.250000
17.538515, -6.943989, 63.375000
17.538515, -6.943989, 63.500000
17.538515, -6.943989, 63.625000
17.719324, -7.015577, 63.750000
17.719324, -7.015577, 63.875000
17.900133, -7.087164, 64.000000
17.719324, -7.015577, 64.125000
17.900133, -7.087164, 64.250000
18.261752, -7.230339, 64.375000
18.080943, -7.158752, 64.500000
18.442562, -7.301927, 64.625000
18.261752, -7.230339, 64.750000
18.442562, -7.301927, 64.875000
18.261752, -7.230339, 65.000000
18.442562, -7.301927, 65.125000
18.623371, -7.373514, 65.250000
18.623371, -7.373514, 65.375000
18.623371, -7.373514, 65.500000
18.623371, -7.373514, 65.625000
18.804181, -7.445102, 65.750000
18.984990, -7.516689, 65.875000
18.984990, -7.516689, 66.000000
19.165799, -7.588277, 66.125000
19.165799, -7.588277, 66.250000
19.346609, -7.659864, 66.375000
19.165799, -7.588277, 66.500000
19.346609, -7.659864, 66.625000
19.346609, -7.659864, 66.750000
19.346609, -7.659864, 66.875000
19.527418, -7.731452, 67.000000
19.346609, -7.659864, 67.125000
19.708228, -7.803039, 67.250000
19.708228, -7.803039, 67.375000
19.708228, -7.803039, 67.500000
19.708228, -7.803039, 67.625000
19.708228, -7.803039, 67.750000
19.889037, -7.874627, 67.875000
19.889037, -7.874627, 68.000000
20.069847, -7.946214, 68.125000
20.069847, -7.946214, 68.250000
20.250656, -8.017802, 68.375000
20.250656, -8.017802, 68.500000
20.250656, -8.017802, 68.625000
20.431465, -8.089389, 68.750000
20.431465, -8.089389, 68.875000
20.612275, -8.160977, 69.000000
20.612275, -8.160977, 69.125000
20.793084, -8.232564, 69.250000
20.793084, -8.232564, 69.375000
20.793084, -8.232564, 69.500000
20.973894, -8.304152, 69.625000
20.973894, -8.304152, 69.750000
20.973894, -8.304152, 69.875000
20.973894, -8.304152, 70.000000
20.973894, -8.304152, 70.125000
21.154703, -8.375740, 70.250000
21.335513, -8.447327, 70.375000
21.516322, -8.518915, 70.500000
21.335513, -8.447327, 70.625000
21.516322, -8.518915, 70.750000
21.697131, -8.590502, 70.875000
21.516322, -8.518915, 71.000000
21.697131, -8.590502, 71.125000
21.697131, -8.590502, 71.250000
21.877941, -8.662090, 71.375000
21.877941, -8.662090, 71.500000
21.877941, -8.662090, 71.625000
22.058750, -8.733677, 71.750000
22.058750, -8.733677, 71.875000
22.239560, -8.805265, 72.000000
22.239560, -8.805265, 72.125000
22.239560, -8.805265, 72.250000
22.420369, -8.876852, 72.375000
22.420369, -8.876852, 72.500000
22.601179, -8.948440, 72.625000
22.781988, -9.020027, 72.750000
22.601179, -8.948440, 72.875000
22.601179, -8.948440, 73.000000
22.781988, -9.020027, 73.125000
22.781988, -9.020027, 73.250000
22.962797, -9.091615, 73.375000
22.962797, -9.091615, 73.500000
23.143607, -9.163202, 73.625000
23.143607, -9.163202, 73.750000
23.324416, -9.234790, 73.875000
23.324416, -9.234790, 74.000000
23.324416, -9.234790, 74.125000
23.505226, -9.306377, 74.250000
23.505226, -9.306377, 74.375000
23.505226, -9.306377, 74.500000
23.686035, -9.377965, 74.625000
23.686035, -9.377965, 74.750000
23.686035, -9.377965, 74.875000
23.866845, -9.449552, 75.000000
23.866845, -9.449552, 75.125000
24.047654, -9.521140, 75.250000
24.047654, -9.521140, 75.375000
24.228463, -9.592727, 75.500000
24.228463, -9.592727, 75.625000
24.228463, -9.592727, 75.750000
24.409273, -9.664315, 75.875000
24.409273, -9.664315, 76.000000
24.409273, -9.664315, 76.125000
24.590082, -9.735902, 76.250000
24.590082, -9.735902, 76.375000
24.770892, -9.807490, 76.500000
24.770892, -9.807490, 76.625000
24.770892, -9.807490, 76.750000
24.770892, -9.807490, 76.875000
24.951701, -9.879077, 77.000000
24.951701, -9.879077, 77.125000
25.132511, -9.950665, 77.250000
25.132511, -9.950665, 77.375000
25.132511, -9.950665, 77.500000
25.132511, -9.950665, 77.625000
25.313320, -10.022252, 77.750000
25.494130, -10.093840, 77.875000
25.494130, -10.093840, 78.000000
25.674939, -10.165427, 78.125000
25.674939, -10.165427, 78.250000
25.674939, -10.165427, 78.375000
25.674939, -10.165427, 78.500000
25.855748, -10.237015, 78.625000
25.855748, -10.237015, 78.750000
26.036558, -10.308602, 78.875000
26.036558, -10.308602, 79.000000
26.036558, -10.308602, 79.125000
26.217367, -10.380190, 79.250000
26.398177, -10.451778, 79.375000
26.398177, -10.451778, 79.500000
26.398177, -10.451778, 79.625000
26.398177, -10.451778, 79.750000
26.398177, -10.451778, 79.875000
26.398177, -10.451778, 80.000000
26.398177, -10.451778, 80.125000
26.398177, -10.451778, 80.250000
26.217367, -10.380190, 80.375000
44.117501, -17.467354, 99.625000
43.213454, -17.109417, 99.750000
43.032644, -17.037829, 99.875000
43.032644, -17.037829, 100.000000
43.032644, -17.037829, 100.125000
43.032644, -17.037829, 100.250000
43.032644, -17.037829, 100.375000
43.032644, -17.037829, 100.500000
43.032644, -17.037829, 100.625000
43.032644, -17.037829, 100.750000
43.575072, -17.252592, 100.875000
7.684691, -2.766659, 44.875000
7.867660, -2.832532, 45.000000
7.867660, -2.832532, 45.125000
7.867660, -2.832532, 45.250000
7.867660, -2.832532, 45.375000
7.867660, -2.832532, 45.500000
8.050628, -2.898405, 45.625000
8.050628, -2.898405, 45.750000
8.050628, -2.898405, 45.875000
8.050628, -2.898405, 46.000000
8.233597, -2.964277, 46.125000
8.416566, -3.030150, 46.250000
8.416566, -3.030150, 46.375000
8.416566, -3.030150, 46.500000
8.599535, -3.096023, 46.625000
8.416566, -3.030150, 46.750000
8.599535, -3.096023, 46.875000
8.599535, -3.096023, 47.000000
8.782504, -3.161896, 47.125000
8.782504, -3.161896, 47.250000
8.965473, -3.227769, 47.375000
8.965473, -3.227769, 47.500000
8.965473, -3.227769, 47.625000
9.148441, -3.293642, 47.750000
9.148441, -3.293642, 47.875000
9.331410, -3.359514, 48.000000
9.331410, -3.359514, 48.125000
9.331410, -3.359514, 48.250000
9.514379, -3.425387, 48.375000
9.514379, -3.425387, 48.500000
9.514379, -3.425387, 48.625000
9.697348, -3.491260, 48.750000
9.880317, -3.557133, 48.875000
9.697348, -3.491260, 49.000000
9.880317, -3.557133, 49.125000
9.880317, -3.557133, 49.250000
10.063286, -3.623006, 49.375000
10.063286, -3.623006, 49.500000
10.063286, -3.623006, 49.625000
10.246254, -3.688879, 49.750000
10.246254, -3.688879, 49.875000
10.429223, -3.754751, 50.000000
10.429223, -3.754751, 50.125000
10.429223, -3.754751, 50.250000
10.429223, -3.754751, 50.375000
10.429223, -3.754751, 50.500000
10.612192, -3.820624, 50.625000
10.795161, -3.886497, 50.750000
10.795161, -3.886497, 50.875000
10.795161, -3.886497, 51.000000
10.795161, -3.886497, 51.125000
11.161099, -4.018243, 51.250000
10.978130, -3.952370, 51.375000
10.978130, -3.952370, 51.500000
11.344067, -4.084116, 51.625000
11.161099, -4.018243, 51.750000
11.161099, -4.018243, 51.875000
11.344067, -4.084116, 52.000000
11.344067, -4.084116, 52.125000
11.344067, -4.084116, 52.250000
11.527036, -4.149988, 52.375000
11.527036, -4.149988, 52.500000
11.710005, -4.215861, 52.625000
11.710005, -4.215861, 52.750000
11.710005, -4.215861, 52.875000
11.892974, -4.281734, 53.000000
11.892974, -4.281734, 53.125000
12.075943, -4.347607, 53.250000
12.075943, -4.347607, 53.375000
12.258912, -4.413480, 53.500000
12.258912, -4.413480, 53.625000
12.258912, -4.413480, 53.750000
12.258912, -4.413480, 53.875000
12.441880, -4.479353, 54.000000
12.441880, -4.479353, 54.125000
12.624849, -4.545225, 54.250000
12.624849, -4.545225, 54.375000
12.807818, -4.611098, 54.500000
12.807818, -4.611098, 54.625000
12.807818, -4.611098, 54.750000
12.990787, -4.676971, 54.875000
12.990787, -4.676971, 55.000000
12.990787, -4.676971, 55.125000
13.173756, -4.742844, 55.250000
13.173756, -4.742844, 55.375000
13.356725, -4.808717, 55.500000
13.356725, -4.808717, 55.625000
13.356725, -4.808717, 55.750000
13.539693, -4.874590, 55.875000
13.539693, -4.874590, 56.000000
13.539693, -4.874590, 56.125000
13.722662, -4.940462, 56.250000
13.722662, -4.940462, 56.375000
13.905631, -5.006335, 56.500000
13.905631, -5.006335, 56.625000
13.905631, -5.006335, 56.750000
13.905631, -5.006335, 56.875000
14.088600, -5.072208, 57.000000
14.088600, -5.072208, 57.125000
14.088600, -5.072208, 57.250000
14.271569, -5.138081, 57.375000
14.271569, -5.138081, 57.500000
14.454537, -5.203954, 57.625000
14.454537, -5.203954, 57.750000
14.454537, -5.203954, 57.875000
14.820475, -5.335699, 58.000000
14.637506, -5.269827, 58.125000
14.637506, -5.269827, 58.250000
14.820475, -5.335699, 58.375000
14.820475, -5.335699, 58.500000
14.820475, -5.335699, 58.625000
15.003444, -5.401572, 58.750000
15.003444, -5.401572, 58.875000
15.186413, -5.467445, 59.000000
15.186413, -5.467445, 59.125000
15.369382, -5.533318, 59.250000
15.369382, -5.533318, 59.375000
15.369382, -5.533318, 59.500000
15.552350, -5.599191, 59.625000
15.552350, -5.599191, 59.750000
15.552350, -5.599191, 59.875000
15.735319, -5.665064, 60.000000
15.735319, -5.665064, 60.125000
15.918288, -5.730936, 60.250000
15.918288, -5.730936, 60.375000
15.918288, -5.730936, 60.500000
15.918288, -5.730936, 60.625000
16.101257, -5.796809, 60.750000
16.101257, -5.796809, 60.875000
16.101257, -5.796809, 61.000000
16.284226, -5.862682, 61.125000
16.284226, -5.862682, 61.250000
16.467195, -5.928555, 61.375000
16.467195, -5.928555, 61.500000
16.467195, -5.928555, 61.625000
16.650163, -5.994428, 61.750000
16.650163, -5.994428, 61.875000
16.650163, -5.994428, 62.000000
16.833132, -6.060301, 62.125000
16.833132, -6.060301, 62.250000
17.016101, -6.126173, 62.375000
17.016101, -6.126173, 62.500000
17.199070, -6.192046, 62.625000
17.199070, -6.192046, 62.750000
17.199070, -6.192046, 62.875000
17.199070, -6.192046, 63.000000
17.382039, -6.257919, 63.125000
17.382039, -6.257919, 63.250000
17.382039, -6.257919, 63.375000
17.565008, -6.323792, 63.500000
17.565008, -6.323792, 63.625000
17.747976, -6.389665, 63.750000
17.747976, -6.389665, 63.875000
17.747976, -6.389665, 64.000000
17.930945, -6.455538, 64.125000
17.930945, -6.455538, 64.250000
17.930945, -6.455538, 64.375000
18.113914, -6.521410, 64.500000
18.113914, -6.521410, 64.625000
18.113914, -6.521410, 64.750000
18.296883, -6.587283, 64.875000
18.296883, -6.587283, 65.000000
18.479852, -6.653156, 65.125000
18.479852, -6.653156, 65.250000
18.479852, -6.653156, 65.375000
18.662821, -6.719029, 65.500000
18.662821, -6.719029, 65.625000
18.662821, -6.719029, 65.750000
18.845789, -6.784902, 65.875000
18.845789, -6.784902, 66.000000
19.028758, -6.850774, 66.125000
19.028758, -6.850774, 66.250000
19.211727, -6.916647, 66.375000
19.211727, -6.916647, 66.500000
19.211727, -6.916647, 66.625000
19.211727, -6.916647, 66.750000
19.394696, -6.982520, 66.875000
19.394696, -6.982520, 67.000000
19.577665, -7.048393, 67.125000
19.577665, -7.048393, 67.250000
19.577665, -7.048393, 67.375000
19.577665, -7.048393, 67.500000
19.760634, -7.114266, 67.625000
19.943602, -7.180139, 67.750000
19.943602, -7.180139, 67.875000
19.943602, -7.180139, 68.000000
20.126571, -7.246011, 68.125000
20.126571, -7.246011, 68.250000
20.309540, -7.311884, 68.375000
20.126571, -7.246011, 68.500000
20.309540, -7.311884, 68.625000
20.309540, -7.311884, 68.750000
20.492509, -7.377757, 68.875000
20.492509, -7.377757, 69.000000
20.492509, -7.377757, 69.125000
20.675478, -7.443630, 69.250000
20.675478, -7.443630, 69.375000
20.675478, -7.443630, 69.500000
20.858446, -7.509503, 69.625000
21.041415, -7.575376, 69.750000
20.858446, -7.509503, 69.875000
21.041415, -7.575376, 70.000000
21.041415, -7.575376, 70.125000
21.224384, -7.641248, 70.250000
21.224384, -7.641248, 70.375000
21.224384, -7.641248, 70.500000
21.407353, -7.707121, 70.625000
21.590322, -7.772994, 70.750000
21.407353, -7.707121, 70.875000
21.407353, -7.707121, 71.000000
21.590322, -7.772994, 71.125000
21.590322, -7.772994, 71.250000
21.773291, -7.838867, 71.375000
21.956259, -7.904740, 71.500000
21.956259, -7.904740, 71.625000
21.956259, -7.904740, 71.750000
21.956259, -7.904740, 71.875000
22.139228, -7.970613, 72.000000
22.139228, -7.970613, 72.125000
22.139228, -7.970613, 72.250000
22.322197, -8.036485, 72.375000
22.505166, -8.102358, 72.500000
22.505166, -8.102358, 72.625000
22.505166, -8.102358, 72.750000
22.505166, -8.102358, 72.875000
22.688135, -8.168231, 73.000000
22.688135, -8.168231, 73.125000
22.871104, -8.234104, 73.250000
22.871104, -8.234104, 73.375000
23.054072, -8.299977, 73.500000
23.054072, -8.299977, 73.625000
23.054072, -8.299977, 73.750000
23.054072, -8.299977, 73.875000
23.237041, -8.365850, 74.000000
23.237041, -8.365850, 74.125000
23.237041, -8.365850, 74.250000
23.420010, -8.431722, 74.375000
23.420010, -8.431722, 74.500000
23.602979, -8.497595, 74.625000
23.602979, -8.497595, 74.750000
23.602979, -8.497595, 74.875000
23.785948, -8.563468, 75.000000
23.785948, -8.563468, 75.125000
23.968917, -8.629341, 75.250000
23.968917, -8.629341, 75.375000
23.968917, -8.629341, 75.500000
24.151885, -8.695214, 75.625000
24.151885, -8.695214, 75.750000
24.151885, -8.695214, 75.875000
24.334854, -8.761087, 76.000000
24.334854, -8.761087, 76.125000
24.334854, -8.761087, 76.250000
24.517823, -8.826959, 76.375000
24.700792, -8.892832, 76.500000
24.517823, -8.826959, 76.625000
24.883761, -8.958705, 76.750000
24.700792, -8.892832, 76.875000
24.700792, -8.892832, 77.000000
25.066730, -9.024578, 77.125000
24.883761, -8.958705, 77.250000
25.066730, -9.024578, 77.375000
25.066730, -9.024578, 77.500000
25.249698, -9.090451, 77.625000
25.249698, -9.090451, 77.750000
25.249698, -9.090451, 77.875000
25.432667, -9.156324, 78.000000
25.615636, -9.222196, 78.125000
25.615636, -9.222196, 78.250000
25.615636, -9.222196, 78.375000
25.798605, -9.288069, 78.500000
25.798605, -9.288069, 78.625000
25.798605, -9.288069, 78.750000
25.981574, -9.353942, 78.875000
25.981574, -9.353942, 79.000000
25.981574, -9.353942, 79.125000
25.981574, -9.353942, 79.250000
26.164543, -9.419815, 79.375000
26.164543, -9.419815, 79.500000
26.347511, -9.485688, 79.625000
26.347511, -9.485688, 79.750000
26.164543, -9.419815, 79.875000
26.347511, -9.485688, 80.000000
26.347511, -9.485688, 80.125000
26.347511, -9.485688, 80.250000
26.347511, -9.485688, 80.375000
44.644394, -16.072971, 99.625000
43.546581, -15.677734, 99.750000
43.546581, -15.677734, 99.875000
43.546581, -15.677734, 100.000000
43.546581, -15.677734, 100.125000
43.546581, -15.677734, 100.250000
43.546581, -15.677734, 100.375000
43.546581, -15.677734, 100.500000
43.546581, -15.677734, 100.625000
43.546581, -15.677734, 100.750000
44.278457, -15.941225, 100.875000
7.767802, -2.523912, 44.750000
7.582854, -2.463819, 44.875000
7.582854, -2.463819, 45.000000
7.212959, -2.343632, 45.125000
7.952749, -2.584005, 45.250000
7.767802, -2.523912, 45.375000
7.952749, -2.584005, 45.500000
7.952749, -2.584005, 45.625000
8.137697, -2.644098, 45.750000
8.137697, -2.644098, 45.875000
8.137697, -2.644098, 46.000000
8.137697, -2.644098, 46.125000
8.137697, -2.644098, 46.250000
8.322645, -2.704191, 46.375000
8.322645, -2.704191, 46.500000
8.507592, -2.764284, 46.625000
8.692540, -2.824377, 46.750000
8.692540, -2.824377, 46.875000
8.877488, -2.884471, 47.000000
8.877488, -2.884471, 47.125000
8.877488, -2.884471, 47.250000
8.692540, -2.824377, 47.375000
9.062435, -2.944564, 47.500000
9.062435, -2.944564, 47.625000
9.247383, -3.004657, 47.750000
9.062435, -2.944564, 47.875000
9.247383, -3.004657, 48.000000
9.432331, -3.064750, 48.125000
9.617278, -3.124843, 48.250000
9.617278, -3.124843, 48.375000
9.432331, -3.064750, 48.500000
9.617278, -3.124843, 48.625000
9.617278, -3.124843, 48.750000
9.617278, -3.124843, 48.875000
9.987174, -3.245029, 49.000000
9.802226, -3.184936, 49.125000
9.987174, -3.245029, 49.250000
9.987174, -3.245029, 49.375000
9.987174, -3.245029, 49.500000
10.172121, -3.305123, 49.625000
10.172121, -3.305123, 49.750000
10.172121, -3.305123, 49.875000
10.357069, -3.365216, 50.000000
10.357069, -3.365216, 50.125000
10.357069, -3.365216, 50.250000
10.542017, -3.425309, 50.375000
10.726964, -3.485402, 50.500000
10.726964, -3.485402, 50.625000
10.726964, -3.485402, 50.750000
10.911912, -3.545495, 50.875000
10.726964, -3.485402, 51.000000
10.911912, -3.545495, 51.125000
10.911912, -3.545495, 51.250000
10.911912, -3.545495, 51.375000
11.096860, -3.605588, 51.500000
11.096860, -3.605588, 51.625000
11.096860, -3.605588, 51.750000
11.466755, -3.725775, 51.875000
11.281807, -3.665681, 52.000000
11.281807, -3.665681, 52.125000
11.466755, -3.725775, 52.250000
11.466755, -3.725775, 52.375000
11.651703, -3.785868, 52.500000
11.651703, -3.785868, 52.625000
11.651703, -3.785868, 52.750000
11.836650, -3.845961, 52.875000
12.021598, -3.906054, 53.000000
12.021598, -3.906054, 53.125000
12.021598, -3.906054, 53.250000
12.021598, -3.906054, 53.375000
12.206546, -3.966147, 53.500000
12.206546, -3.966147, 53.625000
12.391493, -4.026240, 53.750000
12.391493, -4.026240, 53.875000
12.391493, -4.026240, 54.000000
12.576441, -4.086333, 54.125000
12.576441, -4.086333, 54.250000
12.576441, -4.086333, 54.375000
12.576441, -4.086333, 54.500000
12.946336, -4.206520, 54.625000
12.761389, -4.146426, 54.750000
12.946336, -4.206520, 54.875000
12.946336, -4.206520, 55.000000
13.131284, -4.266613, 55.125000
13.131284, -4.266613, 55.250000
13.316232, -4.326706, 55.375000
13.316232, -4.326706, 55.500000
13.316232, -4.326706, 55.625000
13.501179, -4.386799, 55.750000
13.501179, -4.386799, 55.875000
13.501179, -4.386799, 56.000000
13.686127, -4.446892, 56.125000
13.686127, -4.446892, 56.250000
13.686127, -4.446892, 56.375000
13.686127, -4.446892, 56.500000
13.871075, -4.506985, 56.625000
14.056022, -4.567078, 56.750000
14.056022, -4.567078, 56.875000
14.056022, -4.567078, 57.000000
14.056022, -4.567078, 57.125000
14.240970, -4.627172, 57.250000
14.240970, -4.627172, 57.375000
14.240970, -4.627172, 57.500000
14.240970, -4.627172, 57.625000
14.425918, -4.687265, 57.750000
14.610865, -4.747358, 57.875000
14.610865, -4.747358, 58.000000
14.610865, -4.747358, 58.125000
14.795813, -4.807451, 58.250000
14.980760, -4.867544, 58.375000
14.980760, -4.867544, 58.500000
14.980760, -4.867544, 58.625000
14.980760, -4.867544, 58.750000
15.165708, -4.927637, 58.875000
15.350656, -4.987730, 59.000000
15.165708, -4.927637, 59.125000
15.535603, -5.047824, 59.250000
15.535603, -5.047824, 59.375000
15.535603, -5.047824, 59.500000
15.535603, -5.047824, 59.625000
15.720551, -5.107917, 59.750000
15.720551, -5.107917, 59.875000
15.905499, -5.168010, 60.000000
15.720551, -5.107917, 60.125000
15.905499, -5.168010, 60.250000
15.905499, -5.168010, 60.375000
16.090446, -5.228103, 60.500000
16.090446, -5.228103, 60.625000
16.090446, -5.228103, 60.750000
16.275394, -5.288196, 60.875000
16.275394, -5.288196, 61.000000
16.460342, -5.348289, 61.125000
16.460342, -5.348289, 61.250000
16.460342, -5.348289, 61.375000
16.645289, -5.408382, 61.500000
16.645289, -5.408382, 61.625000
16.645289, -5.408382, 61.750000
16.830237, -5.468476, 61.875000
16.830237, -5.468476, 62.000000
16.830237, -5.468476, 62.125000
17.015185, -5.528569, 62.250000
17.015185, -5.528569, 62.375000
17.015185, -5.528569, 62.500000
17.200132, -5.588662, 62.625000
17.200132, -5.588662, 62.750000
17.385080, -5.648755, 62.875000
17.385080, -5.648755, 63.000000
17.385080, -5.648755, 63.125000
17.385080, -5.648755, 63.250000
17.385080, -5.648755, 63.375000
17.754975, -5.768941, 63.500000
17.754975, -5.768941, 63.625000
17.754975, -5.768941, 63.750000
17.939923, -5.829034, 63.875000
17.939923, -5.829034, 64.000000
17.939923, -5.829034, 64.125000
18.124871, -5.889127, 64.250000
18.124871, -5.889127, 64.375000
18.124871, -5.889127, 64.500000
18.124871, -5.889127, 64.625000
18.309818, -5.949221, 64.750000
18.309818, -5.949221, 64.875000
18.494766, -6.009314, 65.000000
18.494766, -6.009314, 65.125000
18.679714, -6.069407, 65.250000
18.679714, -6.069407, 65.375000
18.864661, -6.129500, 65.500000
18.864661, -6.129500, 65.625000
18.864661, -6.129500, 65.750000
18.864661, -6.129500, 65.875000
19.049609, -6.189593, 66.000000
19.049609, -6.189593, 66.125000
19.234557, -6.249686, 66.250000
19.234557, -6.249686, 66.375000
19.419504, -6.309779, 66.500000
19.419504, -6.309779, 66.625000
19.419504, -6.309779, 66.750000
19.604452, -6.369873, 66.875000
19.604452, -6.369873, 67.000000
19.604452, -6.369873, 67.125000
19.604452, -6.369873, 67.250000
19.789400, -6.429966, 67.375000
19.974347, -6.490059, 67.500000
19.974347, -6.490059, 67.625000
19.974347, -6.490059, 67.750000
19.974347, -6.490059, 67.875000
20.159295, -6.550152, 68.000000
20.159295, -6.550152, 68.125000
20.344243, -6.610245, 68.250000
20.344243, -6.610245, 68.375000
20.529190, -6.670338, 68.500000
20.344243, -6.610245, 68.625000
20.529190, -6.670338, 68.750000
20.529190, -6.670338, 68.875000
20.529190, -6.670338, 69.000000
20.714138, -6.730431, 69.125000
20.899086, -6.790525, 69.250000
20.899086, -6.790525, 69.375000
20.899086, -6.790525, 69.500000
20.899086, -6.790525, 69.625000
21.084033, -6.850618, 69.750000
21.084033, -6.850618, 69.875000
21.084033, -6.850618, 70.000000
21.268981, -6.910711, 70.125000
21.268981, -6.910711, 70.250000
21.453929, -6.970804, 70.375000
21.453929, -6.970804, 70.500000
21.453929, -6.970804, 70.625000
21.638876, -7.030897, 70.750000
21.638876, -7.030897, 70.875000
21.638876, -7.030897, 71.000000
21.823824, -7.090990, 71.125000
21.823824, -7.090990, 71.250000
21.823824, -7.090990, 71.375000
22.008772, -7.151083, 71.500000
22.008772, -7.151083, 71.625000
