19.175390, -3.657901, 62.250000
19.175390, -3.657901, 62.375000
19.175390, -3.657901, 62.500000
19.465926, -3.713324, 62.625000
19.465926, -3.713324, 62.750000
19.465926, -3.713324, 62.875000
19.756462, -3.768747, 63.000000
19.756462, -3.768747, 63.125000
19.756462, -3.768747, 63.250000
19.756462, -3.768747, 63.375000
20.046998, -3.824169, 63.500000
20.046998, -3.824169, 63.625000
20.046998, -3.824169, 63.750000
20.337534, -3.879592, 63.875000
20.046998, -3.824169, 64.000000
20.337534, -3.879592, 64.125000
20.337534, -3.879592, 64.250000
20.628071, -3.935015, 64.375000
20.628071, -3.935015, 64.500000
20.628071, -3.935015, 64.625000
20.628071, -3.935015, 64.750000
20.628071, -3.935015, 64.875000
20.918607, -3.990438, 65.000000
20.918607, -3.990438, 65.125000
21.209143, -4.045860, 65.250000
21.209143, -4.045860, 65.375000
21.209143, -4.045860, 65.500000
21.209143, -4.045860, 65.625000
21.499679, -4.101283, 65.750000
21.499679, -4.101283, 65.875000
21.790215, -4.156706, 66.000000
21.499679, -4.101283, 66.125000
21.790215, -4.156706, 66.250000
21.790215, -4.156706, 66.375000
21.790215, -4.156706, 66.500000
21.790215, -4.156706, 66.625000
22.080752, -4.212129, 66.750000
22.080752, -4.212129, 66.875000
22.080752, -4.212129, 67.000000
22.371288, -4.267551, 67.125000
22.371288, -4.267551, 67.250000
22.371288, -4.267551, 67.375000
22.371288, -4.267551, 67.500000
22.661824, -4.322974, 67.625000
22.661824, -4.322974, 67.750000
22.661824, -4.322974, 67.875000
22.661824, -4.322974, 68.000000
22.952360, -4.378397, 68.125000
22.952360, -4.378397, 68.250000
23.242896, -4.433820, 68.375000
23.242896, -4.433820, 68.500000
23.242896, -4.433820, 68.625000
23.533433, -4.489242, 68.750000
23.242896, -4.433820, 68.875000
23.533433, -4.489242, 69.000000
23.533433, -4.489242, 69.125000
23.823969, -4.544665, 69.250000
23.533433, -4.489242, 69.375000
23.823969, -4.544665, 69.500000
23.823969, -4.544665, 69.625000
23.823969, -4.544665, 69.750000
23.823969, -4.544665, 69.875000
24.114505, -4.600088, 70.000000
24.114505, -4.600088, 70.125000
24.114505, -4.600088, 70.250000
24.114505, -4.600088, 70.375000
24.405041, -4.655511, 70.500000
24.405041, -4.655511, 70.625000
24.405041, -4.655511, 70.750000
24.405041, -4.655511, 70.875000
24.695578, -4.710933, 71.000000
24.695578, -4.710933, 71.125000
24.695578, -4.710933, 71.250000
24.695578, -4.710933, 71.375000
24.986114, -4.766356, 71.500000
24.986114, -4.766356, 71.625000
24.986114, -4.766356, 71.750000
24.986114, -4.766356, 71.875000
25.276650, -4.821779, 72.000000
25.567186, -4.877202, 72.125000
25.276650, -4.821779, 72.250000
25.276650, -4.821779, 72.375000
25.567186, -4.877202, 72.500000
25.567186, -4.877202, 72.625000
25.857722, -4.932624, 72.750000
25.857722, -4.932624, 72.875000
25.857722, -4.932624, 73.000000
25.857722, -4.932624, 73.125000
26.148259, -4.988047, 73.250000
26.148259, -4.988047, 73.375000
26.148259, -4.988047, 73.500000
26.148259, -4.988047, 73.625000
26.438795, -5.043470, 73.750000
26.438795, -5.043470, 73.875000
26.729331, -5.098893, 74.000000
26.729331, -5.098893, 74.125000
26.729331, -5.098893, 74.250000
26.729331, -5.098893, 74.375000
27.019867, -5.154315, 74.500000
27.019867, -5.154315, 74.625000
27.019867, -5.154315, 74.750000
27.019867, -5.154315, 74.875000
27.310403, -5.209738, 75.000000
27.310403, -5.209738, 75.125000
27.310403, -5.209738, 75.250000
27.600940, -5.265161, 75.375000
27.600940, -5.265161, 75.500000
27.600940, -5.265161, 75.625000
27.600940, -5.265161, 75.750000
27.891476, -5.320584, 75.875000
27.891476, -5.320584, 76.000000
27.891476, -5.320584, 76.125000
28.182012, -5.376006, 76.250000
28.182012, -5.376006, 76.375000
28.182012, -5.376006, 76.500000
28.182012, -5.376006, 76.625000
28.182012, -5.376006, 76.750000
28.182012, -5.376006, 76.875000
28.472548, -5.431429, 77.000000
28.472548, -5.431429, 77.125000
28.472548, -5.431429, 77.250000
28.763084, -5.486852, 77.375000
28.763084, -5.486852, 77.500000
28.763084, -5.486852, 77.625000
29.053621, -5.542275, 77.750000
29.053621, -5.542275, 77.875000
29.053621, -5.542275, 78.000000
29.053621, -5.542275, 78.125000
29.344157, -5.597697, 78.250000
29.344157, -5.597697, 78.375000
29.634693, -5.653120, 78.500000
29.634693, -5.653120, 78.625000
29.634693, -5.653120, 78.750000
29.634693, -5.653120, 78.875000
29.634693, -5.653120, 79.000000
29.925229, -5.708543, 79.125000
29.925229, -5.708543, 79.250000
30.506302, -5.819388, 79.375000
30.215765, -5.763966, 79.500000
30.215765, -5.763966, 79.625000
30.215765, -5.763966, 79.750000
30.506302, -5.819388, 79.875000
30.796838, -5.874811, 80.000000
30.506302, -5.819388, 80.125000
30.796838, -5.874811, 80.250000
30.506302, -5.819388, 80.375000
30.796838, -5.874811, 80.500000
30.506302, -5.819388, 80.625000
30.506302, -5.819388, 80.750000
30.796838, -5.874811, 80.875000
30.506302, -5.819388, 81.000000
30.796838, -5.874811, 81.125000
30.506302, -5.819388, 81.250000
30.796838, -5.874811, 81.375000
30.796838, -5.874811, 81.500000
53.168126, -10.142362, 102.375000
53.168126, -10.142362, 102.500000
53.749198, -10.253208, 102.625000
53.749198, -10.253208, 102.750000
53.749198, -10.253208, 102.875000
54.039734, -10.308631, 103.000000
53.458662, -10.197785, 103.125000
52.587053, -10.031517, 103.250000
52.296517, -9.976094, 103.375000
53.168126, -10.142362, 103.500000
196.898124, -31.185599, 0.625000
197.482391, -31.278138, 0.750000
195.437455, -30.954252, 0.875000
196.605990, -31.139330, 1.000000
196.605990, -31.139330, 1.125000
196.605990, -31.139330, 1.250000
193.100385, -30.584096, 2.750000
192.808252, -30.537827, 3.375000
195.145321, -30.907982, 3.625000
197.190257, -31.231869, 3.750000
193.976786, -30.722905, 3.875000
196.898124, -31.185599, 4.000000
196.898124, -31.185599, 4.125000
196.313856, -31.093060, 4.250000
195.729589, -31.000521, 4.375000
197.774525, -31.324407, 4.500000
197.774525, -31.324407, 4.625000
7.887610, -1.249275, 43.750000
8.179744, -1.295544, 43.875000
8.179744, -1.295544, 44.000000
8.179744, -1.295544, 44.125000
8.179744, -1.295544, 44.250000
8.179744, -1.295544, 44.375000
8.179744, -1.295544, 44.500000
8.471878, -1.341814, 44.625000
8.179744, -1.295544, 44.750000
8.471878, -1.341814, 44.875000
8.471878, -1.341814, 45.000000
8.764011, -1.388083, 45.125000
8.764011, -1.388083, 45.250000
8.764011, -1.388083, 45.375000
8.764011, -1.388083, 45.500000
8.764011, -1.388083, 45.625000
8.764011, -1.388083, 45.750000
9.056145, -1.434352, 45.875000
9.056145, -1.434352, 46.000000
9.348279, -1.480622, 46.125000
9.348279, -1.480622, 46.250000
9.348279, -1.480622, 46.375000
9.348279, -1.480622, 46.500000
9.640413, -1.526891, 46.625000
9.640413, -1.526891, 46.750000
9.640413, -1.526891, 46.875000
9.932546, -1.573161, 47.000000
9.640413, -1.526891, 47.125000
9.932546, -1.573161, 47.250000
9.932546, -1.573161, 47.375000
9.932546, -1.573161, 47.500000
9.932546, -1.573161, 47.625000
10.224680, -1.619430, 47.750000
10.224680, -1.619430, 47.875000
10.516814, -1.665700, 48.000000
10.516814, -1.665700, 48.125000
10.516814, -1.665700, 48.250000
10.516814, -1.665700, 48.375000
10.808947, -1.711969, 48.500000
10.808947, -1.711969, 48.625000
10.808947, -1.711969, 48.750000
10.808947, -1.711969, 48.875000
10.808947, -1.711969, 49.000000
10.808947, -1.711969, 49.125000
11.101081, -1.758239, 49.250000
11.101081, -1.758239, 49.375000
11.393215, -1.804508, 49.500000
11.393215, -1.804508, 49.625000
11.393215, -1.804508, 49.750000
11.393215, -1.804508, 49.875000
11.393215, -1.804508, 50.000000
11.685349, -1.850777, 50.125000
11.685349, -1.850777, 50.250000
11.685349, -1.850777, 50.375000
11.685349, -1.850777, 50.500000
11.977482, -1.897047, 50.625000
11.977482, -1.897047, 50.750000
11.977482, -1.897047, 50.875000
12.269616, -1.943316, 51.000000
12.269616, -1.943316, 51.125000
12.269616, -1.943316, 51.250000
12.269616, -1.943316, 51.375000
12.561750, -1.989586, 51.500000
12.561750, -1.989586, 51.625000
12.561750, -1.989586, 51.750000
12.561750, -1.989586, 51.875000
12.561750, -1.989586, 52.000000
12.561750, -1.989586, 52.125000
13.146017, -2.082125, 52.250000
12.853883, -2.035855, 52.375000
12.853883, -2.035855, 52.500000
12.853883, -2.035855, 52.625000
13.146017, -2.082125, 52.750000
13.146017, -2.082125, 52.875000
13.146017, -2.082125, 53.000000
13.146017, -2.082125, 53.125000
13.438151, -2.128394, 53.250000
13.438151, -2.128394, 53.375000
13.438151, -2.128394, 53.500000
13.730285, -2.174663, 53.625000
13.730285, -2.174663, 53.750000
13.730285, -2.174663, 53.875000
14.022418, -2.220933, 54.000000
14.022418, -2.220933, 54.125000
14.022418, -2.220933, 54.250000
14.022418, -2.220933, 54.375000
14.314552, -2.267202, 54.500000
14.314552, -2.267202, 54.625000
14.314552, -2.267202, 54.750000
14.606686, -2.313472, 54.875000
14.606686, -2.313472, 55.000000
14.606686, -2.313472, 55.125000
14.606686, -2.313472, 55.250000
14.898819, -2.359741, 55.375000
14.898819, -2.359741, 55.500000
14.898819, -2.359741, 55.625000
15.190953, -2.406011, 55.750000
15.190953, -2.406011, 55.875000
15.190953, -2.406011, 56.000000
15.190953, -2.406011, 56.125000
15.483087, -2.452280, 56.250000
15.483087, -2.452280, 56.375000
15.483087, -2.452280, 56.500000
15.483087, -2.452280, 56.625000
15.775221, -2.498549, 56.750000
15.775221, -2.498549, 56.875000
15.775221, -2.498549, 57.000000
15.775221, -2.498549, 57.125000
16.067354, -2.544819, 57.250000
16.067354, -2.544819, 57.375000
16.067354, -2.544819, 57.500000
16.359488, -2.591088, 57.625000
16.359488, -2.591088, 57.750000
16.359488, -2.591088, 57.875000
16.359488, -2.591088, 58.000000
16.943755, -2.683627, 58.125000
16.651622, -2.637358, 58.250000
16.651622, -2.637358, 58.375000
16.943755, -2.683627, 58.500000
16.943755, -2.683627, 58.625000
16.943755, -2.683627, 58.750000
16.943755, -2.683627, 58.875000
17.235889, -2.729897, 59.000000
17.235889, -2.729897, 59.125000
17.235889, -2.729897, 59.250000
17.235889, -2.729897, 59.375000
17.528023, -2.776166, 59.500000
17.528023, -2.776166, 59.625000
17.528023, -2.776166, 59.750000
17.528023, -2.776166, 59.875000
17.820157, -2.822436, 60.000000
17.820157, -2.822436, 60.125000
17.820157, -2.822436, 60.250000
17.820157, -2.822436, 60.375000
18.112290, -2.868705, 60.500000
18.112290, -2.868705, 60.625000
18.112290, -2.868705, 60.750000
18.112290, -2.868705, 60.875000
18.404424, -2.914974, 61.000000
18.404424, -2.914974, 61.125000
18.696558, -2.961244, 61.250000
18.696558, -2.961244, 61.375000
18.696558, -2.961244, 61.500000
18.696558, -2.961244, 61.625000
18.988691, -3.007513, 61.750000
18.988691, -3.007513, 61.875000
18.988691, -3.007513, 62.000000
18.988691, -3.007513, 62.125000
19.280825, -3.053783, 62.250000
19.280825, -3.053783, 62.375000
19.280825, -3.053783, 62.500000
19.280825, -3.053783, 62.625000
19.572959, -3.100052, 62.750000
19.572959, -3.100052, 62.875000
19.865093, -3.146322, 63.000000
19.572959, -3.100052, 63.125000
19.865093, -3.146322, 63.250000
19.865093, -3.146322, 63.375000
19.865093, -3.146322, 63.500000
19.865093, -3.146322, 63.625000
20.157226, -3.192591, 63.750000
20.157226, -3.192591, 63.875000
20.157226, -3.192591, 64.000000
20.449360, -3.238860, 64.125000
20.449360, -3.238860, 64.250000
20.449360, -3.238860, 64.375000
20.449360, -3.238860, 64.500000
20.741494, -3.285130, 64.625000
20.741494, -3.285130, 64.750000
20.741494, -3.285130, 64.875000
21.033627, -3.331399, 65.000000
21.033627, -3.331399, 65.125000
21.033627, -3.331399, 65.250000
21.325761, -3.377669, 65.375000
21.325761, -3.377669, 65.500000
21.325761, -3.377669, 65.625000
21.325761, -3.377669, 65.750000
21.325761, -3.377669, 65.875000
21.617895, -3.423938, 66.000000
21.617895, -3.423938, 66.125000
21.617895, -3.423938, 66.250000
21.910029, -3.470208, 66.375000
21.910029, -3.470208, 66.500000
21.910029, -3.470208, 66.625000
21.910029, -3.470208, 66.750000
22.202162, -3.516477, 66.875000
22.202162, -3.516477, 67.000000
22.202162, -3.516477, 67.125000
22.494296, -3.562746, 67.250000
22.494296, -3.562746, 67.375000
22.494296, -3.562746, 67.500000
22.494296, -3.562746, 67.625000
22.786430, -3.609016, 67.750000
22.786430, -3.609016, 67.875000
22.786430, -3.609016, 68.000000
22.786430, -3.609016, 68.125000
23.078563, -3.655285, 68.250000
23.078563, -3.655285, 68.375000
23.078563, -3.655285, 68.500000
23.078563, -3.655285, 68.625000
23.078563, -3.655285, 68.750000
23.078563, -3.655285, 68.875000
23.370697, -3.701555, 69.000000
23.370697, -3.701555, 69.125000
23.370697, -3.701555, 69.250000
23.662831, -3.747824, 69.375000
23.662831, -3.747824, 69.500000
23.662831, -3.747824, 69.625000
23.954965, -3.794094, 69.750000
23.954965, -3.794094, 69.875000
23.954965, -3.794094, 70.000000
23.954965, -3.794094, 70.125000
24.247098, -3.840363, 70.250000
24.247098, -3.840363, 70.375000
24.247098, -3.840363, 70.500000
24.539232, -3.886633, 70.625000
24.539232, -3.886633, 70.750000
24.539232, -3.886633, 70.875000
24.539232, -3.886633, 71.000000
24.831366, -3.932902, 71.125000
25.123499, -3.979171, 71.250000
24.831366, -3.932902, 71.375000
24.831366, -3.932902, 71.500000
25.123499, -3.979171, 71.625000
25.123499, -3.979171, 71.750000
25.123499, -3.979171, 71.875000
25.123499, -3.979171, 72.000000
25.415633, -4.025441, 72.125000
25.415633, -4.025441, 72.250000
25.415633, -4.025441, 72.375000
25.415633, -4.025441, 72.500000
25.707767, -4.071710, 72.625000
25.707767, -4.071710, 72.750000
25.707767, -4.071710, 72.875000
25.999901, -4.117980, 73.000000
25.999901, -4.117980, 73.125000
25.999901, -4.117980, 73.250000
25.999901, -4.117980, 73.375000
26.292034, -4.164249, 73.500000
26.292034, -4.164249, 73.625000
26.292034, -4.164249, 73.750000
26.292034, -4.164249, 73.875000
26.292034, -4.164249, 74.000000
26.584168, -4.210519, 74.125000
26.584168, -4.210519, 74.250000
26.876302, -4.256788, 74.375000
26.876302, -4.256788, 74.500000
26.876302, -4.256788, 74.625000
27.168435, -4.303057, 74.750000
27.168435, -4.303057, 74.875000
27.168435, -4.303057, 75.000000
27.460569, -4.349327, 75.125000
27.460569, -4.349327, 75.250000
27.460569, -4.349327, 75.375000
27.460569, -4.349327, 75.500000
27.752703, -4.395596, 75.625000
27.752703, -4.395596, 75.750000
27.752703, -4.395596, 75.875000
28.044837, -4.441866, 76.000000
28.044837, -4.441866, 76.125000
28.044837, -4.441866, 76.250000
28.044837, -4.441866, 76.375000
28.336970, -4.488135, 76.500000
28.336970, -4.488135, 76.625000
28.336970, -4.488135, 76.750000
28.336970, -4.488135, 76.875000
28.629104, -4.534405, 77.000000
28.629104, -4.534405, 77.125000
28.629104, -4.534405, 77.250000
28.921238, -4.580674, 77.375000
28.921238, -4.580674, 77.500000
28.921238, -4.580674, 77.625000
29.213371, -4.626943, 77.750000
29.213371, -4.626943, 77.875000
29.213371, -4.626943, 78.000000
29.213371, -4.626943, 78.125000
29.505505, -4.673213, 78.250000
29.505505, -4.673213, 78.375000
29.797639, -4.719482, 78.500000
29.797639, -4.719482, 78.625000
29.797639, -4.719482, 78.750000
30.089773, -4.765752, 78.875000
30.089773, -4.765752, 79.000000
30.089773, -4.765752, 79.125000
30.089773, -4.765752, 79.250000
30.381906, -4.812021, 79.375000
30.381906, -4.812021, 79.500000
30.674040, -4.858291, 79.625000
30.674040, -4.858291, 79.750000
30.674040, -4.858291, 79.875000
30.674040, -4.858291, 80.000000
30.674040, -4.858291, 80.125000
30.674040, -4.858291, 80.250000
30.674040, -4.858291, 80.375000
30.966174, -4.904560, 80.500000
30.674040, -4.858291, 80.625000
30.674040, -4.858291, 80.750000
30.966174, -4.904560, 80.875000
30.966174, -4.904560, 81.000000
30.674040, -4.858291, 81.125000
30.674040, -4.858291, 81.250000
30.674040, -4.858291, 81.375000
30.966174, -4.904560, 81.500000
53.460470, -8.467307, 102.375000
53.460470, -8.467307, 102.500000
54.044737, -8.559845, 102.625000
54.044737, -8.559845, 102.750000
54.044737, -8.559845, 102.875000
54.629005, -8.652384, 103.000000
53.752603, -8.513576, 103.125000
52.584069, -8.328498, 103.250000
53.460470, -8.467307, 103.375000
53.168336, -8.421037, 103.500000
198.954301, -25.133773, 0.500000
197.780530, -24.985491, 0.625000
198.367415, -25.059632, 0.750000
196.900201, -24.874280, 0.875000
197.780530, -24.985491, 1.000000
197.487087, -24.948421, 1.125000
197.487087, -24.948421, 1.250000
194.552657, -24.577716, 1.375000
193.965772, -24.503575, 2.750000
193.378886, -24.429434, 3.375000
198.073972, -25.022562, 3.500000
196.019872, -24.763069, 3.625000
195.726429, -24.725998, 3.750000
194.846100, -24.614787, 3.875000
197.780530, -24.985491, 4.000000
197.487087, -24.948421, 4.125000
196.900201, -24.874280, 4.250000
196.606758, -24.837210, 4.375000
198.660858, -25.096703, 4.500000
198.660858, -25.096703, 4.625000
7.922959, -1.000902, 43.750000
8.216402, -1.037973, 43.875000
7.922959, -1.000902, 44.000000
7.922959, -1.000902, 44.125000
7.922959, -1.000902, 44.250000
7.922959, -1.000902, 44.375000
8.216402, -1.037973, 44.500000
8.216402, -1.037973, 44.625000
8.216402, -1.037973, 44.750000
8.216402, -1.037973, 44.875000
8.509845, -1.075043, 45.000000
8.509845, -1.075043, 45.125000
8.509845, -1.075043, 45.250000
8.803288, -1.112114, 45.375000
8.509845, -1.075043, 45.500000
8.803288, -1.112114, 45.625000
8.803288, -1.112114, 45.750000
8.803288, -1.112114, 45.875000
9.096731, -1.149184, 46.000000
9.096731, -1.149184, 46.125000
9.096731, -1.149184, 46.250000
9.096731, -1.149184, 46.375000
9.096731, -1.149184, 46.500000
9.390174, -1.186255, 46.625000
9.390174, -1.186255, 46.750000
9.683616, -1.223325, 46.875000
9.683616, -1.223325, 47.000000
9.683616, -1.223325, 47.125000
9.683616, -1.223325, 47.250000
9.683616, -1.223325, 47.375000
9.977059, -1.260396, 47.500000
9.977059, -1.260396, 47.625000
9.977059, -1.260396, 47.750000
9.977059, -1.260396, 47.875000
10.270502, -1.297466, 48.000000
10.270502, -1.297466, 48.125000
10.270502, -1.297466, 48.250000
10.563945, -1.334537, 48.375000
10.563945, -1.334537, 48.500000
10.857388, -1.371607, 48.625000
10.563945, -1.334537, 48.750000
10.857388, -1.371607, 48.875000
10.857388, -1.371607, 49.000000
10.857388, -1.371607, 49.125000
11.150831, -1.408678, 49.250000
11.150831, -1.408678, 49.375000
11.150831, -1.408678, 49.500000
11.150831, -1.408678, 49.625000
11.150831, -1.408678, 49.750000
11.150831, -1.408678, 49.875000
11.444274, -1.445748, 50.000000
11.444274, -1.445748, 50.125000
11.444274, -1.445748, 50.250000
11.444274, -1.445748, 50.375000
11.737717, -1.482818, 50.500000
11.737717, -1.482818, 50.625000
11.737717, -1.482818, 50.750000
11.737717, -1.482818, 50.875000
12.031160, -1.519889, 51.000000
12.031160, -1.519889, 51.125000
12.031160, -1.519889, 51.250000
12.031160, -1.519889, 51.375000
12.031160, -1.519889, 51.500000
12.324603, -1.556959, 51.625000
12.324603, -1.556959, 51.750000
12.324603, -1.556959, 51.875000
12.618046, -1.594030, 52.000000
12.618046, -1.594030, 52.125000
12.618046, -1.594030, 52.250000
12.618046, -1.594030, 52.375000
12.618046, -1.594030, 52.500000
12.911489, -1.631100, 52.625000
12.911489, -1.631100, 52.750000
13.204931, -1.668171, 52.875000
13.204931, -1.668171, 53.000000
13.204931, -1.668171, 53.125000
13.204931, -1.668171, 53.250000
13.498374, -1.705241, 53.375000
13.498374, -1.705241, 53.500000
13.498374, -1.705241, 53.625000
13.791817, -1.742312, 53.750000
13.791817, -1.742312, 53.875000
13.791817, -1.742312, 54.000000
13.791817, -1.742312, 54.125000
14.085260, -1.779382, 54.250000
14.085260, -1.779382, 54.375000
14.085260, -1.779382, 54.500000
14.085260, -1.779382, 54.625000
14.378703, -1.816453, 54.750000
14.378703, -1.816453, 54.875000
14.378703, -1.816453, 55.000000
14.672146, -1.853523, 55.125000
14.672146, -1.853523, 55.250000
14.672146, -1.853523, 55.375000
14.672146, -1.853523, 55.500000
14.672146, -1.853523, 55.625000
14.965589, -1.890594, 55.750000
14.965589, -1.890594, 55.875000
15.259032, -1.927664, 56.000000
15.259032, -1.927664, 56.125000
15.259032, -1.927664, 56.250000
15.259032, -1.927664, 56.375000
15.259032, -1.927664, 56.500000
15.552475, -1.964734, 56.625000
15.552475, -1.964734, 56.750000
15.845918, -2.001805, 56.875000
15.845918, -2.001805, 57.000000
15.845918, -2.001805, 57.125000
15.845918, -2.001805, 57.250000
15.845918, -2.001805, 57.375000
16.139361, -2.038875, 57.500000
16.139361, -2.038875, 57.625000
16.139361, -2.038875, 57.750000
16.139361, -2.038875, 57.875000
16.432804, -2.075946, 58.000000
16.432804, -2.075946, 58.125000
16.432804, -2.075946, 58.250000
16.726247, -2.113016, 58.375000
16.726247, -2.113016, 58.500000
16.726247, -2.113016, 58.625000
16.726247, -2.113016, 58.750000
17.019689, -2.150087, 58.875000
17.019689, -2.150087, 59.000000
17.019689, -2.150087, 59.125000
17.313132, -2.187157, 59.250000
17.313132, -2.187157, 59.375000
17.313132, -2.187157, 59.500000
17.606575, -2.224228, 59.625000
17.606575, -2.224228, 59.750000
17.606575, -2.224228, 59.875000
17.606575, -2.224228, 60.000000
17.606575, -2.224228, 60.125000
17.900018, -2.261298, 60.250000
17.900018, -2.261298, 60.375000
17.900018, -2.261298, 60.500000
17.900018, -2.261298, 60.625000
18.193461, -2.298369, 60.750000
18.193461, -2.298369, 60.875000
18.193461, -2.298369, 61.000000
18.486904, -2.335439, 61.125000
18.486904, -2.335439, 61.250000
18.486904, -2.335439, 61.375000
18.780347, -2.372510, 61.500000
18.780347, -2.372510, 61.625000
18.780347, -2.372510, 61.750000
18.780347, -2.372510, 61.875000
19.073790, -2.409580, 62.000000
18.780347, -2.372510, 62.125000
19.073790, -2.409580, 62.250000
19.073790, -2.409580, 62.375000
19.073790, -2.409580, 62.500000
19.367233, -2.446650, 62.625000
19.367233, -2.446650, 62.750000
19.367233, -2.446650, 62.875000
19.367233, -2.446650, 63.000000
19.660676, -2.483721, 63.125000
19.660676, -2.483721, 63.250000
19.660676, -2.483721, 63.375000
19.660676, -2.483721, 63.500000
19.954119, -2.520791, 63.625000
19.954119, -2.520791, 63.750000
20.247562, -2.557862, 63.875000
20.247562, -2.557862, 64.000000
20.247562, -2.557862, 64.125000
20.247562, -2.557862, 64.250000
20.247562, -2.557862, 64.375000
20.541005, -2.594932, 64.500000
20.541005, -2.594932, 64.625000
20.541005, -2.594932, 64.750000
20.834447, -2.632003, 64.875000
20.834447, -2.632003, 65.000000
21.127890, -2.669073, 65.125000
21.127890, -2.669073, 65.250000
21.127890, -2.669073, 65.375000
21.421333, -2.706144, 65.500000
21.127890, -2.669073, 65.625000
21.127890, -2.669073, 65.750000
21.421333, -2.706144, 65.875000
21.421333, -2.706144, 66.000000
21.714776, -2.743214, 66.125000
21.714776, -2.743214, 66.250000
21.714776, -2.743214, 66.375000
21.714776, -2.743214, 66.500000
21.714776, -2.743214, 66.625000
21.714776, -2.743214, 66.750000
22.008219, -2.780285, 66.875000
22.301662, -2.817355, 67.000000
22.008219, -2.780285, 67.125000
22.301662, -2.817355, 67.250000
22.301662, -2.817355, 67.375000
22.301662, -2.817355, 67.500000
22.301662, -2.817355, 67.625000
22.595105, -2.854426, 67.750000
22.595105, -2.854426, 67.875000
22.595105, -2.854426, 68.000000
22.595105, -2.854426, 68.125000
22.888548, -2.891496, 68.250000
22.888548, -2.891496, 68.375000
22.888548, -2.891496, 68.500000
22.888548, -2.891496, 68.625000
23.475434, -2.965637, 68.750000
23.181991, -2.928566, 68.875000
23.181991, -2.928566, 69.000000
23.475434, -2.965637, 69.125000
23.475434, -2.965637, 69.250000
23.475434, -2.965637, 69.375000
23.768877, -3.002707, 69.500000
23.768877, -3.002707, 69.625000
23.768877, -3.002707, 69.750000
23.768877, -3.002707, 69.875000
24.062320, -3.039778, 70.000000
24.062320, -3.039778, 70.125000
24.062320, -3.039778, 70.250000
24.355763, -3.076848, 70.375000
24.355763, -3.076848, 70.500000
24.355763, -3.076848, 70.625000
24.355763, -3.076848, 70.750000
24.649205, -3.113919, 70.875000
24.649205, -3.113919, 71.000000
24.649205, -3.113919, 71.125000
24.942648, -3.150989, 71.250000
24.942648, -3.150989, 71.375000
24.942648, -3.150989, 71.500000
24.942648, -3.150989, 71.625000
24.942648, -3.150989, 71.750000
25.236091, -3.188060, 71.875000
25.236091, -3.188060, 72.000000
25.236091, -3.188060, 72.125000
25.529534, -3.225130, 72.250000
25.529534, -3.225130, 72.375000
25.529534, -3.225130, 72.500000
25.529534, -3.225130, 72.625000
25.822977, -3.262201, 72.750000
25.822977, -3.262201, 72.875000
25.822977, -3.262201, 73.000000
25.822977, -3.262201, 73.125000
25.822977, -3.262201, 73.250000
26.116420, -3.299271, 73.375000
26.116420, -3.299271, 73.500000
26.409863, -3.336342, 73.625000
26.409863, -3.336342, 73.750000
26.409863, -3.336342, 73.875000
26.409863, -3.336342, 74.000000
26.703306, -3.373412, 74.125000
26.703306, -3.373412, 74.250000
26.703306, -3.373412, 74.375000
26.703306, -3.373412, 74.500000
26.996749, -3.410483, 74.625000
26.996749, -3.410483, 74.750000
27.290192, -3.447553, 74.875000
27.290192, -3.447553, 75.000000
27.290192, -3.447553, 75.125000
27.290192, -3.447553, 75.250000
27.583635, -3.484623, 75.375000
27.583635, -3.484623, 75.500000
27.583635, -3.484623, 75.625000
27.583635, -3.484623, 75.750000
27.877078, -3.521694, 75.875000
27.877078, -3.521694, 76.000000
28.170521, -3.558764, 76.125000
27.877078, -3.521694, 76.250000
28.170521, -3.558764, 76.375000
28.170521, -3.558764, 76.500000
28.170521, -3.558764, 76.625000
28.463963, -3.595835, 76.750000
28.463963, -3.595835, 76.875000
28.463963, -3.595835, 77.000000
28.463963, -3.595835, 77.125000
28.757406, -3.632905, 77.250000
28.757406, -3.632905, 77.375000
28.757406, -3.632905, 77.500000
28.757406, -3.632905, 77.625000
29.050849, -3.669976, 77.750000
29.050849, -3.669976, 77.875000
29.344292, -3.707046, 78.000000
29.344292, -3.707046, 78.125000
29.637735, -3.744117, 78.250000
29.344292, -3.707046, 78.375000
29.637735, -3.744117, 78.500000
29.637735, -3.744117, 78.625000
29.637735, -3.744117, 78.750000
29.931178, -3.781187, 78.875000
30.224621, -3.818258, 79.000000
30.224621, -3.818258, 79.125000
30.224621, -3.818258, 79.250000
30.224621, -3.818258, 79.375000
30.518064, -3.855328, 79.500000
30.518064, -3.855328, 79.625000
30.518064, -3.855328, 79.750000
30.811507, -3.892399, 79.875000
30.811507, -3.892399, 80.000000
30.811507, -3.892399, 80.125000
30.811507, -3.892399, 80.250000
30.811507, -3.892399, 80.375000
30.811507, -3.892399, 80.500000
30.811507, -3.892399, 80.625000
30.811507, -3.892399, 80.750000
30.811507, -3.892399, 80.875000
30.811507, -3.892399, 81.000000
30.811507, -3.892399, 81.125000
30.811507, -3.892399, 81.250000
31.104950, -3.929469, 81.375000
53.700055, -6.783895, 102.375000
53.700055, -6.783895, 102.500000
54.286941, -6.858035, 102.625000
54.286941, -6.858035, 102.750000
54.286941, -6.858035, 102.875000
54.873826, -6.932176, 103.000000
54.873826, -6.932176, 103.125000
52.819726, -6.672683, 103.250000
53.700055, -6.783895, 103.375000
53.406612, -6.746824, 103.500000
198.467750, -18.760726, 0.625000
198.762213, -18.788561, 0.750000
196.995437, -18.621551, 0.875000
198.173287, -18.732891, 1.000000
198.467750, -18.760726, 1.125000
198.173287, -18.732891, 1.250000
195.228662, -18.454542, 1.375000
194.639737, -18.398872, 2.750000
194.050812, -18.343202, 3.375000
196.700975, -18.593717, 3.625000
199.056675, -18.816396, 3.750000
195.523125, -18.482377, 3.875000
198.467750, -18.760726, 4.000000
198.467750, -18.760726, 4.125000
197.584362, -18.677221, 4.250000
197.289900, -18.649386, 4.375000
199.351138, -18.844231, 4.500000
199.351138, -18.844231, 4.625000
7.656026, -0.723708, 43.875000
7.950489, -0.751542, 44.000000
7.656026, -0.723708, 44.125000
7.950489, -0.751542, 44.250000
7.950489, -0.751542, 44.375000
8.244951, -0.779377, 44.500000
8.244951, -0.779377, 44.625000
8.244951, -0.779377, 44.750000
8.244951, -0.779377, 44.875000
8.539414, -0.807212, 45.000000
8.539414, -0.807212, 45.125000
8.833876, -0.835047, 45.250000
8.539414, -0.807212, 45.375000
8.539414, -0.807212, 45.500000
8.539414, -0.807212, 45.625000
8.539414, -0.807212, 45.750000
8.833876, -0.835047, 45.875000
9.128339, -0.862882, 46.000000
9.128339, -0.862882, 46.125000
9.128339, -0.862882, 46.250000
9.128339, -0.862882, 46.375000
9.128339, -0.862882, 46.500000
9.128339, -0.862882, 46.625000
9.422801, -0.890717, 46.750000
9.422801, -0.890717, 46.875000
9.422801, -0.890717, 47.000000
9.422801, -0.890717, 47.125000
9.717264, -0.918552, 47.250000
9.717264, -0.918552, 47.375000
10.011726, -0.946387, 47.500000
10.011726, -0.946387, 47.625000
10.011726, -0.946387, 47.750000
10.011726, -0.946387, 47.875000
10.011726, -0.946387, 48.000000
10.306189, -0.974222, 48.125000
10.306189, -0.974222, 48.250000
10.600651, -1.002057, 48.375000
10.895114, -1.029891, 48.500000
10.895114, -1.029891, 48.625000
10.600651, -1.002057, 48.750000
10.600651, -1.002057, 48.875000
10.895114, -1.029891, 49.000000
10.895114, -1.029891, 49.125000
11.189576, -1.057726, 49.250000
10.895114, -1.029891, 49.375000
11.189576, -1.057726, 49.500000
11.189576, -1.057726, 49.625000
11.189576, -1.057726, 49.750000
11.189576, -1.057726, 49.875000
11.484039, -1.085561, 50.000000
11.484039, -1.085561, 50.125000
11.484039, -1.085561, 50.250000
11.484039, -1.085561, 50.375000
11.778501, -1.113396, 50.500000
11.484039, -1.085561, 50.625000
11.778501, -1.113396, 50.750000
12.072964, -1.141231, 50.875000
11.778501, -1.113396, 51.000000
12.072964, -1.141231, 51.125000
12.072964, -1.141231, 51.250000
12.072964, -1.141231, 51.375000
12.072964, -1.141231, 51.500000
12.072964, -1.141231, 51.625000
12.367427, -1.169066, 51.750000
12.367427, -1.169066, 51.875000
12.367427, -1.169066, 52.000000
12.367427, -1.169066, 52.125000
12.661889, -1.196901, 52.250000
12.661889, -1.196901, 52.375000
12.661889, -1.196901, 52.500000
12.956352, -1.224736, 52.625000
12.956352, -1.224736, 52.750000
13.250814, -1.252571, 52.875000
13.250814, -1.252571, 53.000000
13.250814, -1.252571, 53.125000
13.250814, -1.252571, 53.250000
13.545277, -1.280406, 53.375000
13.545277, -1.280406, 53.500000
13.545277, -1.280406, 53.625000
13.545277, -1.280406, 53.750000
13.545277, -1.280406, 53.875000
13.839739, -1.308241, 54.000000
14.134202, -1.336075, 54.125000
14.134202, -1.336075, 54.250000
14.134202, -1.336075, 54.375000
14.134202, -1.336075, 54.500000
14.428664, -1.363910, 54.625000
14.134202, -1.336075, 54.750000
14.428664, -1.363910, 54.875000
14.134202, -1.336075, 55.000000
14.723127, -1.391745, 55.125000
14.723127, -1.391745, 55.250000
14.723127, -1.391745, 55.375000
14.723127, -1.391745, 55.500000
14.723127, -1.391745, 55.625000
15.017589, -1.419580, 55.750000
15.017589, -1.419580, 55.875000
15.017589, -1.419580, 56.000000
15.017589, -1.419580, 56.125000
15.017589, -1.419580, 56.250000
15.312052, -1.447415, 56.375000
15.312052, -1.447415, 56.500000
15.606514, -1.475250, 56.625000
15.606514, -1.475250, 56.750000
15.606514, -1.475250, 56.875000
15.606514, -1.475250, 57.000000
15.900977, -1.503085, 57.125000
15.900977, -1.503085, 57.250000
15.900977, -1.503085, 57.375000
16.195440, -1.530920, 57.500000
16.195440, -1.530920, 57.625000
16.195440, -1.530920, 57.750000
16.195440, -1.530920, 57.875000
16.489902, -1.558755, 58.000000
16.489902, -1.558755, 58.125000
16.489902, -1.558755, 58.250000
16.489902, -1.558755, 58.375000
16.489902, -1.558755, 58.500000
16.784365, -1.586590, 58.625000
16.784365, -1.586590, 58.750000
17.078827, -1.614424, 58.875000
17.078827, -1.614424, 59.000000
17.078827, -1.614424, 59.125000
17.373290, -1.642259, 59.250000
17.373290, -1.642259, 59.375000
17.373290, -1.642259, 59.500000
17.373290, -1.642259, 59.625000
17.373290, -1.642259, 59.750000
17.667752, -1.670094, 59.875000
17.667752, -1.670094, 60.000000
17.667752, -1.670094, 60.125000
17.962215, -1.697929, 60.250000
17.962215, -1.697929, 60.375000
18.256677, -1.725764, 60.500000
18.256677, -1.725764, 60.625000
17.962215, -1.697929, 60.750000
18.256677, -1.725764, 60.875000
18.551140, -1.753599, 61.000000
18.256677, -1.725764, 61.125000
18.256677, -1.725764, 61.250000
18.551140, -1.753599, 61.375000
18.551140, -1.753599, 61.500000
18.551140, -1.753599, 61.625000
18.551140, -1.753599, 61.750000
18.845602, -1.781434, 61.875000
18.845602, -1.781434, 62.000000
18.845602, -1.781434, 62.125000
19.140065, -1.809269, 62.250000
19.140065, -1.809269, 62.375000
19.140065, -1.809269, 62.500000
19.140065, -1.809269, 62.625000
19.140065, -1.809269, 62.750000
19.728990, -1.864939, 62.875000
19.434527, -1.837104, 63.000000
19.434527, -1.837104, 63.125000
19.728990, -1.864939, 63.250000
19.728990, -1.864939, 63.375000
19.728990, -1.864939, 63.500000
20.023453, -1.892774, 63.625000
20.023453, -1.892774, 63.750000
20.023453, -1.892774, 63.875000
20.317915, -1.920608, 64.000000
20.023453, -1.892774, 64.125000
20.612378, -1.948443, 64.250000
20.317915, -1.920608, 64.375000
20.612378, -1.948443, 64.500000
20.612378, -1.948443, 64.625000
20.612378, -1.948443, 64.750000
20.612378, -1.948443, 64.875000
20.906840, -1.976278, 65.000000
21.201303, -2.004113, 65.125000
20.906840, -1.976278, 65.250000
21.201303, -2.004113, 65.375000
21.201303, -2.004113, 65.500000
21.201303, -2.004113, 65.625000
21.201303, -2.004113, 65.750000
21.201303, -2.004113, 65.875000
21.201303, -2.004113, 66.000000
21.495765, -2.031948, 66.125000
21.495765, -2.031948, 66.250000
21.495765, -2.031948, 66.375000
21.790228, -2.059783, 66.500000
21.790228, -2.059783, 66.625000
21.790228, -2.059783, 66.750000
21.790228, -2.059783, 66.875000
22.084690, -2.087618, 67.000000
22.084690, -2.087618, 67.125000
22.379153, -2.115453, 67.250000
22.379153, -2.115453, 67.375000
22.379153, -2.115453, 67.500000
22.379153, -2.115453, 67.625000
22.379153, -2.115453, 67.750000
22.673615, -2.143288, 67.875000
22.673615, -2.143288, 68.000000
22.673615, -2.143288, 68.125000
22.673615, -2.143288, 68.250000
22.968078, -2.171123, 68.375000
22.968078, -2.171123, 68.500000
23.262540, -2.198957, 68.625000
23.262540, -2.198957, 68.750000
23.262540, -2.198957, 68.875000
23.262540, -2.198957, 69.000000
23.262540, -2.198957, 69.125000
23.557003, -2.226792, 69.250000
23.557003, -2.226792, 69.375000
23.557003, -2.226792, 69.500000
23.557003, -2.226792, 69.625000
23.851466, -2.254627, 69.750000
23.851466, -2.254627, 69.875000
24.145928, -2.282462, 70.000000
24.145928, -2.282462, 70.125000
24.145928, -2.282462, 70.250000
24.440391, -2.310297, 70.375000
24.440391, -2.310297, 70.500000
24.440391, -2.310297, 70.625000
24.440391, -2.310297, 70.750000
24.440391, -2.310297, 70.875000
24.440391, -2.310297, 71.000000
24.734853, -2.338132, 71.125000
24.734853, -2.338132, 71.250000
24.734853, -2.338132, 71.375000
25.029316, -2.365967, 71.500000
25.029316, -2.365967, 71.625000
25.029316, -2.365967, 71.750000
25.029316, -2.365967, 71.875000
25.323778, -2.393802, 72.000000
25.323778, -2.393802, 72.125000
25.323778, -2.393802, 72.250000
25.618241, -2.421637, 72.375000
25.618241, -2.421637, 72.500000
25.618241, -2.421637, 72.625000
25.618241, -2.421637, 72.750000
25.618241, -2.421637, 72.875000
25.912703, -2.449472, 73.000000
25.912703, -2.449472, 73.125000
25.912703, -2.449472, 73.250000
26.207166, -2.477307, 73.375000
26.207166, -2.477307, 73.500000
26.207166, -2.477307, 73.625000
26.501628, -2.505141, 73.750000
26.501628, -2.505141, 73.875000
26.501628, -2.505141, 74.000000
26.796091, -2.532976, 74.125000
26.796091, -2.532976, 74.250000
26.796091, -2.532976, 74.375000
26.796091, -2.532976, 74.500000
26.796091, -2.532976, 74.625000
26.796091, -2.532976, 74.750000
27.090553, -2.560811, 74.875000
27.090553, -2.560811, 75.000000
27.385016, -2.588646, 75.125000
27.385016, -2.588646, 75.250000
27.385016, -2.588646, 75.375000
27.385016, -2.588646, 75.500000
27.679478, -2.616481, 75.625000
27.679478, -2.616481, 75.750000
27.679478, -2.616481, 75.875000
27.973941, -2.644316, 76.000000
27.973941, -2.644316, 76.125000
28.268404, -2.672151, 76.250000
27.973941, -2.644316, 76.375000
28.268404, -2.672151, 76.500000
28.268404, -2.672151, 76.625000
28.562866, -2.699986, 76.750000
28.562866, -2.699986, 76.875000
28.562866, -2.699986, 77.000000
28.562866, -2.699986, 77.125000
28.562866, -2.699986, 77.250000
28.857329, -2.727821, 77.375000
28.857329, -2.727821, 77.500000
28.857329, -2.727821, 77.625000
29.151791, -2.755656, 77.750000
29.151791, -2.755656, 77.875000
29.151791, -2.755656, 78.000000
29.151791, -2.755656, 78.125000
29.151791, -2.755656, 78.250000
29.740716, -2.811325, 78.375000
29.740716, -2.811325, 78.500000
29.740716, -2.811325, 78.625000
30.035179, -2.839160, 78.750000
30.035179, -2.839160, 78.875000
30.035179, -2.839160, 79.000000
30.329641, -2.866995, 79.125000
30.329641, -2.866995, 79.250000
30.329641, -2.866995, 79.375000
30.624104, -2.894830, 79.500000
30.624104, -2.894830, 79.625000
30.624104, -2.894830, 79.750000
30.918566, -2.922665, 79.875000
30.918566, -2.922665, 80.000000
31.213029, -2.950500, 80.125000
30.918566, -2.922665, 80.250000
31.213029, -2.950500, 80.375000
30.918566, -2.922665, 80.500000
30.918566, -2.922665, 80.625000
30.329641, -2.866995, 80.750000
30.918566, -2.922665, 80.875000
30.624104, -2.894830, 81.000000
30.329641, -2.866995, 81.125000
30.624104, -2.894830, 81.250000
30.035179, -2.839160, 81.375000
53.886644, -5.093788, 102.375000
53.886644, -5.093788, 102.500000
54.475569, -5.149457, 102.625000
54.475569, -5.149457, 102.750000
54.475569, -5.149457, 102.875000
55.064494, -5.205127, 103.000000
54.475569, -5.149457, 103.125000
53.297719, -5.038118, 103.250000
53.886644, -5.093788, 103.375000
53.592182, -5.065953, 103.500000
198.959107, -12.517446, 0.625000
199.549490, -12.554590, 0.750000
197.483149, -12.424587, 0.875000
198.959107, -12.517446, 1.000000
198.663915, -12.498874, 1.125000
198.663915, -12.498874, 1.250000
198.959107, -12.517446, 1.375000
195.121617, -12.276012, 2.750000
194.531233, -12.238868, 3.375000
196.892766, -12.387443, 3.625000
199.254298, -12.536018, 3.750000
196.007191, -12.331727, 3.875000
198.959107, -12.517446, 4.000000
198.959107, -12.517446, 4.125000
198.073532, -12.461730, 4.250000
197.778341, -12.443158, 4.375000
199.844681, -12.573162, 4.625000
7.970172, -0.501441, 43.625000
7.970172, -0.501441, 43.750000
7.674980, -0.482869, 43.875000
7.674980, -0.482869, 44.000000
7.674980, -0.482869, 44.125000
7.970172, -0.501441, 44.250000
7.674980, -0.482869, 44.375000
7.970172, -0.501441, 44.500000
8.265363, -0.520013, 44.625000
8.560555, -0.538584, 44.750000
8.265363, -0.520013, 44.875000
8.265363, -0.520013, 45.000000
8.560555, -0.538584, 45.125000
8.265363, -0.520013, 45.250000
8.855747, -0.557156, 45.375000
8.560555, -0.538584, 45.500000
8.560555, -0.538584, 45.625000
8.855747, -0.557156, 45.750000
8.855747, -0.557156, 45.875000
8.855747, -0.557156, 46.000000
8.855747, -0.557156, 46.125000
9.150938, -0.575728, 46.250000
9.150938, -0.575728, 46.375000
9.150938, -0.575728, 46.500000
9.446130, -0.594300, 46.625000
9.446130, -0.594300, 46.750000
9.446130, -0.594300, 46.875000
9.150938, -0.575728, 47.000000
9.741321, -0.612872, 47.125000
9.741321, -0.612872, 47.250000
9.741321, -0.612872, 47.375000
10.036513, -0.631444, 47.500000
10.036513, -0.631444, 47.625000
10.036513, -0.631444, 47.750000
10.036513, -0.631444, 47.875000
10.331704, -0.650016, 48.000000
10.331704, -0.650016, 48.125000
10.331704, -0.650016, 48.250000
10.626896, -0.668588, 48.375000
10.331704, -0.650016, 48.500000
10.626896, -0.668588, 48.625000
10.626896, -0.668588, 48.750000
10.626896, -0.668588, 48.875000
10.922087, -0.687159, 49.000000
10.922087, -0.687159, 49.125000
10.922087, -0.687159, 49.250000
10.922087, -0.687159, 49.375000
10.922087, -0.687159, 49.500000
10.922087, -0.687159, 49.625000
11.217279, -0.705731, 49.750000
11.217279, -0.705731, 49.875000
11.217279, -0.705731, 50.000000
11.512471, -0.724303, 50.125000
11.512471, -0.724303, 50.250000
11.512471, -0.724303, 50.375000
11.512471, -0.724303, 50.500000
11.512471, -0.724303, 50.625000
11.512471, -0.724303, 50.750000
11.512471, -0.724303, 50.875000
11.807662, -0.742875, 51.000000
11.807662, -0.742875, 51.125000
12.102854, -0.761447, 51.250000
12.102854, -0.761447, 51.375000
12.102854, -0.761447, 51.500000
12.398045, -0.780019, 51.625000
12.398045, -0.780019, 51.750000
12.693237, -0.798591, 51.875000
12.398045, -0.780019, 52.000000
12.693237, -0.798591, 52.125000
12.398045, -0.780019, 52.250000
12.988428, -0.817163, 52.375000
12.988428, -0.817163, 52.500000
12.988428, -0.817163, 52.625000
12.693237, -0.798591, 52.750000
12.988428, -0.817163, 52.875000
13.283620, -0.835735, 53.000000
13.283620, -0.835735, 53.125000
13.283620, -0.835735, 53.250000
13.578811, -0.854306, 53.375000
13.578811, -0.854306, 53.500000
13.578811, -0.854306, 53.625000
13.578811, -0.854306, 53.750000
13.874003, -0.872878, 53.875000
13.578811, -0.854306, 54.000000
13.874003, -0.872878, 54.125000
13.874003, -0.872878, 54.250000
14.169195, -0.891450, 54.375000
14.169195, -0.891450, 54.500000
14.169195, -0.891450, 54.625000
14.169195, -0.891450, 54.750000
14.169195, -0.891450, 54.875000
14.169195, -0.891450, 55.000000
14.759578, -0.928594, 55.125000
14.464386, -0.910022, 55.250000
14.464386, -0.910022, 55.375000
15.054769, -0.947166, 55.500000
14.759578, -0.928594, 55.625000
14.759578, -0.928594, 55.750000
14.759578, -0.928594, 55.875000
14.759578, -0.928594, 56.000000
15.054769, -0.947166, 56.125000
15.054769, -0.947166, 56.250000
15.349961, -0.965738, 56.375000
15.349961, -0.965738, 56.500000
15.349961, -0.965738, 56.625000
15.349961, -0.965738, 56.750000
15.645152, -0.984310, 56.875000
15.645152, -0.984310, 57.000000
15.940344, -1.002881, 57.125000
15.940344, -1.002881, 57.250000
15.940344, -1.002881, 57.375000
15.940344, -1.002881, 57.500000
15.940344, -1.002881, 57.625000
16.235535, -1.021453, 57.750000
16.235535, -1.021453, 57.875000
16.235535, -1.021453, 58.000000
16.530727, -1.040025, 58.125000
16.530727, -1.040025, 58.250000
16.530727, -1.040025, 58.375000
16.530727, -1.040025, 58.500000
16.825919, -1.058597, 58.625000
16.825919, -1.058597, 58.750000
16.825919, -1.058597, 58.875000
17.121110, -1.077169, 59.000000
17.121110, -1.077169, 59.125000
17.416302, -1.095741, 59.250000
17.416302, -1.095741, 59.375000
17.416302, -1.095741, 59.500000
17.416302, -1.095741, 59.625000
17.711493, -1.114313, 59.750000
17.416302, -1.095741, 59.875000
17.711493, -1.114313, 60.000000
17.711493, -1.114313, 60.125000
18.006685, -1.132885, 60.250000
17.711493, -1.114313, 60.375000
17.711493, -1.114313, 60.500000
18.006685, -1.132885, 60.625000
18.301876, -1.151456, 60.750000
18.301876, -1.151456, 60.875000
18.006685, -1.132885, 61.000000
18.301876, -1.151456, 61.125000
18.301876, -1.151456, 61.250000
18.301876, -1.151456, 61.375000
18.301876, -1.151456, 61.500000
18.597068, -1.170028, 61.625000
18.597068, -1.170028, 61.750000
18.597068, -1.170028, 61.875000
18.892259, -1.188600, 62.000000
18.892259, -1.188600, 62.125000
18.892259, -1.188600, 62.250000
19.187451, -1.207172, 62.375000
19.187451, -1.207172, 62.500000
19.187451, -1.207172, 62.625000
19.482643, -1.225744, 62.750000
19.482643, -1.225744, 62.875000
19.482643, -1.225744, 63.000000
19.482643, -1.225744, 63.125000
19.482643, -1.225744, 63.250000
19.482643, -1.225744, 63.375000
19.777834, -1.244316, 63.500000
19.777834, -1.244316, 63.625000
19.777834, -1.244316, 63.750000
20.073026, -1.262888, 63.875000
20.073026, -1.262888, 64.000000
20.073026, -1.262888, 64.125000
20.368217, -1.281460, 64.250000
20.368217, -1.281460, 64.375000
20.663409, -1.300031, 64.500000
20.663409, -1.300031, 64.625000
20.663409, -1.300031, 64.750000
20.663409, -1.300031, 64.875000
20.663409, -1.300031, 65.000000
20.663409, -1.300031, 65.125000
20.958600, -1.318603, 65.250000
20.958600, -1.318603, 65.375000
21.253792, -1.337175, 65.500000
21.253792, -1.337175, 65.625000
21.253792, -1.337175, 65.750000
21.253792, -1.337175, 65.875000
21.253792, -1.337175, 66.000000
21.548983, -1.355747, 66.125000
21.844175, -1.374319, 66.250000
21.548983, -1.355747, 66.375000
21.844175, -1.374319, 66.500000
22.139366, -1.392891, 66.625000
21.844175, -1.374319, 66.750000
21.844175, -1.374319, 66.875000
21.844175, -1.374319, 67.000000
22.139366, -1.392891, 67.125000
22.139366, -1.392891, 67.250000
22.139366, -1.392891, 67.375000
22.139366, -1.392891, 67.500000
22.434558, -1.411463, 67.625000
22.434558, -1.411463, 67.750000
22.434558, -1.411463, 67.875000
23.024941, -1.448607, 68.000000
22.729750, -1.430035, 68.125000
23.024941, -1.448607, 68.250000
23.024941, -1.448607, 68.375000
23.024941, -1.448607, 68.500000
23.024941, -1.448607, 68.625000
23.024941, -1.448607, 68.750000
23.320133, -1.467178, 68.875000
23.320133, -1.467178, 69.000000
23.320133, -1.467178, 69.125000
23.615324, -1.485750, 69.250000
23.615324, -1.485750, 69.375000
23.615324, -1.485750, 69.500000
23.615324, -1.485750, 69.625000
23.910516, -1.504322, 69.750000
23.910516, -1.504322, 69.875000
23.910516, -1.504322, 70.000000
24.205707, -1.522894, 70.125000
24.205707, -1.522894, 70.250000
24.500899, -1.541466, 70.375000
24.205707, -1.522894, 70.500000
24.205707, -1.522894, 70.625000
24.500899, -1.541466, 70.750000
24.500899, -1.541466, 70.875000
24.500899, -1.541466, 71.000000
24.796090, -1.560038, 71.125000
24.500899, -1.541466, 71.250000
24.796090, -1.560038, 71.375000
24.796090, -1.560038, 71.500000
24.796090, -1.560038, 71.625000
25.091282, -1.578610, 71.750000
25.091282, -1.578610, 71.875000
25.091282, -1.578610, 72.000000
25.091282, -1.578610, 72.125000
25.386474, -1.597182, 72.250000
25.386474, -1.597182, 72.375000
25.386474, -1.597182, 72.500000
25.681665, -1.615753, 72.625000
25.681665, -1.615753, 72.750000
25.681665, -1.615753, 72.875000
25.681665, -1.615753, 73.000000
25.976857, -1.634325, 73.125000
25.976857, -1.634325, 73.250000
25.976857, -1.634325, 73.375000
26.567240, -1.671469, 73.500000
26.567240, -1.671469, 73.625000
26.272048, -1.652897, 73.750000
26.272048, -1.652897, 73.875000
26.862431, -1.690041, 74.000000
26.567240, -1.671469, 74.125000
26.862431, -1.690041, 74.250000
26.862431, -1.690041, 74.375000
26.862431, -1.690041, 74.500000
27.157623, -1.708613, 74.625000
27.157623, -1.708613, 74.750000
27.157623, -1.708613, 74.875000
27.157623, -1.708613, 75.000000
27.157623, -1.708613, 75.125000
27.748006, -1.745757, 75.250000
27.748006, -1.745757, 75.375000
27.452814, -1.727185, 75.500000
27.452814, -1.727185, 75.625000
27.748006, -1.745757, 75.750000
27.748006, -1.745757, 75.875000
28.043198, -1.764328, 76.000000
28.043198, -1.764328, 76.125000
28.043198, -1.764328, 76.250000
28.043198, -1.764328, 76.375000
28.338389, -1.782900, 76.500000
28.338389, -1.782900, 76.625000
28.338389, -1.782900, 76.750000
28.338389, -1.782900, 76.875000
28.338389, -1.782900, 77.000000
28.633581, -1.801472, 77.125000
28.633581, -1.801472, 77.250000
28.633581, -1.801472, 77.375000
28.633581, -1.801472, 77.500000
28.928772, -1.820044, 77.625000
28.928772, -1.820044, 77.750000
28.928772, -1.820044, 77.875000
29.223964, -1.838616, 78.000000
29.223964, -1.838616, 78.125000
29.223964, -1.838616, 78.250000
29.519155, -1.857188, 78.375000
29.519155, -1.857188, 78.500000
29.814347, -1.875760, 78.625000
29.814347, -1.875760, 78.750000
30.109538, -1.894332, 78.875000
30.109538, -1.894332, 79.000000
30.404730, -1.912903, 79.125000
30.699922, -1.931475, 79.250000
30.995113, -1.950047, 79.375000
30.995113, -1.950047, 79.500000
32.175879, -2.024335, 79.625000
32.175879, -2.024335, 79.750000
32.471071, -2.042907, 79.875000
32.471071, -2.042907, 80.000000
32.766262, -2.061478, 80.125000
33.356646, -2.098622, 80.250000
33.947029, -2.135766, 80.375000
33.947029, -2.135766, 80.500000
30.404730, -1.912903, 80.625000
29.519155, -1.857188, 80.750000
29.814347, -1.875760, 80.875000
38.670093, -2.432916, 81.000000
39.260477, -2.470060, 81.125000
39.260477, -2.470060, 81.250000
39.555668, -2.488632, 81.375000
39.260477, -2.470060, 81.500000
39.555668, -2.488632, 81.625000
39.555668, -2.488632, 81.750000
54.020054, -3.398654, 102.375000
54.020054, -3.398654, 102.500000
54.610437, -3.435797, 102.750000
54.610437, -3.435797, 102.875000
54.905629, -3.454369, 103.000000
54.315246, -3.417226, 103.125000
53.134480, -3.342938, 103.250000
54.020054, -3.398654, 103.375000
53.724863, -3.380082, 103.500000
199.254115, -6.261813, 0.625000
199.549744, -6.271103, 0.750000
197.775969, -6.215360, 0.875000
198.958486, -6.252522, 1.000000
199.254115, -6.261813, 1.125000
198.958486, -6.252522, 1.250000
195.115305, -6.131745, 3.375000
197.184710, -6.196779, 3.625000
199.845373, -6.280394, 3.750000
196.297822, -6.168908, 3.875000
199.254115, -6.261813, 4.000000
